ply
format ascii 1.0
element vertex 1265
property float x
property float y
property float z
property uchar red
property uchar green
property uchar blue
end_header
-0.536546 -0.347771 -0.369290 0 0 255
-0.596775 -0.011132 0.357895 153 0 76
0.544723 0.001596 -0.317999 153 76 0
-0.587655 -0.374090 -0.366905 0 0 255
-0.654680 -0.375146 -0.369290 0 0 255
0.327702 0.296899 0.357895 153 0 76
-0.629475 0.326049 -0.048630 127 0 127
0.746632 -0.416391 0.378467 0 255 0
-0.724585 0.356779 0.239079 127 0 127
0.039849 -0.090991 0.357895 153 0 76
0.577232 0.326049 0.275216 127 0 127
0.615620 0.253149 -0.317999 153 76 0
-0.482863 0.039238 -0.041466 0 255 0
0.393107 0.248152 0.327165 153 0 76
-0.545722 0.356779 -0.136461 127 0 127
0.340279 0.326049 0.261602 127 0 127
0.439560 0.101309 -0.348729 153 76 0
0.140380 0.326049 0.126705 127 0 127
-0.114149 0.197670 -0.348729 153 76 0
0.042785 -0.283424 -0.232887 76 0 153
-0.690638 0.242365 0.319872 204 51 127
0.784390 0.103973 -0.216231 76 0 153
-0.383341 0.271593 -0.018918 127 127 0
-0.078637 0.172366 0.357895 153 0 76
-0.057690 0.033853 0.357895 153 0 76
0.835748 -0.503760 -0.294711 204 51 127
0.677888 0.326049 0.107425 127 0 127
-0.194614 -0.303911 -0.184337 76 0 153
-0.324743 -0.324397 -0.264441 76 0 153
0.305513 -0.283424 -0.117361 76 0 153
-0.407942 0.315806 0.363538 153 76 0
-0.322623 0.326049 0.105333 127 0 127
-0.436185 -0.283424 -0.144932 76 0 153
-0.427143 -0.303911 0.053732 76 0 153
0.784390 -0.055570 -0.279005 76 0 153
0.689797 -0.303911 0.203590 76 0 153
-0.545437 0.207805 -0.348729 153 76 0
0.558064 0.302398 -0.317999 153 76 0
-0.741712 -0.340392 0.307089 255 0 0
0.501504 -0.180214 -0.317999 153 76 0
-0.093942 0.356779 0.293115 127 0 127
0.810341 -0.354769 0.189594 204 51 127
0.024563 0.326049 0.244302 127 0 127
-0.106137 -0.283424 -0.088196 76 0 153
0.754976 -0.138274 0.327165 153 0 76
-0.741712 -0.334369 -0.123870 255 0 0
-0.167068 0.326049 0.138098 127 0 127
0.610893 -0.061147 0.327165 153 0 76
-0.690638 0.090941 -0.208829 204 51 127
-0.690638 -0.270745 0.038335 204 51 127
-0.741712 -0.311179 0.128194 255 0 0
0.805527 0.356779 0.285865 127 0 127
0.422242 0.326049 0.321996 127 0 127
0.049624 -0.283424 0.133500 76 0 153
0.328417 -0.284901 0.203794 76 0 153
0.183786 0.159402 -0.348729 153 76 0
0.114462 0.326049 -0.051991 127 0 127
0.784390 0.255457 0.251221 76 0 153
-0.680719 -0.122341 0.357895 153 0 76
-0.176691 0.158166 -0.348729 153 76 0
0.774926 -0.436758 -0.338560 0 0 255
0.784390 0.236772 0.090682 76 0 153
0.650849 0.356779 0.020041 127 0 127
-0.721368 0.140694 -0.130602 204 51 127
0.480437 -0.283424 -0.325046 153 76 0
0.225933 -0.104476 -0.317999 153 76 0
-0.690638 -0.113715 0.239011 204 51 127
0.023150 -0.279351 -0.317999 153 76 0
-0.721368 -0.125109 -0.136455 204 51 127
-0.690638 -0.122560 0.273665 204 51 127
-0.362854 0.145698 0.246810 127 127 0
0.225904 -0.264282 -0.317999 153 76 0
-0.383341 0.080144 -0.252908 127 127 0
0.611847 0.190007 -0.348729 153 76 0
-0.582094 -0.141580 0.357895 153 0 76
-0.721368 -0.247762 0.253928 204 51 127
-0.075389 -0.324397 0.350734 76 0 153
-0.710982 -0.399144 0.339628 255 0 0
0.667637 0.356779 -0.248528 127 0 127
-0.721368 0.197081 -0.125462 204 51 127
-0.009805 0.160522 -0.317999 153 76 0
0.784390 -0.068652 0.177480 76 0 153
0.512943 -0.303911 0.233725 76 0 153
0.722791 0.220118 -0.348729 153 76 0
-0.104020 0.094007 0.327165 153 0 76
0.214038 0.283763 0.327165 153 0 76
-0.102242 -0.299136 -0.144617 76 0 153
-0.193593 -0.312289 -0.369290 0 0 255
0.512589 0.272369 -0.348729 153 76 0
0.262840 -0.126491 -0.348729 153 76 0
0.630442 0.081810 -0.317999 153 76 0
0.715977 0.326049 -0.113745 127 0 127
0.754237 -0.283424 0.258829 76 0 153
-0.211496 -0.258971 0.327165 153 0 76
0.298930 -0.036380 -0.348729 153 76 0
-0.712890 0.326049 0.001953 127 0 127
0.165979 0.354372 0.352773 127 0 127
0.119897 0.356779 -0.344722 127 0 127
0.202603 0.059929 0.357895 153 0 76
0.498937 0.025667 0.327165 153 0 76
-0.473990 0.039238 -0.129092 0 255 0
0.750259 -0.283424 -0.136333 76 0 153
-0.646071 -0.303911 -0.335760 76 0 153
-0.087426 0.356779 -0.014514 127 0 127
0.190173 -0.283424 0.020796 76 0 153
0.783158 -0.283424 0.003003 76 0 153
-0.487068 0.326049 0.301570 127 0 127
-0.464714 0.260336 -0.317999 153 76 0
-0.514465 0.326049 0.118251 127 0 127
0.225829 -0.051175 0.357895 153 0 76
0.572465 -0.324397 0.336389 76 0 153
-0.118981 -0.221160 -0.348729 153 76 0
0.181612 0.356779 -0.293472 127 0 127
0.784390 0.119490 0.147108 76 0 153
-0.362854 0.068612 -0.094001 127 127 0
0.308425 -0.032714 0.357895 153 0 76
-0.084173 -0.140825 -0.348729 153 76 0
-0.721368 -0.035021 0.237661 204 51 127
-0.013882 0.326049 -0.112357 127 0 127
0.240839 0.161296 0.327165 153 0 76
-0.585312 0.197033 0.327165 153 0 76
0.315989 -0.303911 -0.027593 76 0 153
0.216000 -0.023867 0.327165 153 0 76
-0.690638 0.146010 0.266889 204 51 127
0.532874 0.326049 -0.309615 127 0 127
-0.651114 0.163764 0.357895 153 0 76
-0.357093 -0.131028 -0.348729 153 76 0
-0.712281 0.326049 -0.132062 127 0 127
-0.163426 0.326049 0.032023 127 0 127
0.506324 -0.303911 0.004903 76 0 153
-0.207791 0.356779 0.118755 127 0 127
0.452469 0.141175 -0.317999 153 76 0
0.727310 -0.301059 0.376601 255 0 0
0.301727 0.326049 0.251434 127 0 127
0.662128 0.326049 0.259553 127 0 127
0.466944 -0.344884 0.365343 0 255 0
0.075657 0.089099 0.357895 153 0 76
-0.721368 0.133968 -0.239006 204 51 127
-0.406697 0.194656 0.357895 153 0 76
-0.107886 0.226017 0.327165 153 0 76
0.527939 -0.171570 -0.348729 153 76 0
-0.513687 0.356779 0.139313 127 0 127
0.815119 0.270647 -0.022598 76 0 153
0.199799 0.329933 0.352773 127 0 127
0.690674 0.068861 0.357895 153 0 76
-0.200939 0.071742 0.327165 153 0 76
-0.408455 -0.225202 -0.317999 153 76 0
0.424842 0.314430 -0.348729 153 76 0
0.534352 -0.303911 -0.354228 0 0 255
0.668131 -0.303911 -0.027915 76 0 153
-0.707765 -0.476372 0.347737 0 255 0
0.542272 0.326049 0.219775 127 0 127
0.530925 0.109634 0.388625 76 0 153
0.301184 0.326049 -0.009774 127 0 127
0.293963 -0.099484 -0.348729 153 76 0
-0.138329 0.356779 -0.076571 127 0 127
-0.362854 0.191906 0.043786 127 127 0
0.294548 0.128041 0.327165 153 0 76
-0.200962 -0.283424 -0.122102 76 0 153
-0.459229 -0.303911 0.297162 76 0 153
0.383516 0.356779 -0.346213 127 0 127
0.719197 -0.324397 -0.321332 76 0 153
-0.560042 -0.293668 -0.258621 76 0 153
-0.630278 0.122232 -0.317999 153 76 0
0.207174 0.326049 -0.273504 127 0 127
-0.467411 -0.075001 0.357895 153 0 76
0.618274 0.171188 0.357895 153 0 76
0.234302 0.188100 -0.348729 153 76 0
0.026382 -0.283424 0.042216 76 0 153
-0.501941 0.010557 -0.288303 0 255 0
0.805019 -0.443492 0.286187 204 51 127
-0.415653 0.138621 -0.317999 153 76 0
-0.232242 0.263991 -0.348729 153 76 0
-0.047595 0.326049 0.296258 127 0 127
-0.660387 0.070930 0.327165 153 0 76
0.784390 0.087565 0.181908 76 0 153
0.372645 -0.324397 -0.313244 76 0 153
0.391028 0.326049 -0.298685 127 0 127
-0.230064 -0.118354 -0.348729 153 76 0
-0.448281 -0.324397 -0.339837 76 0 153
-0.592322 0.216832 -0.348729 153 76 0
-0.721368 -0.192094 -0.202696 204 51 127
-0.516296 -0.122326 -0.348729 153 76 0
-0.527121 0.259871 0.327165 153 0 76
0.784390 -0.274156 0.108831 76 0 153
0.788024 -0.149948 -0.330980 76 0 153
0.784390 -0.094175 -0.063513 76 0 153
0.302611 -0.309961 -0.369290 0 0 255
-0.721368 -0.255674 -0.261171 204 51 127
-0.647637 -0.283424 -0.103369 76 0 153
0.594038 -0.275907 -0.348729 153 76 0
-0.220839 0.326049 -0.028440 127 0 127
-0.018348 -0.228503 -0.348729 153 76 0
-0.126258 0.176112 -0.317999 153 76 0
0.833860 0.326049 0.308677 127 0 127
0.805019 -0.343377 0.306829 204 51 127
0.815119 0.319167 0.143520 76 0 153
0.097325 0.356779 0.261525 127 0 127
-0.721368 0.089607 0.066429 204 51 127
-0.139076 -0.283424 0.066071 76 0 153
-0.570762 0.094576 0.357895 153 0 76
-0.232155 0.180523 -0.348729 153 76 0
0.784390 -0.224962 -0.048221 76 0 153
0.812467 0.326049 -0.263474 76 0 153
0.784390 0.223889 -0.282016 76 0 153
-0.708626 0.326049 0.144549 127 0 127
-0.362854 0.212836 -0.083659 127 127 0
0.367751 -0.283424 0.218419 76 0 153
0.392410 0.356779 -0.029684 127 0 127
-0.362854 0.294638 0.306796 127 127 0
-0.721368 0.264461 0.002417 204 51 127
-0.285164 0.326049 0.021647 127 0 127
0.364711 0.272936 -0.348729 153 76 0
0.772845 -0.303911 0.346179 76 0 153
-0.604732 -0.132822 0.327165 153 0 76
-0.278427 -0.303911 -0.155196 76 0 153
-0.042783 -0.324397 0.346729 76 0 153
0.153671 -0.194761 -0.348729 153 76 0
0.835748 -0.385018 -0.285745 204 51 127
-0.721368 -0.042519 -0.043030 204 51 127
0.784368 0.326049 -0.066163 127 0 127
0.187434 0.126742 0.357895 153 0 76
0.414002 0.356779 -0.092339 127 0 127
-0.075316 -0.303911 0.079755 76 0 153
-0.690638 -0.026443 0.179733 204 51 127
0.050765 0.356779 0.279995 127 0 127
-0.588383 0.356779 -0.142778 127 0 127
-0.741712 -0.466374 0.314327 255 0 0
0.276305 -0.283424 -0.275082 76 0 153
-0.276173 -0.303911 0.269858 76 0 153
0.806998 0.005851 0.357895 76 0 153
0.815119 -0.300947 -0.223106 255 0 0
-0.090226 0.326049 0.328329 153 0 76
0.610794 -0.138179 0.327165 153 0 76
0.249159 -0.303911 0.020973 76 0 153
-0.430002 -0.080207 -0.348729 153 76 0
-0.690638 0.019073 -0.191356 204 51 127
0.106457 -0.016842 -0.348729 153 76 0
0.416906 -0.153113 0.357895 153 0 76
-0.483584 0.059725 0.075168 0 255 0
-0.613204 0.059725 0.278208 0 255 0
0.763754 0.356779 0.107209 127 0 127
0.815119 -0.140920 -0.147881 76 0 153
0.225002 -0.303911 0.170924 76 0 153
-0.721368 -0.191456 -0.003527 204 51 127
-0.438720 -0.269757 -0.348729 153 76 0
-0.207048 0.129832 0.327165 153 0 76
-0.294803 0.356779 -0.096510 127 0 127
0.277209 -0.283424 -0.076544 76 0 153
-0.590596 -0.227389 0.327165 153 0 76
0.815119 -0.211865 -0.013367 76 0 153
-0.690638 -0.159711 -0.285081 204 51 127
0.784390 0.301833 -0.043938 76 0 153
-0.024245 -0.324397 -0.324459 76 0 153
-0.383826 0.144905 0.388625 153 76 0
-0.690638 -0.231786 -0.098895 204 51 127
0.586271 0.356779 0.230722 127 0 127
0.390940 0.326049 -0.069963 127 0 127
-0.383341 0.171757 -0.222304 127 127 0
0.784390 -0.067891 0.231854 76 0 153
0.186478 -0.303911 -0.153955 76 0 153
-0.135170 0.356779 -0.182349 127 0 127
0.815119 0.149508 -0.133187 76 0 153
0.839407 0.356779 0.154975 127 0 127
0.784390 0.144893 -0.279359 76 0 153
-0.137604 0.356779 0.091157 127 0 127
0.761513 0.326049 -0.270506 127 0 127
0.315542 -0.109090 0.327165 153 0 76
-0.475908 0.131786 -0.317999 153 76 0
0.444255 -0.196612 -0.348729 153 76 0
-0.721368 -0.089736 0.193429 204 51 127
-0.081280 -0.283424 0.251532 76 0 153
0.654065 0.326049 -0.157717 127 0 127
-0.640845 -0.263726 0.327165 153 0 76
-0.362854 0.267252 -0.086517 127 127 0
-0.515246 0.087126 0.327165 153 0 76
-0.611471 -0.341918 -0.369290 0 0 255
-0.710982 -0.327756 -0.172586 255 0 0
0.805851 0.294763 -0.348729 153 76 0
0.745998 -0.283424 -0.230734 76 0 153
0.274067 0.326925 0.353359 127 0 127
0.349394 0.326049 0.311394 127 0 127
0.325381 0.356779 0.246945 127 0 127
0.815119 -0.203746 -0.219695 76 0 153
-0.690638 0.198128 -0.254499 204 51 127
0.229010 0.356779 -0.296125 127 0 127
0.609499 -0.073321 -0.317999 153 76 0
-0.651992 0.218746 0.327165 153 0 76
0.449500 0.063902 -0.317999 153 76 0
-0.455119 0.200911 0.357895 153 0 76
0.784390 -0.060763 0.279406 76 0 153
0.049540 -0.095633 0.327165 153 0 76
0.251419 0.062926 -0.317999 153 76 0
0.059579 0.040551 -0.348729 153 76 0
0.815119 0.214067 -0.249567 76 0 153
-0.030096 0.326049 0.214185 127 0 127
-0.544195 0.012110 0.296436 0 255 0
-0.425955 0.326049 -0.271266 127 0 127
-0.126899 -0.303911 0.370566 255 0 0
0.671935 0.326049 -0.346210 153 76 0
0.589317 0.065567 -0.348729 153 76 0
-0.409884 0.356779 -0.023772 127 0 127
0.580412 0.250261 -0.317999 153 76 0
0.526231 0.103620 -0.348729 153 76 0
-0.239817 -0.017112 0.357895 153 0 76
0.094972 0.194880 -0.348729 153 76 0
-0.690638 -0.149109 -0.323788 204 51 127
0.375312 0.214380 -0.317999 153 76 0
-0.171271 -0.079737 0.327165 153 0 76
-0.346453 -0.329778 0.347737 0 255 0
0.815119 -0.060801 -0.113553 76 0 153
0.349757 0.356779 -0.289900 127 0 127
-0.043509 0.192696 0.357895 153 0 76
-0.443326 0.059725 -0.082092 0 255 0
0.724126 -0.350307 0.347737 0 255 0
-0.161660 0.164583 0.357895 153 0 76
-0.559270 0.326049 0.053420 127 0 127
0.815119 0.070644 -0.056979 76 0 153
-0.692624 0.029309 -0.338066 153 76 0
0.193309 0.283312 0.357895 153 0 76
0.762316 0.356779 -0.354759 127 0 127
-0.365923 -0.273314 -0.317999 153 76 0
-0.025683 0.356779 0.328645 127 0 127
0.109140 0.356779 0.321077 127 0 127
0.006747 0.356779 -0.369679 127 0 127
-0.523862 0.168903 -0.317999 153 76 0
-0.690638 -0.025435 -0.152955 204 51 127
0.157121 -0.303911 0.086608 76 0 153
-0.702572 -0.257586 -0.317999 153 76 0
0.275802 0.326049 0.129995 127 0 127
0.157155 -0.283424 -0.186520 76 0 153
-0.399904 0.059725 -0.014433 0 255 0
-0.208596 0.141076 -0.317999 153 76 0
0.664408 -0.133619 0.357895 153 0 76
0.807264 -0.355127 0.369324 0 255 0
0.002166 -0.303911 -0.207184 76 0 153
-0.721368 -0.197869 -0.112638 204 51 127
-0.621015 0.326049 0.349890 153 0 76
0.731636 -0.195577 -0.348729 153 76 0
0.715834 0.103513 -0.317999 153 76 0
0.693884 -0.303911 0.292738 76 0 153
0.639187 0.179850 0.327165 153 0 76
-0.721368 0.058258 -0.118559 204 51 127
0.681416 -0.283424 -0.183942 76 0 153
0.815119 -0.030643 0.197993 76 0 153
-0.582107 0.356779 0.252210 127 0 127
-0.437301 -0.303911 -0.119856 76 0 153
0.551817 -0.283424 -0.066066 76 0 153
-0.555108 0.326049 0.306498 127 0 127
-0.154052 -0.324449 -0.340885 0 0 255
0.784390 0.207025 -0.157266 76 0 153
-0.746976 0.354278 0.083061 127 0 127
-0.690638 -0.061752 -0.248523 204 51 127
0.634677 -0.283424 0.176529 76 0 153
-0.721368 0.191775 0.204455 204 51 127
0.093351 -0.283424 -0.244362 76 0 153
0.563833 -0.283424 -0.278168 76 0 153
0.703034 0.326049 0.137367 127 0 127
0.784390 -0.145835 -0.286614 76 0 153
0.010919 -0.196461 -0.317999 153 76 0
0.683542 0.123165 0.357895 153 0 76
-0.568681 0.029071 -0.348729 153 76 0
0.715206 0.326049 -0.024444 127 0 127
-0.356480 -0.282702 0.357895 153 0 76
-0.690638 -0.037286 0.007331 204 51 127
-0.741855 -0.302849 -0.098136 255 0 0
0.158376 0.088600 0.327165 153 0 76
0.810353 -0.240457 0.357895 76 0 153
-0.563287 -0.359455 0.350887 0 255 0
0.480228 0.356779 -0.159803 127 0 127
-0.286386 -0.283424 -0.212205 76 0 153
0.547457 -0.102826 -0.348729 153 76 0
-0.324217 -0.012865 0.327165 153 0 76
0.500379 -0.296568 0.342530 76 0 153
0.121534 -0.303911 -0.001127 76 0 153
0.560150 0.356779 0.167059 127 0 127
-0.690638 -0.164235 -0.156168 204 51 127
-0.741712 -0.400052 0.258499 255 0 0
0.113890 -0.086068 -0.348729 153 76 0
-0.710982 -0.402126 -0.279229 255 0 0
-0.586549 0.326049 0.330990 153 0 76
-0.403245 0.059725 -0.270193 0 255 0
0.398078 0.356779 0.073484 127 0 127
-0.362854 0.265377 0.198716 127 127 0
-0.703707 -0.420152 -0.338560 0 0 255
-0.045413 -0.219017 -0.317999 153 76 0
0.495835 -0.303911 -0.137691 76 0 153
-0.721368 -0.219395 -0.178959 204 51 127
-0.533393 -0.303911 0.042937 76 0 153
-0.690638 0.113043 0.311245 204 51 127
-0.383341 0.229989 0.105097 127 127 0
0.239861 0.326049 0.211853 127 0 127
0.659295 0.007865 0.357895 153 0 76
-0.301281 -0.303911 0.143784 76 0 153
0.021459 -0.324397 0.277359 76 0 153
0.585850 0.278062 0.357895 153 0 76
-0.303236 -0.108636 -0.317999 153 76 0
-0.391417 0.039238 0.168936 0 255 0
-0.231013 0.025490 -0.348729 153 76 0
-0.741712 -0.326840 0.089941 255 0 0
-0.562148 0.308612 -0.348729 153 76 0
0.383279 0.326049 -0.208866 127 0 127
0.328994 0.066136 -0.317999 153 76 0
0.797214 -0.283424 0.061673 76 0 153
0.185583 -0.301628 0.357895 153 0 76
0.438219 -0.247427 -0.317999 153 76 0
-0.331352 0.193731 0.327165 153 0 76
0.784390 0.244664 0.038527 76 0 153
-0.172251 -0.283424 0.309159 76 0 153
-0.064267 -0.283424 -0.286984 76 0 153
-0.396551 0.356779 0.202756 127 0 127
-0.690638 0.123223 -0.163057 204 51 127
-0.362854 0.294103 0.173947 127 127 0
-0.463049 0.059725 0.149955 0 255 0
0.300003 -0.303911 0.306821 76 0 153
0.061556 -0.303911 -0.101981 76 0 153
0.044218 -0.303911 0.216467 76 0 153
0.026116 0.187370 0.327165 153 0 76
0.784390 0.057776 0.035302 76 0 153
0.699327 -0.145066 0.327165 153 0 76
0.110842 -0.324397 -0.307309 76 0 153
-0.690638 -0.045031 0.308004 204 51 127
-0.721368 -0.169923 0.274661 204 51 127
-0.721368 -0.169034 -0.255281 204 51 127
-0.303801 0.326049 -0.320412 153 76 0
-0.721368 0.083565 0.347653 153 0 76
0.815119 0.065224 0.326173 76 0 153
-0.700768 0.356779 -0.031507 127 0 127
-0.218226 0.240725 0.357895 153 0 76
-0.643365 -0.303911 -0.301674 76 0 153
0.676824 0.326049 -0.280065 127 0 127
0.404096 -0.303911 -0.058868 76 0 153
-0.585737 0.162125 -0.317999 153 76 0
-0.086774 0.326049 -0.100143 127 0 127
0.815119 0.088974 0.247268 76 0 153
-0.720409 0.326049 0.306009 204 51 127
-0.362854 0.114943 -0.214158 127 127 0
0.784390 -0.009707 -0.136019 76 0 153
-0.177728 -0.303911 0.196798 76 0 153
0.176159 0.060750 -0.317999 153 76 0
0.738656 -0.283424 -0.106378 76 0 153
0.445672 -0.303911 -0.276991 76 0 153
-0.156314 0.356779 0.053018 127 0 127
0.683144 -0.007476 0.327165 153 0 76
0.770456 -0.078503 -0.348729 153 76 0
-0.569892 0.059725 -0.315950 0 255 0
-0.178007 -0.249858 -0.317999 153 76 0
0.285157 0.326049 -0.277597 127 0 127
-0.506191 -0.283424 -0.280571 76 0 153
-0.420681 0.271491 0.327165 153 0 76
-0.660594 -0.283424 0.040843 76 0 153
-0.690638 0.175940 0.285047 204 51 127
0.690088 0.109025 -0.348729 153 76 0
0.420723 0.356779 0.286376 127 0 127
-0.383341 0.118814 0.317596 127 127 0
-0.714625 0.029309 0.331626 204 51 127
0.606873 0.326049 0.124733 127 0 127
0.707479 -0.303911 -0.088740 76 0 153
-0.383341 0.225789 0.267417 127 127 0
0.041539 -0.324397 0.349236 76 0 153
-0.190010 0.326049 0.248297 127 0 127
0.545318 -0.303911 -0.092501 76 0 153
0.183184 0.326049 -0.118430 127 0 127
0.486231 0.326049 0.237926 127 0 127
0.551645 0.130656 0.357895 153 0 76
-0.721368 0.187997 -0.175229 204 51 127
-0.148628 -0.283424 -0.195138 76 0 153
-0.710982 -0.412220 0.294282 255 0 0
-0.710982 -0.363507 -0.307697 255 0 0
0.815119 0.015203 -0.321802 76 0 153
-0.690638 -0.050857 0.046374 204 51 127
0.681759 -0.353500 0.378467 0 255 0
0.342982 0.039574 0.357895 153 0 76
-0.245043 0.326049 -0.255388 127 0 127
0.815119 0.223333 -0.031122 76 0 153
-0.003395 -0.283424 -0.265385 76 0 153
0.396610 -0.288855 0.357895 153 0 76
0.815119 -0.181116 -0.056441 76 0 153
-0.422837 -0.211451 0.327165 153 0 76
0.415948 -0.228223 0.357895 153 0 76
0.634124 0.326049 -0.021516 127 0 127
-0.457414 -0.283424 -0.217737 76 0 153
-0.383341 0.265136 0.259300 127 127 0
-0.152582 0.356779 0.258258 127 0 127
-0.393065 0.257905 0.357895 153 76 0
0.783067 -0.116800 -0.317999 153 76 0
-0.182724 0.356779 -0.256204 127 0 127
0.687551 0.356779 -0.107172 127 0 127
-0.185115 -0.091868 0.357895 153 0 76
-0.721368 0.120694 -0.038454 204 51 127
0.250223 0.146677 -0.348729 153 76 0
-0.456786 0.027132 -0.348729 153 76 0
-0.704227 0.229625 -0.348729 204 51 127
-0.542645 0.270744 -0.317999 153 76 0
0.151534 0.326049 -0.294817 127 0 127
0.164377 0.104089 -0.348729 153 76 0
-0.278038 0.326049 -0.136274 127 0 127
0.766616 0.326049 0.153720 127 0 127
-0.721368 0.006722 -0.305322 204 51 127
0.813033 0.326049 0.086727 76 0 153
-0.153952 -0.074260 -0.348729 153 76 0
-0.690638 0.219608 0.354120 204 51 127
-0.407129 -0.167168 0.357895 153 0 76
-0.362854 0.076046 -0.057530 127 127 0
0.520340 -0.127912 -0.317999 153 76 0
0.815119 0.006470 -0.021747 76 0 153
-0.711779 -0.344884 -0.025506 255 0 0
0.321792 0.155496 -0.348729 153 76 0
-0.721368 0.046781 0.124630 204 51 127
-0.626508 -0.283424 -0.158475 76 0 153
-0.019737 0.356779 0.035270 127 0 127
0.152639 -0.170105 0.357895 153 0 76
0.046839 0.237985 -0.348729 153 76 0
-0.690638 0.106883 0.137672 204 51 127
-0.209207 0.326049 0.197377 127 0 127
0.815119 0.075127 -0.201122 76 0 153
0.592247 0.228677 -0.348729 153 76 0
0.355911 -0.303911 -0.081858 76 0 153
0.019693 -0.303911 -0.152897 76 0 153
-0.123874 -0.131770 -0.348729 153 76 0
-0.513532 0.326049 -0.212581 127 0 127
-0.721368 0.260582 -0.099336 204 51 127
-0.523885 -0.283424 0.318462 76 0 153
0.470180 0.003602 -0.348729 153 76 0
-0.140226 -0.106767 0.327165 153 0 76
-0.644186 0.059725 -0.196347 0 255 0
0.105083 0.326049 -0.111262 127 0 127
0.811808 0.356779 -0.096568 127 0 127
-0.672073 -0.097584 -0.317999 153 76 0
0.007527 0.356779 -0.105808 127 0 127
0.054092 0.073624 -0.317999 153 76 0
0.784390 0.287567 0.100186 76 0 153
0.094320 -0.115421 0.357895 153 0 76
0.575025 0.356779 -0.168008 127 0 127
-0.296922 0.042170 0.327165 153 0 76
0.453501 0.356779 0.130441 127 0 127
-0.453763 0.356779 -0.160165 127 0 127
-0.486778 0.008300 -0.348729 153 76 0
-0.141562 -0.303911 -0.306521 76 0 153
-0.668166 0.326049 -0.095436 127 0 127
-0.721368 -0.201942 -0.308492 204 51 127
0.514969 0.326049 0.052617 127 0 127
0.784390 0.181329 -0.032515 76 0 153
-0.365535 -0.020395 0.357895 153 0 76
-0.711011 0.326049 -0.067771 127 0 127
-0.574179 0.039238 0.004838 0 255 0
-0.432964 0.326049 0.134407 127 0 127
0.643970 -0.183618 0.327165 153 0 76
-0.182411 -0.303911 -0.074416 76 0 153
0.268684 0.356779 0.179312 127 0 127
-0.191142 0.356779 -0.342912 127 0 127
0.486602 -0.303911 -0.043090 76 0 153
-0.173260 0.119994 0.327165 153 0 76
0.358422 0.207127 0.357895 153 0 76
0.797871 -0.502204 0.347737 0 255 0
-0.186419 -0.283424 0.028552 76 0 153
0.815119 -0.147186 0.251973 76 0 153
-0.540565 -0.159434 -0.348729 153 76 0
0.185083 0.326049 -0.192757 127 0 127
0.075667 0.326049 0.104128 127 0 127
-0.721368 -0.021080 0.030348 204 51 127
-0.393434 -0.324397 -0.301646 76 0 153
0.746899 -0.072483 0.357895 153 0 76
-0.711920 -0.303911 0.136521 255 0 0
0.361303 -0.283424 -0.283137 76 0 153
0.731275 -0.283424 0.155812 76 0 153
-0.152466 0.239938 -0.348729 153 76 0
0.491852 -0.094399 -0.348729 153 76 0
0.161628 0.181634 0.357895 153 0 76
0.760109 0.205778 -0.317999 153 76 0
-0.310686 0.356779 0.016281 127 0 127
-0.445608 0.356779 -0.363712 127 0 127
0.775805 -0.396946 -0.338560 0 0 255
-0.071676 0.356779 0.064472 127 0 127
0.680311 0.356779 0.157255 127 0 127
0.176288 -0.303911 0.222365 76 0 153
-0.362854 0.158784 0.035810 127 127 0
-0.124580 -0.303911 0.222757 76 0 153
-0.383341 0.066090 0.079953 127 127 0
-0.565855 -0.259316 -0.348729 153 76 0
0.110413 -0.230408 0.357895 153 0 76
-0.305597 -0.186229 -0.317999 153 76 0
0.727719 0.326049 -0.294780 127 0 127
0.805019 -0.342856 0.227914 204 51 127
0.784390 -0.027306 0.081291 76 0 153
0.405868 -0.303911 0.059348 76 0 153
0.265735 0.264555 0.357895 153 0 76
-0.071953 0.326049 -0.242389 127 0 127
-0.690638 -0.224914 -0.249720 204 51 127
-0.057062 0.119618 -0.317999 153 76 0
-0.517423 0.039238 -0.208175 0 255 0
0.784390 0.292708 0.055454 76 0 153
0.815119 -0.018835 0.056973 76 0 153
-0.664915 0.090394 0.357895 153 0 76
0.481949 -0.150257 -0.348729 153 76 0
-0.567747 -0.003031 0.327165 153 0 76
-0.300414 0.166316 0.327165 153 0 76
-0.276383 -0.303911 0.319436 76 0 153
0.321162 -0.297114 0.342530 76 0 153
-0.030487 -0.283424 0.116320 76 0 153
0.147858 0.218869 -0.317999 153 76 0
0.501685 0.356779 -0.331892 127 0 127
0.697229 0.230184 0.357895 153 0 76
-0.078812 0.326049 0.043654 127 0 127
0.128775 0.326049 -0.009580 127 0 127
-0.623303 0.263578 -0.317999 153 76 0
-0.690638 -0.014568 -0.294232 204 51 127
0.602956 -0.283424 -0.204783 76 0 153
-0.086496 -0.303911 0.311078 76 0 153
-0.505845 0.059725 0.040547 0 255 0
-0.713441 -0.310000 0.378467 255 0 0
0.248996 -0.177473 0.327165 153 0 76
0.240669 -0.250960 0.327165 153 0 76
0.767074 -0.303911 -0.056224 76 0 153
-0.011414 -0.025760 0.357895 153 0 76
-0.353090 0.356779 -0.271054 127 0 127
-0.496201 0.212663 0.357895 153 76 0
-0.519849 0.326049 0.016269 127 0 127
0.687239 -0.213052 0.327165 153 0 76
-0.539934 0.059725 0.006358 0 255 0
-0.721368 -0.023915 0.172753 204 51 127
0.783994 0.297084 0.357895 153 0 76
0.357524 -0.324397 -0.280692 76 0 153
-0.288224 -0.140730 0.357895 153 0 76
-0.154341 0.109390 -0.317999 153 76 0
0.001661 0.326049 0.091731 127 0 127
-0.223254 0.326049 0.276833 127 0 127
-0.362854 0.269130 -0.139158 127 127 0
0.815119 -0.189274 -0.299846 76 0 153
-0.025098 -0.283424 0.025714 76 0 153
-0.387722 -0.061316 -0.317999 153 76 0
-0.690638 0.238603 0.278881 204 51 127
0.102918 -0.287596 0.271111 76 0 153
0.384235 -0.283424 -0.200385 76 0 153
0.625789 0.326049 -0.087393 127 0 127
0.815119 0.173462 -0.248092 76 0 153
-0.667168 0.313888 -0.348729 153 76 0
0.588294 0.086040 0.373967 76 0 153
-0.568844 0.356779 0.132579 127 0 127
-0.406090 0.326049 -0.054841 127 0 127
-0.533731 0.059725 0.300128 0 255 0
-0.362854 0.209391 0.293752 127 127 0
-0.031682 0.356779 0.248493 127 0 127
-0.721368 -0.051889 0.023566 204 51 127
-0.452631 -0.283424 -0.046064 76 0 153
0.782904 -0.382375 0.347737 0 255 0
-0.556417 0.132063 0.327165 153 0 76
0.815119 0.137729 -0.252559 76 0 153
0.805019 -0.330995 -0.104108 204 51 127
-0.385682 0.326049 -0.127671 127 0 127
-0.629001 0.059725 0.127503 0 255 0
-0.021244 0.356779 -0.222157 127 0 127
-0.198285 0.356779 0.012122 127 0 127
-0.399658 -0.157585 -0.348729 153 76 0
-0.690638 0.284070 -0.131482 204 51 127
-0.043488 -0.283424 -0.118028 76 0 153
0.011691 0.356779 0.167582 127 0 127
0.549520 0.057270 -0.348729 153 76 0
0.431127 0.326049 0.207168 127 0 127
-0.487865 0.356779 -0.019116 127 0 127
0.768709 -0.324449 -0.341496 0 0 255
-0.384744 0.021254 0.296436 0 255 0
-0.540304 -0.029558 -0.348729 153 76 0
0.211968 0.356779 0.114394 127 0 127
-0.227715 -0.303911 0.215223 76 0 153
-0.092017 -0.283424 0.034043 76 0 153
0.560285 0.356779 -0.343591 127 0 127
0.377023 -0.283424 -0.041995 76 0 153
0.574881 0.326049 -0.084170 127 0 127
-0.494588 0.326049 0.335257 127 0 127
0.603967 0.356779 0.162707 127 0 127
-0.485934 0.326049 0.189121 127 0 127
0.081124 0.033654 -0.317999 153 76 0
-0.244741 -0.172531 0.327165 153 0 76
0.636562 0.139695 -0.348729 153 76 0
-0.087496 -0.234953 -0.317999 153 76 0
0.788280 0.103846 -0.348729 153 76 0
0.720070 -0.283424 0.025486 76 0 153
0.840727 0.326350 0.204926 127 0 127
0.784390 -0.078512 -0.093551 76 0 153
-0.642704 0.326049 -0.120907 127 0 127
-0.263353 0.065452 -0.348729 153 76 0
0.228669 0.326049 -0.074221 127 0 127
-0.480017 0.059725 -0.296686 0 255 0
-0.382937 0.098038 -0.348729 153 76 0
-0.199401 -0.202847 -0.348729 153 76 0
0.482885 -0.283424 0.058521 76 0 153
0.233789 -0.303911 -0.361192 0 0 255
0.704594 0.326049 0.006214 127 0 127
-0.003150 -0.247862 -0.317999 153 76 0
-0.721368 0.220496 -0.270165 204 51 127
-0.568456 0.326049 -0.007851 127 0 127
-0.116059 0.139812 -0.348729 153 76 0
-0.024226 0.224014 0.327165 153 0 76
0.604093 -0.283424 -0.151444 76 0 153
-0.452971 0.059725 -0.237878 0 255 0
0.755367 0.326049 0.045874 127 0 127
-0.568631 -0.038493 -0.317999 153 76 0
0.771056 0.326049 0.015946 127 0 127
0.668922 -0.289256 0.361972 255 0 0
-0.690638 0.231194 -0.315473 204 51 127
0.535799 0.255462 0.327165 153 0 76
0.784390 0.027673 -0.038116 76 0 153
-0.602394 0.059725 0.096074 0 255 0
0.743522 -0.105514 -0.348729 153 76 0
-0.741712 -0.371196 0.300934 255 0 0
-0.607626 -0.174628 -0.348729 153 76 0
0.276434 0.326049 0.298837 127 0 127
0.110314 -0.293668 0.334091 76 0 153
0.246432 0.356779 0.111624 127 0 127
0.784390 -0.009726 0.207235 76 0 153
-0.139647 0.217535 0.357895 153 0 76
-0.410584 -0.109191 0.327165 153 0 76
0.713066 -0.407370 -0.347013 0 0 255
0.815119 -0.093546 -0.123294 76 0 153
-0.175856 -0.303911 -0.274334 76 0 153
0.815119 0.143579 -0.035782 76 0 153
0.745938 -0.303911 0.110983 76 0 153
-0.484692 0.059725 -0.219074 0 255 0
0.673431 0.356779 -0.194294 127 0 127
0.048606 -0.324397 -0.294600 76 0 153
0.784390 -0.132115 -0.023457 76 0 153
-0.362854 0.296089 0.061216 127 127 0
-0.657799 0.258008 0.357895 153 0 76
-0.336813 0.356779 -0.086769 127 0 127
-0.080906 -0.303911 -0.172452 76 0 153
0.220655 0.356779 0.080611 127 0 127
-0.721368 -0.261228 -0.070555 204 51 127
-0.740295 -0.438341 0.347737 255 0 0
0.216278 0.185084 0.327165 153 0 76
0.172869 0.193647 -0.348729 153 76 0
0.754394 0.294927 0.327165 153 0 76
0.633508 -0.034815 -0.348729 153 76 0
-0.572390 -0.212971 -0.348729 153 76 0
-0.690638 -0.270784 -0.227739 204 51 127
-0.097496 0.326049 -0.311355 127 0 127
0.603722 0.326049 -0.288975 127 0 127
0.349474 0.326049 -0.043001 127 0 127
0.153574 -0.136001 -0.348729 153 76 0
-0.394917 -0.283424 -0.225169 76 0 153
-0.694161 0.356779 0.261480 127 0 127
0.115755 0.326049 0.342756 127 0 127
-0.632828 -0.283424 -0.236739 76 0 153
0.644315 0.356779 -0.061525 127 0 127
-0.451319 0.236719 -0.348729 153 76 0
0.286496 -0.138456 0.357895 153 0 76
-0.690638 0.241003 0.179011 204 51 127
-0.038998 0.326049 0.138648 127 0 127
-0.384874 0.066203 -0.348729 153 76 0
0.412644 -0.200510 -0.348729 153 76 0
0.469387 0.175781 -0.348729 153 76 0
-0.087466 -0.303911 -0.027114 76 0 153
0.593659 -0.324397 -0.340734 76 0 153
0.676178 -0.283424 0.128471 76 0 153
-0.036722 -0.266618 0.327165 153 0 76
-0.560290 -0.283424 0.068590 76 0 153
0.536276 0.356779 -0.196341 127 0 127
-0.690638 -0.023820 -0.058372 204 51 127
0.181837 -0.283424 0.199420 76 0 153
0.413043 0.356779 0.196299 127 0 127
-0.657930 -0.303911 0.255724 76 0 153
0.816580 -0.439980 0.347737 0 255 0
-0.746976 0.326636 -0.235414 127 0 127
-0.537278 -0.255118 -0.317999 153 76 0
0.414709 -0.324397 0.270926 76 0 153
-0.605918 -0.101120 0.357895 153 0 76
-0.383341 0.125405 -0.143537 127 127 0
-0.443069 -0.245925 0.357895 153 0 76
-0.071426 0.356779 0.260209 127 0 127
0.784390 0.065362 -0.105312 76 0 153
-0.433884 0.282452 -0.317999 153 76 0
-0.737900 0.326049 0.106264 127 0 127
-0.047380 0.260119 -0.317999 153 76 0
0.399738 -0.283424 0.116475 76 0 153
0.464494 -0.029544 -0.348729 153 76 0
0.465044 0.326049 -0.285231 127 0 127
-0.034383 0.250727 -0.348729 153 76 0
0.484936 -0.283424 0.203462 76 0 153
0.060845 -0.324397 -0.232437 76 0 153
0.302489 0.301083 -0.317999 153 76 0
0.779367 0.139574 -0.348729 153 76 0
0.686308 0.356779 -0.012564 127 0 127
-0.131656 -0.008735 0.327165 153 0 76
0.817605 0.356779 -0.298729 127 0 127
-0.116570 -0.164486 0.327165 153 0 76
-0.084937 0.356779 0.331640 127 0 127
0.815119 -0.237133 0.165902 76 0 153
-0.370292 0.356779 0.180641 127 0 127
0.376274 -0.258785 0.327165 153 0 76
0.487571 0.326049 0.110725 127 0 127
0.808071 0.356779 -0.345488 127 0 127
0.164339 0.356779 -0.095027 127 0 127
0.765887 -0.303911 -0.212977 76 0 153
-0.438609 0.237383 0.357895 153 76 0
0.815119 -0.257027 -0.076053 76 0 153
0.204140 -0.303911 -0.044898 76 0 153
0.531872 0.355151 0.353863 127 0 127
0.521200 -0.303911 0.298315 76 0 153
0.246196 -0.303911 -0.028803 76 0 153
-0.302966 -0.303911 0.178211 76 0 153
0.780598 0.026641 0.327165 153 0 76
0.658756 0.242219 -0.348729 153 76 0
0.165401 -0.254926 -0.317999 153 76 0
-0.647101 -0.039493 -0.317999 153 76 0
-0.596579 0.153104 0.357895 153 0 76
-0.277072 0.260530 0.357895 153 0 76
0.745200 -0.254451 0.327165 153 0 76
-0.315235 0.011049 0.357895 153 0 76
0.620823 -0.211096 0.327165 153 0 76
0.640956 0.213270 -0.317999 153 76 0
-0.268319 -0.303911 0.193561 76 0 153
0.121866 -0.293668 0.182250 76 0 153
0.778932 0.109566 0.357895 153 0 76
-0.210731 -0.256581 -0.348729 153 76 0
-0.710982 -0.327203 -0.234456 255 0 0
0.649637 0.356779 0.314464 127 0 127
-0.411798 0.356779 0.050940 127 0 127
-0.539595 0.010648 0.327165 153 0 76
0.448052 0.326049 -0.134090 127 0 127
0.054499 -0.303911 0.297948 76 0 153
-0.606287 0.094179 0.327165 153 0 76
0.815119 0.129859 0.178749 76 0 153
0.817397 0.356779 0.052477 127 0 127
-0.645480 0.356779 -0.237419 127 0 127
-0.427778 0.326049 0.019303 127 0 127
0.784390 0.031014 0.064934 76 0 153
0.345924 0.182575 -0.348729 153 76 0
-0.418881 -0.303911 0.255813 76 0 153
-0.021380 -0.073476 -0.317999 153 76 0
-0.217276 -0.324397 0.313654 76 0 153
-0.517280 0.300751 -0.317999 153 76 0
0.670648 0.356779 0.053983 127 0 127
-0.190309 -0.283424 -0.235628 76 0 153
-0.140361 -0.303911 0.287940 76 0 153
0.784390 -0.108712 0.148657 76 0 153
-0.359082 -0.226033 0.327165 153 0 76
-0.721368 -0.274315 0.237830 204 51 127
0.325649 0.240859 0.327165 153 0 76
-0.367143 -0.062373 -0.348729 153 76 0
-0.522131 0.039238 0.177717 0 255 0
-0.551171 -0.324397 -0.348766 76 0 153
0.250846 -0.283424 -0.165009 76 0 153
0.177358 0.267403 -0.317999 153 76 0
-0.007476 0.326049 -0.277592 127 0 127
-0.740309 -0.449913 0.275842 255 0 0
-0.118121 0.356779 0.020163 127 0 127
0.300542 0.216703 -0.348729 153 76 0
-0.214251 0.132109 0.357895 153 0 76
-0.286038 0.356779 0.257031 127 0 127
-0.473371 -0.024195 -0.317999 153 76 0
-0.345875 -0.228924 -0.348729 153 76 0
0.718286 0.356779 -0.054940 127 0 127
-0.486738 0.259424 0.327165 153 0 76
-0.705514 -0.211336 0.327165 204 51 127
-0.001401 -0.002735 -0.317999 153 76 0
0.239582 0.326049 -0.119091 127 0 127
-0.611760 0.188751 -0.348729 153 76 0
-0.014632 -0.303911 -0.071612 76 0 153
-0.594098 -0.358011 0.347737 0 255 0
0.032817 0.326049 0.144060 127 0 127
0.769511 -0.324397 -0.254938 76 0 153
0.802206 0.195363 0.327165 153 0 76
0.590394 0.326049 -0.254910 127 0 127
-0.169291 0.326049 -0.219114 127 0 127
0.805019 -0.478980 0.325363 204 51 127
-0.667672 -0.209340 0.357895 153 0 76
-0.721368 -0.161828 -0.055786 204 51 127
-0.623311 0.356779 0.337146 127 0 127
-0.697081 0.054917 0.332488 204 51 127
-0.690638 0.114430 -0.326775 153 76 0
0.532238 0.326049 -0.034971 127 0 127
0.473403 -0.324397 -0.322560 76 0 153
-0.685256 -0.303911 0.289331 76 0 153
0.717456 -0.072777 0.327165 153 0 76
0.512220 0.271509 0.357895 76 0 153
-0.429505 0.356779 0.162568 127 0 127
0.390375 -0.043656 -0.348729 153 76 0
0.805019 -0.460894 -0.285413 204 51 127
-0.608229 0.035629 -0.287430 0 255 0
-0.375116 0.351722 0.355710 127 0 127
0.150008 -0.283424 -0.066862 76 0 153
-0.479749 -0.303911 -0.121207 76 0 153
-0.407559 0.326049 -0.337538 153 76 0
-0.200845 0.326049 0.084796 127 0 127
0.145835 -0.029452 -0.317999 153 76 0
0.156755 -0.072018 0.357895 153 0 76
-0.630020 0.059725 -0.316385 0 255 0
-0.013577 0.326049 -0.320665 127 0 127
-0.528389 0.291211 0.357895 153 0 76
0.571800 0.132262 0.327165 153 0 76
-0.678377 -0.124929 0.327165 153 0 76
0.835748 -0.438298 -0.267425 204 51 127
0.377326 0.151691 0.327165 153 0 76
0.543910 -0.283309 -0.317999 153 76 0
-0.489137 -0.096995 0.357895 153 0 76
-0.207311 0.356779 0.268298 127 0 127
-0.249419 0.356779 -0.016693 127 0 127
0.426384 0.356779 -0.219342 127 0 127
0.186986 -0.341222 -0.369290 0 0 255
-0.523700 -0.207594 -0.317999 153 76 0
0.784390 0.239028 -0.002357 76 0 153
0.301298 -0.141724 0.327165 153 0 76
-0.212543 0.326049 -0.320400 127 0 127
-0.690638 0.137217 -0.290308 204 51 127
-0.430259 -0.283424 0.177291 76 0 153
0.784390 0.099985 -0.006140 76 0 153
0.805019 -0.434815 0.317500 204 51 127
-0.003059 -0.303911 0.121836 76 0 153
0.815119 0.007598 0.122908 76 0 153
-0.362854 0.205390 -0.123768 127 127 0
-0.346960 0.326049 -0.074454 127 0 127
0.438191 0.299941 0.327165 153 0 76
0.223441 0.106387 -0.317999 153 76 0
-0.041151 -0.283424 -0.164732 76 0 153
0.330220 0.326049 0.159893 127 0 127
0.014560 0.326049 -0.219347 127 0 127
0.287078 -0.166615 -0.348729 153 76 0
-0.690638 0.230559 -0.074999 204 51 127
-0.328293 -0.303911 -0.167936 76 0 153
0.057335 0.023868 0.357895 153 0 76
0.403606 -0.324397 -0.264696 76 0 153
0.815119 0.038101 0.207401 76 0 153
0.815119 0.074531 -0.264743 76 0 153
0.113004 0.226865 0.357895 153 0 76
0.510007 -0.214882 -0.348729 153 76 0
0.311013 -0.283424 0.248439 76 0 153
0.765432 -0.303911 -0.282932 76 0 153
0.081384 0.356779 -0.334807 127 0 127
0.298773 0.356779 -0.069425 127 0 127
0.504086 0.308641 0.327165 153 0 76
0.127145 0.356779 -0.274749 127 0 127
0.616318 -0.303911 -0.043988 76 0 153
0.784390 -0.264144 0.184325 76 0 153
-0.328086 -0.127916 -0.317999 153 76 0
-0.683823 -0.324397 -0.256295 76 0 153
-0.460045 -0.127508 -0.317999 153 76 0
0.815119 -0.231759 0.285197 76 0 153
0.347754 -0.303911 -0.159651 76 0 153
0.630106 0.356779 0.070278 127 0 127
0.235801 -0.283424 0.286870 76 0 153
-0.249303 -0.303911 -0.009164 76 0 153
0.545097 -0.303911 0.226062 76 0 153
0.157085 0.356779 0.085588 127 0 127
-0.354440 -0.283424 -0.243051 76 0 153
-0.710982 -0.333019 -0.303613 255 0 0
0.236317 -0.303911 -0.215054 76 0 153
0.566721 0.176800 0.357895 76 0 153
0.784390 -0.104845 0.232911 76 0 153
0.490227 0.145742 -0.317999 153 76 0
0.335618 -0.149662 0.357895 153 0 76
0.784390 0.150338 0.064091 76 0 153
0.421293 -0.007984 0.357895 153 0 76
-0.082058 -0.303911 -0.244083 76 0 153
0.612706 -0.303911 0.183070 76 0 153
0.309756 0.326049 -0.223329 127 0 127
0.763224 -0.349690 0.378467 0 255 0
-0.383341 0.172587 -0.060441 127 127 0
0.142401 0.326049 0.159661 127 0 127
-0.347803 -0.283424 0.073806 76 0 153
-0.429393 0.112539 0.357895 153 76 0
-0.565206 0.059725 -0.256478 0 255 0
-0.734219 -0.362864 -0.197776 255 0 0
-0.690638 0.299624 -0.053424 204 51 127
0.491054 0.149311 -0.348729 153 76 0
0.815119 0.186690 0.148517 76 0 153
0.264067 -0.283424 0.068873 76 0 153
0.727831 0.227813 0.357895 153 0 76
-0.227120 -0.303911 -0.240392 76 0 153
0.330126 -0.180122 -0.348729 153 76 0
0.718245 0.300659 0.357895 153 0 76
-0.022067 -0.004242 0.327165 153 0 76
-0.593965 -0.003188 -0.317999 153 76 0
-0.710333 -0.098731 0.336261 153 0 76
0.530462 -0.207900 0.327165 153 0 76
0.277915 -0.303911 -0.208091 76 0 153
-0.600190 0.059725 -0.030508 0 255 0
0.079866 -0.070200 -0.348729 153 76 0
-0.741712 -0.502185 -0.341196 0 0 255
-0.290624 -0.303911 0.218792 76 0 153
0.454460 -0.324397 0.296647 76 0 153
-0.706003 -0.299160 -0.162720 76 0 153
0.342655 -0.210136 -0.317999 153 76 0
0.661879 -0.283424 -0.249568 76 0 153
0.784390 0.171271 0.166062 76 0 153
-0.383341 0.171578 -0.311026 127 127 0
-0.741712 -0.499149 0.338698 255 0 0
0.784390 0.273578 -0.210038 76 0 153
0.505948 0.356779 -0.246945 127 0 127
-0.010228 0.285534 0.357895 153 0 76
0.474004 -0.219811 0.357895 153 0 76
-0.297741 0.356779 0.130418 127 0 127
0.815119 -0.029141 -0.092291 76 0 153
-0.672295 -0.238447 0.327165 153 0 76
-0.691171 0.326049 0.119386 127 0 127
0.690547 -0.378824 -0.369290 0 0 255
-0.631581 -0.429549 -0.361406 0 0 255
-0.127330 0.342354 0.357845 127 0 127
-0.690638 0.012579 0.062072 204 51 127
0.784390 -0.198832 0.273362 76 0 153
-0.056567 -0.283424 -0.014920 76 0 153
-0.227455 -0.344884 0.371976 0 255 0
0.015445 0.279191 -0.317999 153 76 0
-0.273575 0.094292 -0.348729 153 76 0
0.828307 -0.508776 0.350813 0 255 0
0.572600 0.107189 0.357895 153 0 76
-0.690638 -0.037362 -0.028624 204 51 127
0.153992 0.039551 -0.317999 153 76 0
-0.706003 -0.297994 0.262030 76 0 153
0.006105 -0.283424 0.307202 76 0 153
0.450151 -0.295224 0.342530 153 0 76
0.400440 0.326049 -0.174954 127 0 127
-0.312973 -0.303911 0.033580 76 0 153
0.389379 0.356779 0.008733 127 0 127
0.090889 0.326049 0.045919 127 0 127
0.815119 -0.142517 0.301375 76 0 153
-0.461079 0.326049 0.331729 127 0 127
-0.482019 -0.332864 -0.369290 0 0 255
0.088517 -0.147282 -0.317999 153 76 0
-0.268505 -0.068649 0.357895 153 0 76
0.784390 0.196008 -0.294463 76 0 153
0.815119 -0.165415 0.276459 76 0 153
0.486076 0.356779 -0.048297 127 0 127
0.005809 -0.219911 0.357895 153 0 76
-0.721368 0.180986 -0.031059 204 51 127
-0.048509 0.326049 0.013938 127 0 127
-0.176888 0.356779 -0.165604 127 0 127
-0.116377 0.273858 0.357895 153 0 76
0.227422 0.155230 -0.317999 153 76 0
0.338811 0.105262 -0.348729 153 76 0
-0.616486 0.039238 -0.103114 0 255 0
0.197545 0.326049 0.172890 127 0 127
-0.588978 -0.065011 -0.317999 153 76 0
-0.548065 -0.009593 0.357895 153 0 76
0.188264 0.326049 0.069505 127 0 127
0.272005 0.356779 -0.100920 127 0 127
-0.577626 -0.180137 -0.348729 153 76 0
-0.349670 0.356779 0.277184 127 0 127
0.580345 0.301469 0.388625 76 0 153
0.340419 0.326049 -0.373717 127 0 127
-0.261048 0.030663 -0.348729 153 76 0
-0.487935 0.169472 0.327165 153 0 76
0.835748 -0.393756 0.353940 0 255 0
-0.671600 -0.457055 0.378467 0 255 0
0.835748 -0.478204 -0.340250 204 51 127
-0.065120 0.237147 0.357895 153 0 76
0.557958 -0.262449 0.327165 153 0 76
-0.631169 -0.303911 0.078628 76 0 153
0.336616 -0.283424 -0.235499 76 0 153
-0.610068 -0.283424 0.135321 76 0 153
0.538656 0.103107 0.357895 153 0 76
-0.494805 0.356779 0.215757 127 0 127
0.748417 0.096482 -0.348729 153 76 0
0.068067 -0.283424 -0.318634 153 76 0
-0.600486 -0.244456 -0.317999 153 76 0
0.648256 -0.324397 -0.342020 76 0 153
-0.721368 0.015934 0.004070 204 51 127
0.242262 -0.283424 0.215076 76 0 153
-0.085020 -0.283424 0.165926 76 0 153
-0.660707 0.326049 0.042236 127 0 127
-0.132931 -0.303911 -0.061558 76 0 153
-0.257623 0.356779 -0.174478 127 0 127
-0.032652 -0.303911 0.192615 76 0 153
0.350822 -0.303911 0.165953 76 0 153
-0.427279 -0.030094 -0.348729 153 76 0
0.243253 -0.283424 0.341615 153 0 76
-0.494940 -0.283424 -0.059891 76 0 153
-0.399834 0.155988 -0.348729 153 76 0
0.345736 0.326049 -0.290988 127 0 127
0.392056 0.356779 -0.153011 127 0 127
-0.564724 0.356779 -0.036683 127 0 127
0.022429 0.356779 -0.285523 127 0 127
-0.522266 -0.222423 -0.348729 153 76 0
-0.520817 -0.025322 0.357895 153 0 76
-0.640413 0.326049 0.275005 127 0 127
0.784390 -0.034312 0.114852 76 0 153
-0.571311 -0.293668 0.328225 76 0 153
-0.362854 0.165840 -0.115330 127 127 0
0.240777 -0.087564 0.327165 153 0 76
-0.391641 0.356779 0.308905 127 0 127
-0.741712 -0.425230 -0.358082 255 0 0
-0.623489 -0.324397 -0.347227 76 0 153
-0.129721 -0.267164 0.357895 153 0 76
0.174726 0.356779 -0.231275 127 0 127
-0.383341 0.289827 -0.129541 127 127 0
0.623702 0.326049 -0.360273 127 0 127
-0.718600 0.356779 0.323395 127 0 127
-0.130026 0.024273 -0.317999 153 76 0
-0.001648 0.072586 -0.317999 153 76 0
-0.665270 -0.005352 0.357895 153 0 76
-0.583905 -0.283424 -0.050307 76 0 153
-0.523363 -0.270329 0.357895 153 0 76
0.668664 -0.303911 -0.060054 76 0 153
0.784390 -0.066340 -0.249015 76 0 153
-0.721368 -0.116005 0.081476 204 51 127
0.815119 0.301841 0.063681 76 0 153
0.784390 -0.253631 -0.036930 76 0 153
0.058223 0.326049 -0.021002 127 0 127
0.784390 -0.041087 -0.310875 76 0 153
-0.500979 0.004223 0.327165 153 0 76
0.607547 0.004412 -0.348729 153 76 0
0.297571 0.356779 -0.351541 127 0 127
0.330020 0.356779 0.070274 127 0 127
0.609447 -0.185591 0.357895 153 0 76
-0.387652 0.326049 0.151070 127 0 127
-0.102419 0.356779 -0.068702 127 0 127
0.385082 -0.324449 0.348512 0 255 0
0.784390 0.265609 -0.067537 76 0 153
0.402714 -0.114821 0.327165 153 0 76
-0.118595 0.356779 -0.107835 127 0 127
-0.721368 -0.275030 -0.295291 204 51 127
0.393739 0.326049 0.125060 127 0 127
0.784390 -0.217762 0.020264 76 0 153
-0.690638 0.285165 0.145304 204 51 127
-0.247758 -0.344884 0.348153 0 255 0
0.577389 0.326049 -0.133186 127 0 127
-0.484183 0.097877 -0.348729 153 76 0
0.765285 0.305436 -0.317999 153 76 0
-0.626848 0.272359 0.327165 153 0 76
0.792522 -0.006732 0.327165 76 0 153
-0.630277 -0.281660 -0.348729 153 76 0
0.784390 0.114141 0.110392 76 0 153
-0.223760 -0.134611 0.357895 153 0 76
-0.048932 -0.303911 -0.256653 76 0 153
0.815119 0.201080 -0.076680 76 0 153
-0.667198 0.356779 0.061924 127 0 127
-0.607467 0.039238 0.047226 0 255 0
-0.662161 0.059725 -0.076975 0 255 0
0.577363 0.165678 0.327165 153 0 76
-0.173827 0.067158 0.357895 153 0 76
0.778527 0.044196 0.357895 153 0 76
-0.721368 0.270954 0.132086 204 51 127
0.137057 -0.344884 -0.368671 0 0 255
-0.153255 -0.270892 -0.317999 153 76 0
0.371869 -0.164429 -0.317999 153 76 0
0.815119 0.144830 0.121873 76 0 153
-0.721368 -0.031290 -0.254705 204 51 127
0.815119 0.141687 0.351570 153 0 76
-0.370311 -0.303911 0.273839 76 0 153
0.505913 -0.106146 0.327165 153 0 76
-0.383341 0.090262 0.149144 127 127 0
0.379036 0.356779 0.243721 127 0 127
0.805019 -0.431856 -0.366777 0 0 255
-0.428713 0.356779 -0.251981 127 0 127
-0.721368 -0.185737 0.247973 204 51 127
0.782919 0.326049 -0.348405 127 0 127
-0.345424 0.326049 -0.012695 127 0 127
-0.665064 0.039238 0.279709 0 255 0
-0.440854 0.037258 0.357895 153 0 76
0.815119 0.100696 -0.139541 76 0 153
0.691145 -0.303911 -0.308772 76 0 153
0.623747 -0.283424 -0.286070 76 0 153
-0.741712 -0.319841 -0.068278 255 0 0
0.784390 0.178865 0.113679 76 0 153
-0.009485 -0.266964 0.357895 153 0 76
-0.536166 0.059725 0.099256 0 255 0
-0.721368 0.048407 -0.311872 204 51 127
0.814389 0.076050 0.357895 76 0 153
-0.321191 0.356779 0.293155 127 0 127
-0.537839 -0.180834 0.327165 153 0 76
-0.522970 0.039238 0.233015 0 255 0
-0.721368 0.073872 0.307735 204 51 127
0.017797 -0.324397 -0.300688 76 0 153
-0.034935 0.326049 -0.143772 127 0 127
0.362822 0.326049 0.047413 127 0 127
-0.430315 -0.119568 -0.317999 153 76 0
0.815119 -0.018413 -0.187408 76 0 153
0.112184 -0.283424 -0.082850 76 0 153
-0.296528 -0.149327 0.327165 153 0 76
-0.586485 -0.324397 0.244108 76 0 153
-0.602828 0.087476 -0.317999 153 76 0
0.762224 -0.303911 -0.003715 76 0 153
0.815119 0.279457 0.315788 76 0 153
-0.270913 -0.250317 0.327165 153 0 76
-0.362738 0.356779 -0.123453 127 0 127
0.793702 -0.303911 0.296811 76 0 153
-0.004624 0.356779 -0.038374 127 0 127
-0.383341 0.088646 -0.288545 127 127 0
0.346351 -0.283424 0.091515 76 0 153
0.784390 -0.216923 -0.296235 76 0 153
-0.716382 0.326049 -0.348405 127 0 127
0.531813 -0.340711 0.347737 0 255 0
0.482641 -0.344884 -0.342446 0 0 255
0.353853 -0.223493 0.357895 153 0 76
-0.690638 0.208585 -0.034141 204 51 127
0.815119 0.031858 0.285406 76 0 153
0.536774 0.250290 0.388625 76 0 153
0.438832 0.060542 0.357895 153 0 76
-0.383341 0.195138 -0.244342 127 127 0
0.625656 -0.324397 0.305545 76 0 153
0.739615 -0.462032 -0.369290 0 0 255
-0.127829 0.326049 -0.256407 127 0 127
-0.093107 0.356779 -0.294787 127 0 127
0.321860 -0.176078 0.327165 153 0 76
-0.710982 -0.428511 -0.310707 255 0 0
0.815119 0.120103 0.095285 76 0 153
-0.721368 -0.235696 0.290101 204 51 127
-0.188001 0.303841 0.357895 153 0 76
-0.690638 0.007265 -0.162222 204 51 127
0.137763 0.356779 0.329927 127 0 127
-0.403541 -0.303280 0.342530 76 0 153
-0.645478 0.039238 0.154049 0 255 0
-0.712190 0.182601 0.357895 204 51 127
-0.167614 0.251797 -0.317999 153 76 0
0.623655 -0.016644 0.327165 153 0 76
0.191753 0.089476 -0.317999 153 76 0
-0.595986 -0.303911 -0.004906 76 0 153
0.690433 -0.361673 -0.338560 0 0 255
0.166535 -0.324397 0.322574 76 0 153
0.674299 0.137304 0.327165 153 0 76
-0.697351 -0.175556 -0.347318 153 76 0
0.166817 -0.303911 0.150442 76 0 153
0.789655 0.204737 0.357895 153 0 76
-0.224966 -0.026787 -0.348729 153 76 0
-0.363431 0.039238 -0.088366 0 255 0
0.242569 -0.283424 -0.250566 76 0 153
0.645099 -0.066380 -0.317999 153 76 0
0.478034 0.208649 0.357895 153 0 76
-0.700614 -0.303911 0.206089 76 0 153
-0.608271 -0.378953 -0.338560 0 0 255
-0.456644 0.356779 0.208190 127 0 127
0.480040 -0.025577 -0.317999 153 76 0
-0.499341 0.356779 0.319097 127 0 127
0.376259 -0.022199 0.327165 153 0 76
0.353552 0.326049 -0.205772 127 0 127
-0.383341 0.235590 0.065567 127 127 0
-0.518660 -0.155091 0.357895 153 0 76
0.791436 0.356779 0.161385 127 0 127
0.123257 -0.302988 -0.135160 76 0 153
0.797798 -0.208626 0.327165 153 0 76
-0.166914 -0.007810 0.357895 153 0 76
-0.644998 -0.303911 0.306445 76 0 153
-0.700873 0.080526 -0.324067 153 76 0
0.717151 -0.146655 -0.348729 153 76 0
0.705497 0.356779 0.259956 127 0 127
-0.383341 0.104736 0.241412 127 127 0
-0.609500 -0.303911 -0.144964 76 0 153
0.815119 -0.148202 -0.082181 76 0 153
-0.624743 -0.041911 -0.348729 153 76 0
-0.595773 0.039238 -0.182892 0 255 0
-0.040849 0.221570 -0.348729 153 76 0
0.106564 -0.152280 -0.348729 153 76 0
0.077008 0.131614 0.327165 153 0 76
-0.459242 0.271608 0.357895 153 0 76
-0.227615 -0.260905 0.357895 153 0 76
0.190539 -0.218556 -0.317999 153 76 0
0.031234 0.326049 0.064345 127 0 127
-0.305022 -0.324555 0.347737 0 255 0
0.086448 0.156387 -0.317999 153 76 0
0.611045 0.127808 0.357895 153 0 76
0.290254 0.326049 -0.200771 127 0 127
-0.690638 -0.218122 0.190131 204 51 127
0.789157 0.326049 -0.289788 76 0 153
0.805019 -0.461268 0.377453 0 255 0
-0.391483 0.326049 0.257875 127 0 127
-0.721368 -0.175297 -0.285416 204 51 127
0.356441 0.193196 0.327165 153 0 76
0.492805 0.326049 -0.350740 127 0 127
-0.054216 0.053110 0.327165 153 0 76
-0.690638 -0.074533 -0.314752 204 51 127
0.474353 -0.303911 0.265336 76 0 153
0.815119 0.312350 0.199091 76 0 153
-0.408191 0.039238 0.267457 0 255 0
0.422894 -0.303911 0.104935 76 0 153
-0.721368 -0.126189 0.139868 204 51 127
-0.440044 0.121579 -0.317999 153 76 0
