ply
format ascii 1.0
element vertex 1265
property float x
property float y
property float z
property uchar red
property uchar green
property uchar blue
end_header
0.085871 0.326049 -0.354533 127 0 127
0.368301 -0.028866 -0.317999 153 76 0
-0.144835 0.042057 -0.348729 153 76 0
-0.498972 0.326049 0.243513 127 0 127
-0.094994 -0.122260 0.327165 153 0 76
0.667209 0.356779 0.329034 127 0 127
-0.690638 -0.220085 0.161994 204 51 127
0.784390 0.234365 0.183330 76 0 153
0.815119 0.260237 0.264755 76 0 153
-0.042888 0.326049 -0.230157 127 0 127
0.776980 -0.193567 0.357895 153 0 76
-0.073572 -0.177611 -0.317999 153 76 0
0.511421 0.105337 0.388625 76 0 153
-0.362854 0.119547 0.052224 127 127 0
-0.562457 0.151471 -0.348729 153 76 0
0.090113 0.356779 -0.129642 127 0 127
-0.096040 0.101635 -0.317999 153 76 0
0.784390 0.052987 0.074165 76 0 153
0.589218 0.207591 0.357895 153 0 76
0.744702 -0.334058 -0.338560 0 0 255
0.670891 0.356779 -0.183878 127 0 127
0.339425 0.340517 0.352773 127 0 127
0.784390 0.013608 0.028039 76 0 153
0.835748 -0.381404 0.233714 204 51 127
-0.144992 0.326049 0.285891 127 0 127
-0.159456 -0.324397 0.272955 76 0 153
-0.332585 -0.293668 -0.264608 76 0 153
-0.406260 -0.283424 -0.253022 76 0 153
0.202136 -0.303911 0.321856 76 0 153
0.104765 -0.187928 -0.348729 153 76 0
-0.118963 -0.303911 0.221079 76 0 153
0.553813 -0.284706 -0.288025 76 0 153
0.619549 0.356779 -0.132933 127 0 127
-0.060815 -0.086277 0.357895 153 0 76
-0.721368 -0.102778 0.225595 204 51 127
-0.721368 -0.130553 -0.261349 204 51 127
0.508193 -0.303911 0.269201 76 0 153
0.170417 -0.324397 0.243484 76 0 153
-0.721368 0.297834 -0.229943 204 51 127
-0.395736 -0.045974 -0.348729 153 76 0
-0.095237 -0.344884 -0.366256 0 0 255
0.049605 0.326049 0.245665 127 0 127
-0.297749 -0.267365 -0.348729 153 76 0
-0.690638 -0.221807 0.072151 204 51 127
0.692805 0.326049 0.318635 127 0 127
0.101780 0.092614 0.327165 153 0 76
0.231055 0.234946 0.327165 153 0 76
0.312462 -0.244119 0.357895 153 0 76
0.326668 -0.324397 -0.331741 76 0 153
-0.167295 0.326049 -0.174157 127 0 127
-0.710982 -0.331005 0.264191 255 0 0
-0.741712 -0.306841 0.329258 255 0 0
-0.136489 0.140539 -0.348729 153 76 0
-0.091028 0.356779 0.127841 127 0 127
0.609092 -0.214369 0.327165 153 0 76
-0.683075 0.072223 -0.317999 204 51 127
-0.668564 0.356779 -0.103816 127 0 127
0.189352 -0.288015 -0.348729 255 0 0
-0.721368 0.219019 -0.281202 204 51 127
-0.262880 -0.323446 0.240096 76 0 153
-0.568011 0.039238 -0.270064 0 255 0
-0.721368 0.167121 0.192419 204 51 127
0.067346 -0.080371 -0.317999 153 76 0
-0.237398 0.204528 0.327165 153 0 76
-0.052933 -0.283424 0.220030 76 0 153
-0.120157 -0.070118 0.327165 153 0 76
0.145820 -0.283424 -0.294516 76 0 153
0.815119 -0.068056 0.158814 76 0 153
-0.658940 0.107548 0.327165 153 0 76
-0.364723 -0.000133 -0.348729 153 76 0
-0.613314 -0.117958 -0.317999 153 76 0
-0.362854 0.145167 0.200128 127 127 0
0.416635 0.128771 0.327165 153 0 76
0.181945 -0.283424 0.263437 76 0 153
0.090968 0.326049 -0.091854 127 0 127
0.706196 0.326049 -0.037937 127 0 127
-0.690638 -0.196521 0.338843 204 51 127
-0.721368 0.131237 0.180950 204 51 127
0.382788 0.221806 -0.317999 153 76 0
-0.484406 0.152756 0.357895 153 76 0
0.581075 0.155476 -0.348729 153 76 0
0.506167 0.356779 0.090389 127 0 127
-0.690638 0.279478 0.269753 204 51 127
0.672364 0.102136 -0.317999 153 76 0
-0.346001 -0.322416 0.378467 0 255 0
0.329205 -0.166118 -0.317999 153 76 0
0.767351 0.354829 0.352773 127 0 127
-0.280234 0.326049 -0.295216 127 0 127
-0.690638 -0.162985 -0.122132 204 51 127
0.457077 -0.144362 0.357895 153 0 76
0.815119 -0.265325 -0.165266 76 0 153
0.103223 -0.153779 -0.317999 153 76 0
0.148114 -0.303911 -0.061835 76 0 153
0.408960 -0.283424 -0.228835 76 0 153
-0.690638 0.105342 0.242766 204 51 127
0.805019 -0.492068 0.313030 204 51 127
-0.014532 -0.256891 -0.348729 153 76 0
0.465735 -0.283424 -0.218614 76 0 153
0.198004 -0.023027 0.327165 153 0 76
0.170512 0.356779 -0.027479 127 0 127
-0.741712 -0.434325 0.320756 255 0 0
0.815119 -0.109940 0.330138 153 0 76
0.219580 0.181526 0.327165 153 0 76
0.815119 0.115093 0.074377 76 0 153
-0.687851 0.059725 0.295127 0 255 0
-0.188676 -0.303911 0.046759 76 0 153
-0.351398 0.198219 -0.317999 153 76 0
0.531567 0.326049 -0.071876 127 0 127
0.385102 0.152051 -0.317999 153 76 0
0.615498 -0.032462 0.327165 153 0 76
-0.648950 -0.015520 -0.317999 153 76 0
0.287482 0.326049 -0.319028 127 0 127
0.840727 0.355401 0.252902 127 0 127
0.553139 0.315806 0.387500 76 0 153
0.784390 0.102519 0.050176 76 0 153
-0.721368 0.278685 0.326949 204 51 127
0.486881 0.326049 0.140107 127 0 127
0.386535 0.265632 -0.317999 153 76 0
0.699971 0.326049 0.208609 127 0 127
0.784390 0.272204 -0.014216 76 0 153
0.687588 -0.293578 0.342530 76 0 153
-0.679439 0.356779 0.036635 127 0 127
0.481693 0.326049 -0.041579 127 0 127
0.180051 0.356779 -0.218060 127 0 127
0.815119 -0.289186 -0.318611 76 0 153
-0.612695 0.222967 0.357895 153 0 76
-0.662132 -0.461396 0.378467 0 255 0
0.373915 -0.303911 0.339519 76 0 153
-0.599055 0.326049 0.308016 127 0 127
0.349910 0.356779 -0.335162 127 0 127
0.784390 0.323208 -0.108820 76 0 153
0.282994 -0.147456 -0.317999 153 76 0
0.718357 -0.097977 0.327165 153 0 76
-0.206916 0.025118 -0.317999 153 76 0
-0.351882 -0.283424 0.170342 76 0 153
-0.362854 0.217344 -0.023827 127 127 0
0.303922 -0.335196 0.347737 0 255 0
0.815119 0.013243 0.222010 76 0 153
0.724912 0.000592 -0.317999 153 76 0
0.630278 -0.133422 0.357895 153 0 76
-0.182620 0.233180 0.327165 153 0 76
-0.129909 0.356779 -0.214798 127 0 127
-0.741712 -0.329263 -0.031751 255 0 0
-0.486073 -0.037342 0.357895 153 0 76
0.815119 0.266009 -0.124392 76 0 153
-0.362854 0.129666 -0.237590 127 127 0
-0.274123 0.326049 0.239877 127 0 127
-0.100234 0.039314 -0.317999 153 76 0
0.058630 0.323221 0.327165 153 0 76
0.801251 0.140626 0.327165 153 0 76
-0.185803 0.326049 -0.312897 127 0 127
-0.750261 0.331990 -0.170277 127 0 127
0.799754 -0.284138 0.091817 76 0 153
0.200336 0.236364 -0.348729 153 76 0
0.778528 -0.505768 -0.369290 0 0 255
0.815119 -0.154033 0.016088 76 0 153
-0.551929 -0.303911 0.155074 76 0 153
0.693653 0.311772 -0.317999 153 76 0
-0.642426 -0.087675 0.327165 153 0 76
0.010856 0.326049 -0.020554 127 0 127
-0.706811 -0.124339 -0.319716 153 76 0
-0.135058 0.302940 -0.317999 153 76 0
0.145077 0.229394 -0.317999 153 76 0
0.445754 0.231411 0.357895 153 0 76
-0.182463 0.079538 0.327165 153 0 76
0.655154 0.022498 -0.317999 153 76 0
-0.201503 -0.070661 -0.348729 153 76 0
0.768261 -0.072346 -0.317999 153 76 0
0.771318 -0.445831 0.347737 0 255 0
0.815119 -0.190500 0.187756 76 0 153
0.165328 -0.186560 -0.317999 153 76 0
-0.721343 -0.182232 0.357895 153 0 76
0.415872 0.286336 0.327165 153 0 76
0.006637 -0.144118 -0.317999 153 76 0
0.244617 -0.205065 0.357895 153 0 76
-0.020886 -0.085210 -0.348729 153 76 0
-0.690638 0.148886 0.226420 204 51 127
0.238116 0.356779 -0.078063 127 0 127
-0.423971 -0.039718 0.357895 153 0 76
-0.383341 0.221803 0.137192 127 127 0
0.429903 -0.324449 0.356592 0 255 0
-0.454281 0.308748 0.357895 153 0 76
-0.653970 -0.427685 -0.369290 0 0 255
0.784390 0.107318 -0.122735 76 0 153
-0.019090 -0.283424 -0.234903 76 0 153
-0.721368 0.078362 0.102868 204 51 127
0.050281 -0.135148 -0.348729 153 76 0
-0.690638 0.172700 0.153588 204 51 127
-0.579428 -0.060233 0.327165 153 0 76
-0.690638 -0.056359 0.295743 204 51 127
0.768163 0.026857 0.327165 153 0 76
0.815119 0.006287 0.272582 76 0 153
-0.510091 0.326049 0.060353 127 0 127
0.535092 -0.133980 0.357895 153 0 76
-0.222699 0.116206 -0.348729 153 76 0
0.089893 0.306018 -0.317999 153 76 0
-0.373357 -0.324397 0.344671 0 255 0
-0.532368 0.039238 -0.234877 0 255 0
-0.309087 -0.003980 0.327165 153 0 76
0.197559 -0.199937 -0.348729 153 76 0
-0.625415 0.326049 -0.327823 127 0 127
0.784390 0.236164 -0.080273 76 0 153
0.782066 0.326049 -0.237498 76 0 153
0.815119 0.191858 0.235894 76 0 153
-0.690638 0.204549 -0.011845 204 51 127
-0.252449 -0.283424 0.141465 76 0 153
-0.690638 0.292261 0.189623 204 51 127
0.117086 0.356779 0.128186 127 0 127
0.750120 -0.475473 0.347737 0 255 0
-0.613862 0.039238 -0.073021 0 255 0
0.565310 0.299884 0.357895 153 0 76
-0.677358 0.356779 -0.281453 127 0 127
0.563284 -0.114151 -0.348729 153 76 0
0.784390 -0.099605 0.018586 76 0 153
0.729830 -0.162963 0.327165 153 0 76
0.732731 0.326049 0.243799 127 0 127
0.534639 0.356779 0.177836 127 0 127
-0.690638 0.212253 0.238698 204 51 127
-0.526848 -0.113995 -0.317999 153 76 0
-0.712995 0.356779 -0.215339 127 0 127
0.523387 0.025761 -0.348729 153 76 0
-0.207214 -0.283424 -0.207949 76 0 153
0.369496 -0.091623 -0.348729 153 76 0
0.727669 0.267926 -0.348729 153 76 0
-0.293388 0.217542 -0.348729 153 76 0
-0.443818 0.039238 0.076748 0 255 0
-0.721368 -0.153677 -0.139912 204 51 127
0.521738 0.326049 0.032173 127 0 127
-0.039418 0.356779 0.182230 127 0 127
0.776887 -0.479140 0.378467 0 255 0
-0.721368 0.212591 -0.317162 204 51 127
-0.440947 0.039238 -0.089681 0 255 0
0.205316 0.326049 -0.166269 127 0 127
0.835748 -0.408795 -0.368108 204 51 127
-0.690638 0.002551 -0.132653 204 51 127
-0.395809 -0.303911 0.278517 76 0 153
-0.690638 0.038453 0.181227 204 51 127
-0.494688 0.024078 0.327165 0 255 0
0.133977 -0.244887 0.357895 153 0 76
-0.721368 0.065066 0.311695 204 51 127
0.293684 -0.323260 -0.230919 76 0 153
0.586787 -0.303911 -0.102170 76 0 153
-0.207985 -0.115427 -0.317999 153 76 0
0.421803 -0.229765 -0.348729 153 76 0
-0.248753 0.009946 -0.317999 153 76 0
0.673919 0.326049 -0.285070 127 0 127
0.443396 -0.303911 -0.044846 76 0 153
0.784390 -0.119661 0.097547 76 0 153
-0.696786 -0.344385 -0.369290 0 0 255
0.039462 0.356779 -0.340837 127 0 127
-0.374153 -0.217742 0.357895 153 0 76
0.215391 -0.303911 -0.286798 76 0 153
0.712845 0.356779 -0.100027 127 0 127
0.024532 -0.075239 0.357895 153 0 76
0.535630 0.219163 0.327165 153 0 76
0.619881 -0.283424 -0.322602 153 76 0
-0.690638 0.115386 0.280937 204 51 127
-0.721368 0.275524 -0.082758 204 51 127
0.754455 0.356779 0.134431 127 0 127
0.061884 0.144747 -0.317999 153 76 0
0.540712 0.326049 0.199032 127 0 127
0.571554 -0.303911 -0.150812 76 0 153
-0.690638 0.204906 -0.112130 204 51 127
-0.136962 -0.283424 -0.198510 76 0 153
0.272080 0.100022 -0.348729 153 76 0
-0.348438 0.178792 0.357895 153 0 76
-0.047762 0.356779 0.007751 127 0 127
0.361245 -0.021973 0.327165 153 0 76
0.784390 -0.036830 0.084331 76 0 153
-0.092126 -0.246902 -0.317999 153 76 0
-0.404748 0.010557 0.299705 0 255 0
-0.690638 -0.248093 -0.180060 204 51 127
0.784390 -0.173058 -0.045117 76 0 153
0.371376 -0.303911 -0.170065 76 0 153
-0.303338 -0.062514 0.357895 153 0 76
0.280441 0.356779 0.180239 127 0 127
0.489775 -0.095642 -0.348729 153 76 0
-0.070865 -0.023945 0.357895 153 0 76
-0.690638 0.243459 -0.186372 204 51 127
0.002775 -0.308849 -0.369290 255 0 0
0.043286 0.290309 0.327165 153 0 76
-0.723563 0.356779 -0.115034 127 0 127
-0.474449 0.026768 -0.318159 153 76 0
-0.310607 -0.040378 -0.348729 153 76 0
-0.458167 0.147305 -0.317999 153 76 0
-0.262222 -0.150541 0.357895 153 0 76
0.514650 -0.344884 0.356298 0 255 0
-0.396090 0.326049 0.190517 127 0 127
0.115362 0.043483 -0.317999 153 76 0
0.754383 -0.283424 -0.099054 76 0 153
0.815119 -0.013268 0.081739 76 0 153
0.660563 -0.176474 -0.348729 153 76 0
0.815119 -0.149701 0.236646 76 0 153
0.440874 -0.067141 0.327165 153 0 76
0.815119 0.042886 -0.258536 76 0 153
0.209542 -0.339237 -0.369290 0 0 255
0.561666 0.184141 0.357895 76 0 153
0.672960 0.356779 0.056343 127 0 127
-0.483758 0.241997 -0.348729 153 76 0
0.176899 -0.283424 -0.311297 76 0 153
-0.353673 -0.324397 -0.275581 76 0 153
-0.383341 0.115595 -0.312509 153 76 0
0.780673 -0.047282 -0.348729 76 0 153
-0.133502 0.322738 0.357895 153 0 76
-0.710982 -0.318209 -0.015201 255 0 0
0.185197 0.326049 0.095094 127 0 127
0.474556 -0.303911 -0.322888 76 0 153
-0.518294 0.116205 0.357895 153 0 76
0.815119 -0.102375 0.140706 76 0 153
-0.721368 -0.156376 -0.048039 204 51 127
-0.690638 0.226271 0.294672 204 51 127
0.276323 -0.181828 0.357895 153 0 76
-0.617545 -0.303911 -0.204515 76 0 153
-0.721368 0.251419 -0.157349 204 51 127
0.425322 0.326049 -0.291671 127 0 127
0.618463 -0.058530 -0.317999 153 76 0
0.681972 0.241379 -0.317999 153 76 0
-0.061113 -0.307200 -0.369290 255 0 0
0.815119 0.231936 -0.187649 76 0 153
0.153927 0.326049 -0.006255 127 0 127
0.077145 0.356779 -0.278873 127 0 127
-0.604432 0.194931 0.327165 153 0 76
-0.541818 -0.068195 0.357895 153 0 76
-0.013546 0.270444 -0.348729 153 76 0
0.561407 0.326049 0.297837 127 0 127
-0.613099 0.356779 -0.059963 127 0 127
-0.442892 0.059725 0.009762 0 255 0
-0.201327 -0.339649 -0.369290 0 0 255
0.032034 -0.303911 -0.069127 76 0 153
0.305754 0.326049 0.294096 127 0 127
0.817681 -0.283820 -0.241990 76 0 153
0.326885 0.063752 0.327165 153 0 76
-0.668906 -0.283424 -0.108412 76 0 153
-0.524945 0.326049 -0.311632 153 76 0
0.704785 -0.120994 0.357895 153 0 76
-0.662470 0.326049 -0.266687 127 0 127
0.617224 -0.283424 0.240869 76 0 153
-0.209114 0.044898 -0.348729 153 76 0
-0.723602 -0.283424 0.269186 76 0 153
-0.618459 0.356779 0.001366 127 0 127
0.805019 -0.472231 -0.336492 204 51 127
-0.030663 -0.168179 0.327165 153 0 76
0.289654 -0.303911 0.328959 153 0 76
-0.429792 -0.183742 0.357895 153 0 76
-0.071318 0.287562 0.327165 153 0 76
-0.429335 0.356779 -0.123939 127 0 127
-0.721368 0.219241 0.189852 204 51 127
-0.690638 0.003651 0.075451 204 51 127
0.591054 0.326049 -0.101802 127 0 127
-0.362854 0.039602 0.261657 0 255 0
0.535556 0.204244 -0.348729 153 76 0
-0.466442 0.326049 0.224626 127 0 127
-0.409064 0.116120 0.357895 153 76 0
0.815119 -0.216879 -0.048673 76 0 153
-0.004018 0.326049 -0.119739 127 0 127
-0.741712 -0.365625 0.295221 255 0 0
0.149313 0.201449 -0.348729 153 76 0
0.738256 0.313401 -0.348729 153 76 0
-0.256874 0.012786 0.327165 153 0 76
-0.362854 0.126362 0.166741 127 127 0
0.815119 -0.259911 0.121132 76 0 153
0.548848 -0.081143 0.327165 153 0 76
0.701031 -0.303911 0.042480 76 0 153
-0.071371 -0.139955 0.357895 153 0 76
0.410235 0.020653 0.327165 153 0 76
0.710768 0.152678 -0.348729 153 76 0
0.348274 0.356779 0.256552 127 0 127
0.236624 -0.303911 -0.172233 76 0 153
0.156220 -0.303911 -0.241075 76 0 153
0.463014 0.194056 0.357895 153 0 76
0.059891 -0.027392 0.327165 153 0 76
0.427281 -0.303911 -0.162285 76 0 153
-0.690638 -0.271615 -0.007488 76 0 153
-0.088361 0.356779 0.015568 127 0 127
0.784390 0.189184 -0.272572 76 0 153
0.684628 0.356779 -0.265740 127 0 127
-0.721368 0.157399 -0.256559 204 51 127
-0.721368 0.140129 0.076557 204 51 127
-0.501666 0.356779 -0.211210 127 0 127
0.489576 -0.045029 0.357895 153 0 76
-0.177310 -0.283424 -0.084589 76 0 153
-0.690638 0.102452 0.008679 204 51 127
0.143400 0.216495 0.327165 153 0 76
-0.045252 0.195862 0.327165 153 0 76
-0.706003 -0.288057 0.055791 76 0 153
0.835748 -0.323724 0.009218 204 51 127
-0.721368 0.200545 0.103545 204 51 127
-0.332384 0.153650 0.327165 153 0 76
0.805019 -0.387460 -0.278686 204 51 127
-0.711900 -0.406343 0.377765 255 0 0
-0.721368 -0.251320 -0.212322 204 51 127
-0.210618 -0.283424 0.183305 76 0 153
-0.727043 -0.292252 -0.257939 204 51 127
-0.479120 -0.283424 0.089242 76 0 153
0.470748 0.326049 0.181159 127 0 127
0.242441 0.164044 -0.348729 153 76 0
0.517150 -0.283424 -0.259161 76 0 153
-0.408210 0.269367 0.327165 153 0 76
0.815119 0.032414 -0.112775 76 0 153
0.268843 -0.283424 -0.253275 76 0 153
0.692187 -0.288364 -0.333364 153 76 0
-0.015427 0.001644 0.327165 153 0 76
0.748437 0.271668 0.357895 153 0 76
0.286536 -0.317143 0.240096 76 0 153
-0.383341 0.131475 -0.127894 127 127 0
-0.250470 0.326049 0.091281 127 0 127
0.581212 -0.303911 0.011096 76 0 153
0.009342 -0.303911 0.122275 76 0 153
0.784390 0.247429 0.066808 76 0 153
-0.362854 0.069885 0.019040 127 127 0
0.784390 0.069314 -0.284014 76 0 153
0.547285 -0.097354 -0.317999 153 76 0
-0.635267 -0.336571 -0.338560 0 0 255
-0.359071 0.012023 0.357895 153 0 76
0.161229 -0.075750 0.357895 153 0 76
0.369462 -0.257612 0.327165 153 0 76
-0.051468 0.356779 -0.157251 127 0 127
-0.298375 0.356779 0.139360 127 0 127
-0.202957 0.356779 0.291962 127 0 127
0.784390 -0.130885 -0.300068 76 0 153
-0.721368 0.082048 -0.309436 204 51 127
-0.462380 0.086107 -0.348729 153 76 0
0.245786 0.326049 0.158290 127 0 127
0.584665 -0.098883 0.327165 153 0 76
-0.432114 0.173672 0.327165 153 0 76
-0.569585 0.356779 -0.146803 127 0 127
-0.547674 -0.039459 -0.348729 153 76 0
-0.695649 -0.025055 -0.348729 204 51 127
-0.214209 -0.241791 -0.348729 153 76 0
-0.423149 -0.252990 -0.348729 153 76 0
0.045002 -0.324397 0.289303 76 0 153
0.510468 0.326049 0.271278 127 0 127
0.483243 0.356779 -0.095576 127 0 127
0.051018 -0.195521 0.327165 153 0 76
0.142965 -0.056731 -0.317999 153 76 0
-0.721368 -0.071070 0.240180 204 51 127
0.554283 -0.151610 -0.317999 153 76 0
-0.368037 -0.263994 0.357895 153 0 76
0.247541 0.290270 -0.348729 153 76 0
0.713949 -0.056394 0.357895 153 0 76
0.600011 0.134170 0.385337 76 0 153
-0.388751 0.211907 -0.317999 127 127 0
0.151281 -0.303911 0.049121 76 0 153
0.094667 -0.324397 0.333527 76 0 153
0.815119 0.308906 0.103406 76 0 153
0.448357 0.356779 -0.342480 127 0 127
-0.508046 0.059725 0.089368 0 255 0
0.741699 0.326049 0.024122 127 0 127
0.573632 -0.255214 0.357895 153 0 76
0.342472 0.198142 -0.348729 153 76 0
0.626523 -0.303911 -0.124528 76 0 153
0.033776 -0.324397 -0.281932 76 0 153
-0.568924 -0.246094 -0.317999 153 76 0
-0.311900 0.356779 0.241390 127 0 127
-0.506260 0.325436 0.361730 153 76 0
-0.297471 0.081517 -0.317999 153 76 0
-0.492800 0.326049 -0.344982 127 0 127
-0.229000 -0.212522 0.357895 153 0 76
0.784390 -0.183448 0.043617 76 0 153
-0.467244 0.326049 -0.289497 127 0 127
0.784390 -0.133242 -0.218114 76 0 153
0.212951 0.356779 -0.010829 127 0 127
-0.543099 0.039238 -0.163697 0 255 0
0.784390 -0.273731 -0.007966 76 0 153
-0.654971 0.326049 0.267558 127 0 127
0.438682 -0.217528 -0.317999 153 76 0
-0.210067 0.356779 0.211274 127 0 127
0.784390 -0.082271 -0.279558 76 0 153
0.835748 -0.500178 -0.308933 204 51 127
0.835748 -0.319985 0.219461 204 51 127
0.815119 -0.181084 -0.284672 76 0 153
0.759347 0.356779 -0.009013 127 0 127
-0.102511 -0.303911 0.009527 76 0 153
-0.327428 -0.225084 -0.348729 153 76 0
-0.670728 -0.367210 0.347737 0 255 0
-0.686680 0.326049 -0.092143 204 51 127
0.515719 0.152812 -0.317999 153 76 0
-0.526772 -0.324397 -0.274116 76 0 153
-0.473100 0.211494 0.327165 153 0 76
-0.619160 0.344892 0.352773 153 0 76
0.784390 -0.004328 0.231803 76 0 153
0.320418 -0.344884 -0.366440 0 0 255
-0.454881 0.356779 -0.029062 127 0 127
-0.690638 -0.210597 0.222411 204 51 127
-0.499833 0.356779 0.117836 127 0 127
-0.611490 -0.335410 0.378467 0 255 0
-0.488209 0.356779 -0.306855 127 0 127
-0.425326 -0.077902 0.357895 153 0 76
-0.522206 -0.262392 -0.348729 153 76 0
-0.650796 -0.324397 -0.232934 76 0 153
0.438100 0.326049 -0.097257 127 0 127
0.358048 -0.010554 -0.348729 153 76 0
-0.629330 0.326049 0.128910 127 0 127
-0.565502 0.099419 -0.317999 153 76 0
0.815119 0.258792 0.044172 76 0 153
0.027720 -0.303911 0.065414 76 0 153
0.379319 0.356779 -0.293527 127 0 127
0.632509 0.132275 0.327165 153 0 76
0.124573 0.295550 0.357895 153 0 76
0.640142 -0.303911 -0.363176 0 0 255
0.171091 0.326049 -0.337092 127 0 127
-0.352132 0.326049 0.105379 127 0 127
-0.176396 0.326049 0.300614 127 0 127
-0.362854 0.114376 -0.157092 127 127 0
0.078648 0.356779 -0.067850 127 0 127
-0.711284 -0.476779 0.377659 0 255 0
-0.513867 -0.243790 -0.317999 153 76 0
0.223011 -0.262334 -0.348729 153 76 0
0.785706 0.326049 0.199019 127 0 127
-0.199775 0.137081 -0.317999 153 76 0
-0.019412 0.140592 0.327165 153 0 76
-0.407604 0.291229 0.357895 153 0 76
0.616538 0.009497 0.357895 153 0 76
0.815119 -0.005880 -0.008463 76 0 153
0.734142 -0.078358 -0.317999 153 76 0
-0.362458 0.356779 0.280624 127 0 127
0.154459 -0.131879 0.327165 153 0 76
0.805019 -0.378107 -0.321396 204 51 127
0.098076 -0.114417 0.357895 153 0 76
-0.230172 0.356779 0.133085 127 0 127
-0.645137 0.039238 -0.010259 0 255 0
-0.182751 -0.041545 -0.348729 153 76 0
0.125493 -0.159134 0.357895 153 0 76
-0.362854 0.050200 -0.289427 127 127 0
-0.038427 -0.283424 0.096946 76 0 153
0.523140 0.356779 -0.049970 127 0 127
-0.035173 -0.303911 -0.203014 76 0 153
-0.491658 0.039238 -0.079727 0 255 0
-0.296368 0.326049 0.192791 127 0 127
-0.389374 -0.283424 -0.083004 76 0 153
-0.147869 -0.307255 -0.369290 255 0 0
0.279104 -0.057122 -0.348729 153 76 0
-0.142187 -0.083432 0.357895 153 0 76
0.781200 -0.255717 0.327165 153 0 76
-0.685804 -0.378897 0.378467 0 255 0
0.351994 0.356779 -0.263512 127 0 127
0.784390 0.295341 -0.253213 76 0 153
0.423631 -0.269858 0.357895 153 0 76
0.172215 -0.283424 0.146767 76 0 153
0.295357 0.356779 -0.294456 127 0 127
0.625195 -0.344789 0.347737 0 255 0
0.764711 0.356779 -0.236510 127 0 127
-0.501834 -0.186789 0.327165 153 0 76
-0.712572 -0.380547 -0.222748 255 0 0
-0.461656 -0.310904 0.363027 255 0 0
0.784390 0.118023 0.116160 76 0 153
-0.248779 -0.055324 -0.348729 153 76 0
-0.383341 0.078956 0.190937 127 127 0
0.588826 0.356779 0.132263 127 0 127
-0.493909 -0.102962 0.357895 153 0 76
-0.721368 0.009399 0.291311 204 51 127
-0.402645 -0.148318 -0.348729 153 76 0
0.784390 0.147052 0.177157 76 0 153
-0.690638 -0.200247 -0.103082 204 51 127
-0.235952 0.326049 -0.373342 127 0 127
-0.510389 -0.303911 0.143286 76 0 153
0.749651 0.326049 -0.135591 127 0 127
0.815119 -0.040549 0.034706 76 0 153
0.192100 -0.164416 0.357895 153 0 76
0.546002 -0.344884 -0.365718 0 0 255
-0.112309 0.326049 0.081799 127 0 127
-0.531446 -0.283424 -0.004114 76 0 153
-0.633850 0.356779 0.103668 127 0 127
-0.450832 0.326049 0.294710 127 0 127
-0.721368 0.291856 0.166202 204 51 127
-0.686220 -0.383596 -0.338560 0 0 255
-0.040828 0.142258 0.357895 153 0 76
-0.721368 -0.093446 -0.064709 204 51 127
0.583992 -0.011771 0.357895 153 0 76
0.815119 -0.143415 0.168690 76 0 153
0.024524 -0.163214 -0.348729 153 76 0
-0.721368 -0.179857 -0.275486 204 51 127
0.101643 0.059625 -0.348729 153 76 0
-0.471629 0.290035 0.327165 153 0 76
-0.503926 -0.303471 -0.369215 0 0 255
-0.747721 0.355666 0.146747 127 0 127
-0.462835 0.356779 0.128893 127 0 127
0.322064 -0.283424 -0.333020 255 0 0
0.280003 0.356779 0.266792 127 0 127
0.726459 -0.431256 0.376897 0 255 0
-0.715643 -0.483168 -0.347808 0 0 255
-0.187722 0.356779 -0.250354 127 0 127
0.184047 0.356779 0.110539 127 0 127
0.402611 -0.283424 0.234895 76 0 153
-0.625777 0.356779 -0.311120 127 0 127
-0.690638 0.289522 -0.304326 204 51 127
0.803769 0.085755 0.357895 76 0 153
0.805019 -0.337512 0.320108 204 51 127
0.304018 0.074520 0.357895 153 0 76
-0.155164 -0.303911 0.182296 76 0 153
0.553964 0.200858 -0.317999 153 76 0
-0.588904 0.356779 0.296418 127 0 127
-0.530326 0.125496 -0.348729 153 76 0
-0.555118 0.039238 0.062850 0 255 0
-0.484431 -0.036599 -0.348729 153 76 0
0.268362 0.326049 -0.127243 127 0 127
-0.690638 -0.051872 0.018010 204 51 127
-0.482924 0.326049 -0.199090 127 0 127
0.107053 -0.303911 0.086912 76 0 153
0.314180 -0.303911 0.126539 76 0 153
0.478278 -0.283424 -0.112481 76 0 153
0.433579 0.083347 -0.348729 153 76 0
0.756409 0.224018 0.357895 153 0 76
-0.336925 0.356779 -0.055515 127 0 127
-0.362854 0.179107 0.312789 127 127 0
-0.477875 0.039238 -0.196261 0 255 0
-0.453478 0.195631 0.388625 153 76 0
-0.633506 0.133632 0.357895 153 0 76
-0.372282 0.356779 0.007260 127 0 127
0.232881 0.356779 0.139486 127 0 127
0.695380 0.326049 0.142218 127 0 127
0.053613 0.356779 -0.039437 127 0 127
0.815119 -0.242275 -0.133860 76 0 153
0.805019 -0.358965 -0.251067 204 51 127
0.068654 0.134236 0.357895 153 0 76
0.539915 0.204957 0.388625 76 0 153
0.200859 0.326049 -0.273808 127 0 127
-0.215815 0.280219 0.327165 153 0 76
0.495999 0.356779 -0.281612 127 0 127
-0.690638 0.115371 -0.038852 204 51 127
-0.499980 0.356779 0.228331 127 0 127
-0.362854 0.282630 -0.142651 127 127 0
0.184288 -0.324397 -0.271310 76 0 153
0.662153 -0.226257 -0.317999 153 76 0
0.328288 0.272134 0.327165 153 0 76
-0.536373 -0.303911 -0.079426 76 0 153
0.784390 0.281050 0.115470 76 0 153
-0.721368 -0.078307 -0.176471 204 51 127
0.243794 -0.022605 -0.317999 153 76 0
-0.094318 0.326049 0.250839 127 0 127
-0.721368 -0.025261 0.170583 204 51 127
0.739494 0.255821 0.327165 153 0 76
0.805019 -0.316658 0.150430 204 51 127
-0.377784 0.326049 -0.219675 127 0 127
0.784390 0.285858 -0.132946 76 0 153
-0.233308 0.235454 -0.348729 153 76 0
-0.666466 -0.283424 -0.176547 76 0 153
-0.586602 0.326049 0.154187 127 0 127
-0.558076 0.326049 -0.083864 127 0 127
0.380823 0.326049 0.055699 127 0 127
-0.445356 -0.324397 -0.348892 76 0 153
-0.613930 -0.124981 0.357895 153 0 76
-0.031588 0.356779 0.322742 127 0 127
0.787688 -0.303911 0.116998 76 0 153
0.673384 -0.303911 0.109134 76 0 153
0.815119 0.271685 -0.196184 76 0 153
0.212197 0.322653 0.327165 127 0 127
0.296998 0.325993 0.327165 153 0 76
-0.362854 0.039574 -0.082992 0 255 0
-0.256702 -0.256495 -0.348729 153 76 0
0.604633 -0.303911 0.134348 76 0 153
0.566305 -0.214402 0.357895 153 0 76
-0.135710 0.326049 0.140695 127 0 127
0.488633 -0.344001 0.378467 0 255 0
-0.721368 -0.037988 -0.005016 204 51 127
0.148336 -0.036744 0.357895 153 0 76
0.815119 -0.065555 -0.036533 76 0 153
-0.690638 -0.099248 -0.223229 204 51 127
-0.710982 -0.388877 0.309999 255 0 0
0.325448 0.298404 0.357895 153 0 76
-0.165338 0.356779 -0.305462 127 0 127
0.391582 -0.264836 -0.348729 153 76 0
0.676703 0.356779 0.164007 127 0 127
-0.690638 0.287678 -0.032629 204 51 127
-0.690638 -0.083301 0.160661 204 51 127
0.331040 0.356779 -0.366741 127 0 127
-0.381351 0.356779 0.208325 127 0 127
0.314009 -0.127853 0.357895 153 0 76
0.815119 -0.073824 0.317991 76 0 153
0.784390 -0.154909 0.147187 76 0 153
-0.690638 -0.208000 -0.031809 204 51 127
0.784390 -0.232708 0.209873 76 0 153
0.078948 0.212175 -0.317999 153 76 0
0.835748 -0.429764 -0.324630 0 0 255
0.193635 0.326049 -0.073582 127 0 127
-0.330289 -0.242384 0.327165 153 0 76
0.613307 0.356779 -0.284130 127 0 127
0.805019 -0.365695 0.377110 0 255 0
-0.545392 -0.344521 0.378467 0 255 0
0.136594 -0.303911 -0.185226 76 0 153
-0.068080 -0.294797 0.342530 76 0 153
-0.658210 0.059725 0.019478 0 255 0
0.569575 -0.303911 0.116034 76 0 153
0.694570 -0.188810 -0.348729 153 76 0
0.784390 0.101639 0.281426 76 0 153
0.175033 -0.303911 -0.174401 76 0 153
-0.741712 -0.447635 -0.321679 0 0 255
-0.289901 -0.067507 -0.348729 153 76 0
-0.710982 -0.323106 0.121209 255 0 0
-0.448827 0.326049 0.259467 127 0 127
-0.419477 -0.225027 -0.317999 153 76 0
0.304779 -0.283424 0.015043 76 0 153
-0.051685 -0.146979 -0.317999 153 76 0
0.162272 0.324625 0.327165 127 0 127
0.659755 0.326049 0.251154 127 0 127
-0.383341 0.274848 0.195534 127 127 0
-0.647561 0.326049 0.333135 127 0 127
-0.605171 -0.175626 0.357895 153 0 76
-0.011367 0.090700 0.357895 153 0 76
0.647894 0.313343 0.357895 153 0 76
0.784390 0.127137 -0.249537 76 0 153
-0.556988 0.326049 0.124305 127 0 127
0.238348 0.166022 0.357895 153 0 76
-0.185921 -0.289980 -0.333364 255 0 0
-0.163022 0.270815 0.327165 153 0 76
-0.715519 -0.324397 0.357527 0 255 0
0.013929 0.356779 0.127361 127 0 127
-0.122581 -0.285546 -0.095745 76 0 153
-0.741712 -0.325799 0.091395 255 0 0
-0.432717 -0.259024 0.357895 153 0 76
-0.142741 -0.265548 0.327165 153 0 76
0.784390 0.296191 0.229762 76 0 153
0.131884 0.356779 -0.114805 127 0 127
0.604736 0.186140 -0.348729 153 76 0
-0.690638 -0.052676 0.065737 204 51 127
-0.510695 0.059725 0.168191 0 255 0
-0.721368 -0.251635 -0.015981 204 51 127
0.086404 -0.070676 -0.348729 153 76 0
-0.635569 0.252290 0.357895 153 0 76
-0.406884 -0.124443 0.327165 153 0 76
-0.047511 -0.136359 0.327165 153 0 76
-0.107166 0.326049 0.038645 127 0 127
0.105487 0.326049 -0.266070 127 0 127
-0.197592 0.356779 -0.131584 127 0 127
0.205495 0.356779 0.193745 127 0 127
0.068990 0.085203 -0.317999 153 76 0
0.196172 0.326049 -0.371674 127 0 127
-0.231643 -0.181273 0.327165 153 0 76
0.183249 -0.283424 0.302326 76 0 153
0.784390 -0.019838 0.178188 76 0 153
0.663625 0.146969 -0.348729 153 76 0
0.105073 -0.283424 -0.057243 76 0 153
-0.273597 0.188615 -0.317999 153 76 0
-0.423462 0.356779 0.263120 127 0 127
-0.230479 -0.271922 -0.317999 153 76 0
0.437866 0.356779 -0.220331 127 0 127
-0.383341 0.292946 -0.238778 127 127 0
0.293288 0.356779 0.311960 127 0 127
0.120599 0.291414 -0.317999 153 76 0
-0.015005 0.326049 0.301071 127 0 127
-0.721368 0.172786 -0.175509 204 51 127
0.815119 -0.018491 -0.087948 76 0 153
0.533344 -0.303911 -0.186678 76 0 153
-0.303547 -0.311376 -0.230919 76 0 153
-0.670422 -0.114411 -0.317999 153 76 0
0.358075 -0.283424 -0.276042 76 0 153
0.815119 0.292294 -0.067207 76 0 153
0.450679 -0.149791 -0.317999 153 76 0
0.303212 -0.148125 0.327165 153 0 76
-0.365323 -0.283424 0.088764 76 0 153
0.590690 -0.011528 -0.317999 153 76 0
-0.672256 -0.273278 0.357895 153 0 76
-0.018699 -0.282892 -0.317999 76 0 153
-0.345275 0.356779 -0.117006 127 0 127
0.483087 0.288243 -0.348729 153 76 0
-0.143044 0.355853 -0.374497 127 0 127
-0.273877 -0.283424 -0.174926 76 0 153
-0.543780 0.191747 0.327165 153 0 76
0.751689 0.356779 0.233824 127 0 127
-0.089785 0.159702 0.327165 153 0 76
-0.580443 -0.321317 -0.230919 76 0 153
0.253884 -0.283424 -0.221631 76 0 153
0.113244 0.208388 0.357895 153 0 76
0.200511 0.356779 0.288997 127 0 127
0.260864 0.315736 0.327165 153 0 76
0.023413 0.174189 0.327165 153 0 76
0.464482 -0.128279 0.327165 153 0 76
0.142820 0.261382 -0.348729 153 76 0
-0.390450 0.157225 -0.317999 127 127 0
-0.721368 -0.242471 0.052504 204 51 127
-0.448794 -0.303911 0.205726 76 0 153
0.274699 -0.303911 0.376482 0 255 0
-0.695551 0.054917 0.331181 204 51 127
-0.178616 0.309953 0.357895 153 0 76
0.116198 -0.108204 -0.317999 153 76 0
0.820522 0.356779 -0.098853 127 0 127
0.255011 -0.283424 -0.081593 76 0 153
-0.478627 0.326049 0.008003 127 0 127
0.078293 0.326049 -0.035929 127 0 127
-0.251728 0.180212 0.357895 153 0 76
-0.690638 -0.231140 0.120445 204 51 127
-0.312803 -0.283424 -0.090229 76 0 153
-0.601603 0.009150 0.357895 153 0 76
0.683714 -0.303911 0.187999 76 0 153
0.494177 0.112642 0.357895 76 0 153
-0.503763 -0.068432 -0.348729 153 76 0
-0.058985 0.306525 -0.317999 153 76 0
-0.304263 -0.344884 0.349162 0 255 0
0.122066 0.326049 0.223758 127 0 127
0.428139 0.326049 0.089386 127 0 127
-0.721368 -0.188258 0.262337 204 51 127
-0.202750 -0.151135 -0.348729 153 76 0
-0.479760 0.007340 0.357895 153 0 76
-0.454636 0.356779 -0.146434 127 0 127
-0.245728 -0.303911 0.207958 76 0 153
0.071192 0.356779 0.062288 127 0 127
-0.288808 0.356779 -0.174310 127 0 127
-0.507162 -0.269423 0.357895 153 0 76
0.517007 0.326049 -0.145783 127 0 127
-0.253666 -0.303911 -0.021467 76 0 153
-0.633122 0.272780 -0.348729 153 76 0
-0.500078 0.356779 0.193287 127 0 127
0.372866 0.356779 -0.211476 127 0 127
0.513130 -0.018052 -0.348729 153 76 0
-0.172201 -0.324397 -0.283775 76 0 153
-0.123758 0.326049 -0.038907 127 0 127
-0.583463 -0.209890 0.327165 153 0 76
-0.148278 -0.303911 -0.019816 76 0 153
0.810294 0.234174 0.357869 76 0 153
-0.721368 0.181130 -0.065758 204 51 127
-0.212879 0.259632 0.357895 153 0 76
-0.243137 0.326049 -0.020317 127 0 127
-0.554934 0.356779 0.073355 127 0 127
0.263564 0.320019 -0.348729 153 76 0
0.268010 -0.202200 -0.348729 153 76 0
-0.463221 0.297950 0.388625 153 76 0
0.345958 0.356779 0.020889 127 0 127
0.366696 0.105344 0.357895 153 0 76
0.784390 -0.194298 -0.264165 76 0 153
-0.234198 0.104632 0.357895 153 0 76
0.843107 0.329957 0.276531 127 0 127
0.541507 0.326049 -0.217643 127 0 127
-0.646944 0.059725 -0.206614 0 255 0
0.425290 0.035556 0.357895 153 0 76
-0.700105 0.326049 -0.053414 127 0 127
0.212640 -0.005179 0.357895 153 0 76
0.805019 -0.332239 -0.146406 204 51 127
-0.022848 0.356779 0.265894 127 0 127
0.464339 -0.283424 0.220432 76 0 153
0.552620 0.091413 0.327165 153 0 76
0.608584 -0.324397 -0.232192 76 0 153
-0.456717 -0.180672 0.327165 153 0 76
0.547355 -0.303911 0.020862 76 0 153
-0.690638 -0.095624 0.096680 204 51 127
0.671741 -0.083986 -0.348729 153 76 0
-0.705153 -0.077661 -0.348729 204 51 127
0.815119 -0.283032 -0.070216 76 0 153
0.301818 0.326049 0.219767 127 0 127
0.124562 -0.283424 0.005895 76 0 153
0.579415 0.356779 -0.094244 127 0 127
0.815119 -0.099837 -0.008314 76 0 153
-0.269633 0.294585 -0.348729 153 76 0
-0.044346 -0.303911 0.279175 76 0 153
0.550520 0.304371 -0.348729 153 76 0
0.018298 -0.267767 0.327165 153 0 76
-0.490282 0.039238 -0.266576 0 255 0
-0.543601 -0.303911 0.315077 76 0 153
-0.383341 0.149978 0.042764 127 127 0
-0.525224 0.326049 -0.206896 127 0 127
0.739810 -0.303911 -0.121485 76 0 153
0.134876 0.045678 0.327165 153 0 76
0.784390 -0.099345 -0.153876 76 0 153
0.014434 -0.100357 -0.317999 153 76 0
-0.277501 -0.283424 0.242816 76 0 153
0.080143 -0.243578 -0.348729 153 76 0
0.535423 -0.303911 0.305335 76 0 153
0.731166 0.356779 -0.034402 127 0 127
-0.671191 0.167273 0.327165 153 0 76
-0.661690 0.326049 -0.320560 127 0 127
-0.721368 0.114653 0.109673 204 51 127
0.303719 0.097228 0.327165 153 0 76
0.154188 0.110671 0.327165 153 0 76
0.808176 0.356779 0.047938 127 0 127
0.784390 -0.245474 0.275908 76 0 153
0.630448 0.247378 0.357895 153 0 76
0.233988 0.057258 0.357895 153 0 76
-0.265407 0.142097 -0.348729 153 76 0
0.767135 -0.303911 -0.220902 76 0 153
0.473107 0.277431 0.357895 76 0 153
0.158061 -0.303911 -0.367424 76 0 153
-0.721368 -0.254215 0.113237 204 51 127
0.351113 -0.303911 -0.105318 76 0 153
0.228235 -0.067990 0.357895 153 0 76
-0.120225 -0.147465 0.327165 153 0 76
-0.721368 0.060721 -0.133375 204 51 127
-0.427615 0.016981 -0.348729 153 76 0
-0.677690 -0.488121 -0.369290 0 0 255
0.414657 0.020602 -0.348729 153 76 0
0.440535 -0.218525 0.357895 153 0 76
0.450565 -0.283424 0.261019 76 0 153
0.815119 -0.157472 0.087599 76 0 153
0.408946 0.356779 -0.076012 127 0 127
-0.100313 -0.283424 0.139153 76 0 153
-0.690638 -0.145112 -0.040418 204 51 127
0.143186 -0.169734 -0.348729 153 76 0
0.447228 0.356779 0.318240 127 0 127
-0.006298 0.326049 0.041026 127 0 127
-0.383341 0.184651 -0.209920 127 127 0
-0.576993 0.253563 -0.317999 153 76 0
0.814727 0.106134 -0.347835 76 0 153
-0.168679 -0.004558 -0.317999 153 76 0
0.087624 -0.303911 0.047813 76 0 153
0.735753 -0.324397 -0.240651 76 0 153
0.815119 0.239792 0.295778 76 0 153
0.815119 -0.024943 0.203521 76 0 153
-0.344674 -0.068113 0.327165 153 0 76
-0.399856 0.069670 0.357895 153 0 76
-0.553304 0.263355 0.327165 153 0 76
-0.690638 0.287049 0.061609 204 51 127
0.760932 -0.303911 -0.336264 153 76 0
-0.515436 -0.010470 -0.317999 153 76 0
-0.044678 -0.312119 0.378467 0 255 0
-0.154241 0.101398 -0.348729 153 76 0
0.644236 -0.283424 0.061320 76 0 153
-0.084590 -0.303911 -0.028597 76 0 153
0.309864 0.356779 -0.144097 127 0 127
0.243286 0.326049 0.102976 127 0 127
0.667893 0.261441 -0.348729 153 76 0
-0.690638 0.151980 -0.167254 204 51 127
-0.175298 -0.303911 0.231625 76 0 153
-0.296967 -0.148758 0.357895 153 0 76
-0.692860 -0.073123 0.339446 153 0 76
-0.631316 -0.283424 -0.142633 76 0 153
0.252978 -0.209681 -0.317999 153 76 0
-0.564835 0.054019 -0.348729 153 76 0
0.468023 0.356779 0.260889 127 0 127
-0.549111 -0.272542 0.327165 153 0 76
-0.738625 0.326049 -0.216572 127 0 127
0.182807 0.246750 0.357895 153 0 76
0.756285 0.343012 -0.379533 127 0 127
-0.362854 0.208433 0.114269 127 127 0
-0.721368 -0.073968 0.013317 204 51 127
-0.269870 -0.283424 0.039143 76 0 153
0.784390 0.163782 0.010386 76 0 153
-0.022161 0.326049 0.226697 127 0 127
0.784390 -0.215928 0.102069 76 0 153
-0.383341 0.156121 0.099227 127 127 0
-0.484942 0.326049 0.165043 127 0 127
-0.741712 -0.338322 -0.227483 255 0 0
-0.741712 -0.349657 0.213973 255 0 0
-0.685211 -0.046022 0.357895 204 51 127
0.817977 -0.285580 0.271874 255 0 0
-0.189355 -0.039264 0.327165 153 0 76
-0.635133 -0.283424 0.242436 76 0 153
0.073547 -0.049594 0.357895 153 0 76
-0.690638 -0.126387 -0.143481 204 51 127
-0.749055 0.329383 -0.295441 127 0 127
-0.513435 -0.159931 0.357895 153 0 76
0.423174 0.284253 -0.348729 153 76 0
0.806403 -0.411782 -0.249556 204 51 127
-0.362854 0.048939 0.224218 0 255 0
-0.444479 -0.303911 0.273322 76 0 153
-0.174595 0.160042 0.327165 153 0 76
0.721498 -0.049371 -0.348729 153 76 0
0.470582 -0.308002 0.378467 255 0 0
0.555746 0.356779 0.112120 127 0 127
0.784390 -0.155802 0.213939 76 0 153
-0.721368 -0.260156 0.178777 204 51 127
-0.668652 -0.447755 0.347737 0 255 0
-0.578064 -0.270280 -0.348729 153 76 0
-0.129888 -0.342268 -0.369290 0 0 255
-0.258678 -0.077573 0.327165 153 0 76
-0.721368 0.307115 0.283569 204 51 127
-0.584681 0.027279 -0.318159 153 76 0
-0.718494 -0.253812 0.327165 153 0 76
-0.107093 -0.009024 -0.348729 153 76 0
0.784390 0.173986 -0.194058 76 0 153
-0.569285 0.154995 0.357895 153 0 76
-0.161632 -0.258577 -0.317999 153 76 0
-0.356110 -0.236141 -0.317999 153 76 0
0.815119 -0.225059 0.072916 76 0 153
-0.259974 -0.283424 -0.265219 76 0 153
0.306893 -0.283424 0.071963 76 0 153
-0.349400 0.356779 -0.223403 127 0 127
0.648580 0.356779 -0.075568 127 0 127
-0.097357 0.356779 -0.311843 127 0 127
0.512816 0.262417 -0.317999 153 76 0
-0.673080 -0.341704 0.378467 0 255 0
0.767500 0.146714 -0.348729 153 76 0
0.430038 0.356779 -0.178461 127 0 127
0.007937 -0.005608 -0.348729 153 76 0
0.419415 -0.283424 0.013747 76 0 153
0.710407 -0.283424 0.200856 76 0 153
-0.690638 0.173239 0.080228 204 51 127
0.784390 0.031077 -0.243076 76 0 153
0.815119 -0.059136 -0.070045 76 0 153
-0.721368 -0.161886 0.241506 204 51 127
-0.258396 -0.324397 0.338351 76 0 153
-0.388384 0.222611 0.357895 153 0 76
-0.321816 0.326049 -0.076524 127 0 127
-0.452184 0.326049 -0.320355 153 76 0
-0.362854 0.253186 0.256195 127 127 0
-0.579034 0.059725 -0.079279 0 255 0
-0.690638 0.317732 -0.191169 204 51 127
-0.054211 -0.035696 -0.348729 153 76 0
0.035705 0.239524 0.357895 153 0 76
-0.124564 0.356779 0.124894 127 0 127
-0.721368 -0.004939 0.356880 204 51 127
0.131089 -0.303911 -0.137891 76 0 153
0.023068 0.191596 -0.348729 153 76 0
0.784390 0.294139 -0.092070 76 0 153
0.784390 -0.226065 0.016676 76 0 153
-0.492990 0.059528 0.357895 153 0 76
-0.532853 -0.303911 0.261183 76 0 153
-0.118866 0.326049 -0.074739 127 0 127
0.534562 0.027516 0.327165 153 0 76
-0.203879 -0.283424 0.244590 76 0 153
-0.291307 0.326049 -0.112645 127 0 127
-0.492229 0.129891 0.327165 153 0 76
0.784390 0.203120 0.082605 76 0 153
0.380237 0.006251 0.327165 153 0 76
-0.099962 -0.271285 0.357895 153 0 76
0.688628 0.356779 0.263174 127 0 127
-0.090499 0.326049 -0.361227 127 0 127
0.660293 -0.119064 0.357895 153 0 76
-0.645622 -0.054741 0.357895 153 0 76
0.580173 -0.070095 -0.348729 153 76 0
-0.383341 0.293556 0.151662 127 127 0
-0.319879 -0.303911 -0.168611 76 0 153
0.049474 -0.270225 -0.348729 153 76 0
-0.648948 0.015415 0.296436 0 255 0
0.784981 0.326049 0.320050 127 0 127
-0.140694 -0.248756 -0.348729 153 76 0
0.692899 0.356779 0.085675 127 0 127
-0.383341 0.232913 -0.279666 127 127 0
-0.657162 -0.283424 0.117302 76 0 153
0.127784 0.006295 -0.348729 153 76 0
0.807383 -0.368721 0.216375 204 51 127
-0.001487 0.356779 -0.291404 127 0 127
0.815119 0.190990 -0.083379 76 0 153
0.405812 -0.146816 0.357895 153 0 76
-0.270675 0.356779 0.158333 127 0 127
-0.721368 -0.264446 0.079405 204 51 127
0.815119 -0.045741 -0.306758 153 76 0
-0.690638 0.306500 0.022924 204 51 127
-0.652362 -0.283424 -0.330800 153 76 0
0.260961 -0.283424 -0.289322 76 0 153
0.329545 0.326049 -0.266317 127 0 127
0.810945 0.326049 -0.084218 127 0 127
0.626485 0.295590 0.327165 153 0 76
-0.287477 0.356779 -0.013752 127 0 127
0.585913 -0.207870 -0.317999 153 76 0
0.630502 -0.248052 0.327165 153 0 76
-0.639914 -0.381368 0.347737 0 255 0
0.201180 -0.152814 -0.317999 153 76 0
0.784390 0.221817 0.247700 76 0 153
0.798500 -0.322886 -0.369290 0 0 255
0.186051 -0.283424 0.036027 76 0 153
0.265080 0.207012 -0.317999 153 76 0
0.495833 -0.303911 0.325294 76 0 153
-0.388051 0.257357 -0.317999 153 76 0
-0.690638 -0.274960 0.310084 76 0 153
0.784390 0.098693 0.218317 76 0 153
0.469506 -0.177000 0.357895 153 0 76
0.326770 -0.303911 0.347620 76 0 153
0.005686 0.356779 0.163668 127 0 127
-0.437957 0.326049 0.029354 127 0 127
0.815119 -0.222983 0.229515 76 0 153
-0.284264 -0.124047 -0.317999 153 76 0
0.784390 0.256945 -0.236642 76 0 153
0.815119 -0.176983 -0.162666 76 0 153
-0.362854 0.257791 0.015377 127 127 0
0.499044 -0.303911 -0.064383 76 0 153
-0.690638 0.135774 -0.071996 204 51 127
-0.690638 -0.176327 0.033613 204 51 127
-0.570465 0.356779 -0.082930 127 0 127
0.815119 0.090486 0.243407 76 0 153
0.165768 0.326049 0.135713 127 0 127
0.815119 0.283944 0.160016 76 0 153
0.784074 -0.283424 -0.160840 76 0 153
-0.004754 -0.241457 0.327165 153 0 76
0.813129 0.356779 -0.184328 127 0 127
-0.098131 -0.119421 -0.348729 153 76 0
0.320572 0.326049 -0.320346 127 0 127
0.135759 -0.101133 0.327165 153 0 76
-0.115497 -0.283424 -0.276120 76 0 153
-0.661582 0.015392 -0.318159 0 255 0
-0.600022 -0.346407 -0.338560 0 0 255
-0.566694 0.326049 -0.006069 127 0 127
0.424000 0.356779 0.202581 127 0 127
0.272306 0.071887 -0.317999 153 76 0
-0.231651 -0.303911 0.085848 76 0 153
0.815119 0.148045 -0.160268 76 0 153
-0.600725 -0.060948 -0.317999 153 76 0
0.805019 -0.426024 0.275985 204 51 127
-0.710982 -0.362329 0.340367 0 255 0
-0.203265 -0.256557 0.327165 153 0 76
-0.460183 0.039223 -0.287430 0 255 0
-0.384344 0.008373 -0.317999 153 76 0
-0.489957 -0.283424 -0.169589 76 0 153
-0.690638 -0.008795 -0.190638 204 51 127
-0.174787 -0.186523 0.327165 153 0 76
-0.721368 0.109679 -0.070554 204 51 127
-0.365740 -0.160773 -0.348729 153 76 0
-0.565559 0.039238 0.267483 0 255 0
0.621192 0.326049 -0.333916 127 0 127
-0.511142 0.031267 -0.318159 153 76 0
-0.438671 0.039238 -0.154013 0 255 0
-0.557930 0.356779 -0.328383 127 0 127
-0.269674 0.257934 -0.317999 153 76 0
0.758153 -0.383625 -0.338560 0 0 255
0.753844 0.326049 -0.254671 127 0 127
-0.303278 0.169454 0.327165 153 0 76
-0.504137 0.266418 0.357895 153 76 0
0.208991 0.356779 -0.202152 127 0 127
0.815119 -0.293696 0.052175 76 0 153
0.316644 0.205598 0.357895 153 0 76
0.672436 -0.097095 0.327165 153 0 76
-0.690638 0.066792 -0.107166 204 51 127
-0.058618 -0.194415 0.327165 153 0 76
0.759434 -0.148373 0.327165 153 0 76
-0.656507 0.356779 -0.069114 127 0 127
-0.344055 -0.303911 0.271261 76 0 153
0.365793 -0.283424 -0.214514 76 0 153
0.577868 0.356779 -0.346833 127 0 127
-0.690638 0.071907 0.181013 204 51 127
0.056641 0.326049 0.107737 127 0 127
-0.721368 -0.091015 -0.284855 204 51 127
0.334569 0.033022 -0.317999 153 76 0
0.784390 -0.130283 0.276074 76 0 153
0.844026 0.350802 -0.048747 127 0 127
-0.741712 -0.326650 -0.298550 255 0 0
-0.166169 -0.303911 -0.142044 76 0 153
0.805426 0.247999 -0.348729 153 76 0
-0.533479 -0.067188 -0.317999 153 76 0
-0.122581 -0.283882 0.187730 76 0 153
-0.721368 -0.139792 -0.229161 204 51 127
0.361257 -0.283424 0.143953 76 0 153
-0.362854 0.151156 -0.185109 127 127 0
-0.579315 -0.368517 -0.360454 0 0 255
0.805019 -0.356294 0.273865 204 51 127
-0.162828 -0.344557 0.378467 0 255 0
0.815119 0.189055 -0.048007 76 0 153
0.100348 -0.127542 -0.348729 153 76 0
-0.017301 0.261384 0.357895 153 0 76
0.093994 0.326049 -0.219918 127 0 127
-0.721368 0.024547 -0.030232 204 51 127
-0.230893 -0.093441 -0.348729 153 76 0
0.788708 0.056082 -0.348729 153 76 0
-0.623962 0.326049 -0.090758 127 0 127
-0.071996 0.333607 0.352773 127 0 127
-0.271645 0.027270 0.357895 153 0 76
-0.690638 0.049480 -0.227013 0 255 0
0.784390 0.238013 -0.132273 76 0 153
-0.728117 0.356779 0.220602 127 0 127
0.636049 0.356779 0.043213 127 0 127
0.298861 -0.320209 -0.369290 0 0 255
0.075078 0.356779 -0.244386 127 0 127
-0.690638 -0.219258 0.255764 204 51 127
0.784390 -0.200595 0.218875 76 0 153
0.498793 -0.150125 -0.348729 153 76 0
-0.721368 0.021440 0.232213 204 51 127
-0.628674 -0.087614 -0.348729 153 76 0
0.810839 0.182958 -0.342831 76 0 153
0.731482 0.356779 0.295669 127 0 127
0.558928 -0.283424 -0.044545 76 0 153
0.142584 0.356487 0.352968 127 0 127
-0.315610 -0.218994 0.357895 153 0 76
0.704302 -0.148887 -0.317999 153 76 0
-0.394568 -0.324397 -0.334266 76 0 153
-0.265507 0.356779 -0.073861 127 0 127
-0.553418 0.356779 0.237164 127 0 127
-0.622561 -0.283424 0.111346 76 0 153
-0.542973 0.326049 0.261046 127 0 127
0.784390 0.261779 0.208905 76 0 153
0.228822 0.062380 -0.348729 153 76 0
0.673492 -0.043485 -0.317999 153 76 0
0.597942 0.106937 0.327165 153 0 76
0.000815 -0.113099 0.357895 153 0 76
-0.721368 -0.183696 -0.081782 204 51 127
-0.721368 -0.115074 0.060577 204 51 127
-0.272458 0.253806 0.357895 153 0 76
0.026734 -0.303911 -0.102078 76 0 153
0.440122 -0.344198 -0.338560 0 0 255
-0.149690 -0.155079 -0.317999 153 76 0
0.317991 0.153751 0.357895 153 0 76
-0.423282 0.004882 0.357895 153 0 76
0.147025 0.068843 0.357895 153 0 76
-0.721368 0.222625 -0.241092 204 51 127
0.240183 0.266039 -0.317999 153 76 0
0.784390 0.051800 0.219058 76 0 153
0.749663 -0.225582 -0.348729 153 76 0
0.094893 0.326049 -0.184694 127 0 127
0.458328 0.337220 -0.374497 127 0 127
0.381996 -0.047357 0.327165 153 0 76
0.835748 -0.312410 0.333462 204 51 127
-0.362854 0.063881 0.138634 0 255 0
-0.571636 0.011680 -0.348729 153 76 0
-0.492300 0.241003 0.327165 153 0 76
-0.710147 -0.423509 -0.369290 0 0 255
-0.328095 0.356779 -0.295747 127 0 127
0.502236 -0.140175 0.327165 153 0 76
-0.285041 0.326049 0.143608 127 0 127
0.815119 -0.262064 -0.099491 76 0 153
-0.174526 0.026485 -0.348729 153 76 0
-0.690638 0.208447 -0.267276 204 51 127
0.204664 -0.202121 0.357895 153 0 76
0.439452 0.326049 0.274167 127 0 127
-0.690638 0.305041 -0.254503 204 51 127
0.354169 -0.094668 0.357895 153 0 76
-0.274091 0.177353 -0.348729 153 76 0
0.412878 -0.303911 -0.012207 76 0 153
-0.495377 0.326049 0.092812 127 0 127
-0.084865 -0.283424 -0.102057 76 0 153
0.080578 -0.283424 0.203174 76 0 153
0.079143 -0.275886 0.357895 255 0 0
-0.593520 0.326049 -0.354133 153 76 0
-0.498658 0.173841 -0.317999 153 76 0
-0.659479 0.256775 0.327165 153 0 76
0.835748 -0.366219 -0.282712 204 51 127
0.646148 0.081320 -0.317999 153 76 0
-0.353289 -0.303911 -0.177965 76 0 153
0.570683 0.356779 0.337116 127 0 127
-0.710982 -0.451780 -0.276505 255 0 0
-0.121356 0.154550 0.357895 153 0 76
-0.690638 0.243334 -0.279481 204 51 127
0.501881 0.326049 -0.258024 127 0 127
0.794325 -0.324397 -0.279594 76 0 153
0.180066 0.356779 -0.115546 127 0 127
0.244514 -0.283424 -0.005515 76 0 153
-0.486395 0.356779 0.327926 127 0 127
0.229535 -0.009064 -0.348729 153 76 0
-0.455890 0.191271 -0.348729 153 76 0
0.713099 -0.283424 0.237987 76 0 153
0.796928 -0.175556 0.332329 76 0 153
0.325575 -0.283424 0.193581 76 0 153
-0.202809 0.326049 -0.221407 127 0 127
0.540537 -0.324397 0.272613 76 0 153
-0.453700 -0.201816 -0.348729 153 76 0
-0.712056 -0.324397 -0.249129 255 0 0
-0.690638 0.015766 -0.008838 0 255 0
0.604582 0.326049 -0.250664 127 0 127
-0.544039 0.356779 0.011520 127 0 127
0.513513 0.356779 -0.120014 127 0 127
-0.022922 0.356779 -0.093521 127 0 127
0.061044 0.038053 -0.348729 153 76 0
0.729717 0.027144 -0.348729 153 76 0
0.009530 -0.339900 0.347737 0 255 0
-0.662569 0.356779 -0.222198 127 0 127
-0.553241 -0.297253 -0.324189 76 0 153
-0.565806 0.015936 0.327165 153 0 76
0.412605 0.356779 -0.285336 127 0 127
0.070939 -0.303911 0.227380 76 0 153
-0.149630 0.250837 0.357895 153 0 76
-0.433257 0.356779 0.324993 127 0 127
-0.721368 -0.221536 -0.133339 204 51 127
0.487756 -0.020005 -0.317999 153 76 0
-0.721368 -0.261956 -0.131931 204 51 127
0.530874 -0.283424 0.335311 153 0 76
-0.669164 -0.324397 -0.283296 76 0 153
-0.690638 0.233952 0.003397 204 51 127
-0.121254 -0.285307 -0.348729 255 0 0
0.784390 -0.260268 -0.127411 76 0 153
-0.328531 -0.283424 0.299835 76 0 153
-0.136620 0.191128 -0.348729 153 76 0
-0.604705 0.326049 0.068390 127 0 127
0.795416 0.326049 0.082795 76 0 153
0.796160 0.150912 -0.317999 76 0 153
-0.462260 -0.027566 0.327165 153 0 76
-0.710982 -0.447503 0.320849 255 0 0
0.815119 -0.048768 -0.270282 76 0 153
-0.329997 -0.324397 0.314147 76 0 153
0.524172 0.326049 -0.000326 127 0 127
-0.741712 -0.336920 -0.142318 255 0 0
0.265361 -0.303911 -0.316062 76 0 153
0.056321 0.131828 0.327165 153 0 76
0.145652 0.086066 -0.348729 153 76 0
-0.710982 -0.324554 0.212396 255 0 0
0.128564 0.148398 0.357895 153 0 76
-0.105805 0.226668 0.327165 153 0 76
-0.602555 0.039238 -0.245127 0 255 0
-0.353140 -0.283424 -0.123335 76 0 153
-0.621109 0.039238 0.130468 0 255 0
0.562652 0.326049 -0.148547 127 0 127
0.016223 0.321755 0.357895 127 0 127
