-0.133978 0.229066 0.024632 0.600000 0.300000 0.000000
0.208181 0.066793 -0.147278 0.600000 0.300000 0.000000
0.202162 0.002284 -0.183525 0.600000 0.300000 0.000000
-0.051332 -0.029424 0.829569 0.600000 0.000000 0.300000
0.051059 -0.662236 -0.336844 0.600000 0.300000 0.000000
-0.029301 0.426964 0.050515 0.000000 1.000000 0.000000
-0.022635 0.639009 0.072698 0.000000 1.000000 0.000000
-0.011700 0.346981 -0.344635 0.600000 0.300000 0.000000
0.020643 -0.606791 -0.344275 0.600000 0.300000 0.000000
-0.116496 0.153906 0.503150 0.000000 0.500000 0.500000
-0.159120 -0.654005 -0.267084 0.600000 0.300000 0.000000
0.066086 -0.581673 -0.332578 0.600000 0.300000 0.000000
-0.012561 0.055388 0.976807 0.600000 0.000000 0.300000
0.165826 0.556935 -0.227682 0.000000 1.000000 0.000000
0.064925 -0.147995 0.063678 0.600000 0.300000 0.000000
0.113322 0.010087 0.852290 0.300000 0.600000 0.000000
0.147829 -0.632370 0.009223 0.600000 0.300000 0.000000
-0.095531 -0.312141 -0.320368 0.600000 0.300000 0.000000
0.070854 -0.656561 0.062255 0.600000 0.300000 0.000000
-0.022795 0.033744 0.249362 0.000000 0.500000 0.500000
-0.041148 -0.505365 -0.315536 0.600000 0.300000 0.000000
-0.138949 -0.381292 0.019014 0.600000 0.300000 0.000000
0.061835 0.536439 -0.334967 0.000000 1.000000 0.000000
-0.095652 -0.473166 0.021885 0.600000 0.300000 0.000000
-0.207335 -0.652174 -0.136663 0.600000 0.300000 0.000000
-0.187202 0.579624 -0.153312 0.000000 1.000000 0.000000
-0.036015 -0.286688 0.043224 0.600000 0.300000 0.000000
-0.022368 0.016128 0.071692 0.600000 0.300000 0.000000
0.177776 0.673587 -0.208074 0.000000 1.000000 0.000000
0.024704 0.127430 -0.343996 0.600000 0.300000 0.000000
0.005277 -0.372070 -0.338274 0.600000 0.300000 0.000000
0.092581 0.218971 0.425512 0.000000 0.500000 0.500000
-0.129592 0.625167 -0.298922 0.000000 1.000000 0.000000
-0.133512 -0.535815 -0.263386 0.600000 0.300000 0.000000
0.165923 0.439559 -0.175862 0.600000 0.300000 0.000000
0.064164 0.388985 0.019805 0.600000 0.300000 0.000000
-0.025185 0.568216 0.073185 0.000000 1.000000 0.000000
-0.114394 0.161830 0.749540 0.000000 0.500000 0.500000
0.089620 -0.242833 0.026090 0.600000 0.300000 0.000000
0.115624 0.434938 -0.263243 0.600000 0.300000 0.000000
-0.106997 0.191744 0.413786 0.000000 0.500000 0.500000
-0.236222 -0.798764 -0.229280 0.300000 0.000000 0.600000
0.049436 0.524126 0.065995 0.000000 1.000000 0.000000
0.063302 0.047543 0.442863 0.000000 0.500000 0.500000
0.207711 0.057101 -0.111599 0.600000 0.300000 0.000000
-0.156047 -0.492099 -0.230607 0.600000 0.300000 0.000000
0.210127 0.527780 -0.130073 0.000000 1.000000 0.000000
-0.205361 -0.657729 -0.109066 0.600000 0.300000 0.000000
-0.119152 -0.750354 0.006427 0.600000 0.300000 0.000000
-0.058877 0.045148 0.339329 0.000000 0.500000 0.500000
0.077388 -0.639735 0.033706 0.600000 0.300000 0.000000
0.165711 0.416665 -0.043929 0.000000 1.000000 0.000000
0.056292 0.499649 -0.316968 0.000000 1.000000 0.000000
-0.147273 0.622066 -0.251761 0.000000 1.000000 0.000000
0.198641 -0.691722 -0.070944 0.600000 0.300000 0.000000
-0.058174 0.045068 0.526935 0.000000 0.500000 0.500000
-0.182362 0.617386 -0.234998 0.000000 1.000000 0.000000
-0.095127 0.077309 0.394845 0.000000 0.500000 0.500000
-0.046370 0.673587 -0.205695 0.000000 1.000000 0.000000
-0.072209 0.673587 -0.296318 0.000000 1.000000 0.000000
-0.112763 0.473394 -0.033003 0.600000 0.300000 0.000000
0.129902 0.568028 0.001395 0.000000 1.000000 0.000000
0.183106 0.673587 -0.147898 0.000000 1.000000 0.000000
-0.254400 -0.809166 -0.152557 0.300000 0.000000 0.600000
0.004672 -0.087293 0.074018 0.600000 0.300000 0.000000
-0.128582 -0.775537 -0.269476 0.600000 0.300000 0.000000
0.115846 0.124015 0.135892 0.000000 0.500000 0.500000
0.091587 -0.768086 0.103289 0.300000 0.000000 0.600000
-0.203536 -0.126344 -0.090922 0.600000 0.300000 0.000000
0.189494 0.534308 -0.117829 0.000000 1.000000 0.000000
0.140106 -0.301588 -0.012209 0.600000 0.300000 0.000000
0.149767 -0.492683 0.007827 0.600000 0.300000 0.000000
-0.147290 0.666365 -0.282701 0.000000 1.000000 0.000000
-0.207154 0.620912 -0.145137 0.000000 1.000000 0.000000
-0.099837 0.649067 0.027102 0.000000 1.000000 0.000000
-0.071752 0.238274 0.604845 0.000000 0.500000 0.500000
-0.107930 -0.563626 -0.311933 0.600000 0.300000 0.000000
-0.165952 -0.455778 -0.257446 0.600000 0.300000 0.000000
-0.136923 0.673587 -0.102966 0.000000 1.000000 0.000000
-0.065527 0.050029 0.389786 0.000000 0.500000 0.500000
0.110508 0.483187 0.019719 0.000000 1.000000 0.000000
0.199248 0.600582 -0.070747 0.000000 1.000000 0.000000
0.138684 0.586734 -0.291939 0.000000 1.000000 0.000000
-0.120724 -0.517218 0.004149 0.600000 0.300000 0.000000
0.130371 0.627256 -0.273888 0.000000 1.000000 0.000000
0.018398 -0.606058 0.047768 0.600000 0.300000 0.000000
0.018152 -0.045713 -0.344429 0.600000 0.300000 0.000000
0.183032 0.455133 -0.078096 0.000000 1.000000 0.000000
-0.117414 0.317661 -0.305508 0.600000 0.300000 0.000000
-0.004659 0.595169 0.074302 0.000000 1.000000 0.000000
-0.115777 0.147089 0.781239 0.000000 0.500000 0.500000
-0.132668 0.580005 -0.271895 0.000000 1.000000 0.000000
-0.204232 0.563237 -0.165432 0.000000 1.000000 0.000000
0.197720 0.203762 -0.079693 0.600000 0.300000 0.000000
-0.087563 -0.597765 0.053026 0.600000 0.300000 0.000000
-0.184486 -0.620995 -0.131147 0.600000 0.300000 0.000000
0.195604 -0.002856 -0.068553 0.600000 0.300000 0.000000
0.011986 -0.146580 -0.344815 0.600000 0.300000 0.000000
0.151016 -0.178862 -0.280074 0.600000 0.300000 0.000000
-0.070793 0.054593 0.215079 0.000000 0.500000 0.500000
-0.132446 -0.434185 -0.295189 0.600000 0.300000 0.000000
0.109224 -0.680772 0.013746 0.600000 0.300000 0.000000
-0.116787 0.140060 0.544499 0.000000 0.500000 0.500000
0.014875 -0.820833 -0.388990 0.300000 0.000000 0.600000
0.101440 0.281716 0.047747 0.600000 0.300000 0.000000
-0.147638 0.470325 -0.093715 0.600000 0.300000 0.000000
0.104881 0.090858 0.700194 0.000000 0.500000 0.500000
-0.123601 0.407647 0.013516 0.000000 1.000000 0.000000
-0.000298 -0.475476 0.050957 0.600000 0.300000 0.000000
-0.131063 -0.324985 -0.296175 0.600000 0.300000 0.000000
0.104294 0.634954 -0.313981 0.000000 1.000000 0.000000
-0.189583 0.540832 -0.048362 0.000000 1.000000 0.000000
0.025238 -0.678590 0.070445 0.600000 0.300000 0.000000
0.191796 -0.544573 -0.053756 0.600000 0.300000 0.000000
-0.029144 0.035178 0.283915 0.000000 0.500000 0.500000
-0.082226 0.526732 -0.307104 0.000000 1.000000 0.000000
0.169982 -0.594022 -0.060968 0.600000 0.300000 0.000000
-0.153749 -0.773301 -0.235061 0.600000 0.300000 0.000000
-0.187740 -0.189719 -0.225140 0.600000 0.300000 0.000000
-0.207614 -0.001887 -0.143802 0.600000 0.300000 0.000000
0.086448 -0.572458 0.028235 0.600000 0.300000 0.000000
-0.006056 0.673587 0.014874 0.000000 1.000000 0.000000
-0.094129 0.673587 -0.124412 0.000000 1.000000 0.000000
0.188006 -0.216250 -0.226922 0.600000 0.300000 0.000000
0.166511 0.063755 -0.257624 0.600000 0.300000 0.000000
-0.044420 0.561594 -0.205435 0.000000 1.000000 0.000000
0.078804 0.059028 0.607170 0.000000 0.500000 0.500000
0.144151 0.388985 -0.193689 0.600000 0.300000 0.000000
0.044240 0.235717 0.826949 0.000000 0.500000 0.500000
0.206317 0.561922 -0.107446 0.000000 1.000000 0.000000
0.041105 0.673587 -0.178407 0.000000 1.000000 0.000000
0.030519 0.034775 0.437282 0.000000 0.500000 0.500000
0.024409 -0.692502 0.046611 0.600000 0.300000 0.000000
-0.185151 -0.037841 -0.228389 0.600000 0.300000 0.000000
-0.210714 -0.768086 -0.068805 0.300000 0.000000 0.600000
-0.057735 0.098377 0.957323 0.000000 0.500000 0.500000
0.160700 0.480899 -0.269792 0.000000 1.000000 0.000000
0.203916 0.147991 -0.170425 0.600000 0.300000 0.000000
0.014288 -0.737282 -0.344561 0.600000 0.300000 0.000000
0.163006 -0.029846 -0.004448 0.600000 0.300000 0.000000
-0.035432 0.557596 0.245366 0.000000 1.000000 0.000000
0.017006 0.516186 0.254984 0.000000 1.000000 0.000000
-0.151398 0.546063 -0.022523 0.000000 1.000000 0.000000
-0.085671 0.673587 -0.060744 0.000000 1.000000 0.000000
-0.173110 -0.288295 -0.202325 0.600000 0.300000 0.000000
-0.043106 -0.448445 0.041943 0.600000 0.300000 0.000000
-0.191890 -0.366355 -0.056173 0.600000 0.300000 0.000000
0.084181 -0.618171 0.055472 0.600000 0.300000 0.000000
-0.143187 0.531326 -0.009703 0.000000 1.000000 0.000000
0.185884 -0.665103 -0.131391 0.600000 0.300000 0.000000
0.182600 -0.371530 -0.235501 0.600000 0.300000 0.000000
0.134336 -0.071913 -0.294985 0.600000 0.300000 0.000000
0.197671 0.651720 -0.063672 0.000000 1.000000 0.000000
0.163501 -0.348569 -0.221616 0.600000 0.300000 0.000000
-0.195951 0.661258 -0.074022 0.000000 1.000000 0.000000
0.104622 0.198126 0.275673 0.000000 0.500000 0.500000
-0.099026 -0.823537 -0.290230 0.600000 0.300000 0.000000
0.158659 0.673587 -0.110622 0.000000 1.000000 0.000000
-0.010867 -0.000476 0.768389 0.300000 0.600000 0.000000
0.046406 0.555870 0.067201 0.000000 1.000000 0.000000
-0.185874 0.546382 -0.110965 0.000000 1.000000 0.000000
-0.196540 -0.308135 -0.200724 0.600000 0.300000 0.000000
-0.070631 -0.792221 0.036639 0.600000 0.300000 0.000000
0.122750 -0.579956 -0.302738 0.600000 0.300000 0.000000
-0.172477 0.145453 -0.246423 0.600000 0.300000 0.000000
-0.029816 -0.716486 0.045301 0.600000 0.300000 0.000000
-0.102346 0.201564 0.582607 0.000000 0.500000 0.500000
-0.002716 0.587568 0.303884 0.000000 1.000000 0.000000
-0.105349 0.147112 0.858782 0.000000 0.500000 0.500000
0.201897 -0.035496 -0.185816 0.600000 0.300000 0.000000
0.153359 0.544432 -0.278143 0.000000 1.000000 0.000000
0.183791 0.534343 -0.188151 0.000000 1.000000 0.000000
0.090530 -0.458484 -0.295689 0.600000 0.300000 0.000000
0.109012 0.635713 0.042266 0.000000 1.000000 0.000000
0.133616 0.561417 0.024211 0.000000 1.000000 0.000000
-0.206842 -0.558892 -0.126671 0.600000 0.300000 0.000000
0.204907 -0.242475 -0.096363 0.600000 0.300000 0.000000
-0.093304 0.449132 0.030784 0.000000 1.000000 0.000000
0.064378 -0.355381 -0.309507 0.600000 0.300000 0.000000
0.054475 0.530843 -0.205002 0.000000 1.000000 0.000000
-0.157861 -0.244160 -0.038018 0.600000 0.300000 0.000000
0.110716 0.327435 0.042106 0.600000 0.300000 0.000000
0.025687 -0.376669 -0.320388 0.600000 0.300000 0.000000
0.192203 -0.587154 -0.054777 0.600000 0.300000 0.000000
-0.107237 0.090724 0.775734 0.000000 0.500000 0.500000
-0.134319 -0.753982 -0.293792 0.600000 0.300000 0.000000
-0.096654 -0.013575 0.905315 0.600000 0.000000 0.300000
-0.135917 -0.613666 -0.260134 0.600000 0.300000 0.000000
0.077988 0.058602 0.454298 0.000000 0.500000 0.500000
0.011218 -0.001102 0.807500 0.600000 0.000000 0.300000
-0.097614 0.080644 0.226223 0.000000 0.500000 0.500000
0.193438 0.407647 -0.068506 0.000000 1.000000 0.000000
0.061458 -0.245957 0.065052 0.600000 0.300000 0.000000
-0.139934 0.673587 -0.265098 0.000000 1.000000 0.000000
0.092804 -0.464964 0.024557 0.600000 0.300000 0.000000
0.110707 -0.525625 -0.284761 0.600000 0.300000 0.000000
-0.077554 -0.021447 0.871577 0.600000 0.000000 0.300000
-0.187452 -0.767776 -0.227641 0.600000 0.300000 0.000000
-0.040184 -0.806084 -0.315753 0.600000 0.300000 0.000000
-0.173319 -0.209867 -0.246527 0.600000 0.300000 0.000000
0.093824 -0.152133 -0.322438 0.600000 0.300000 0.000000
-0.196635 -0.017982 -0.066925 0.600000 0.300000 0.000000
-0.083139 0.054151 0.056390 0.600000 0.300000 0.000000
-0.018909 -0.024194 0.907604 0.600000 0.000000 0.300000
0.070893 0.348655 -0.331310 0.600000 0.300000 0.000000
0.159552 -0.452133 -0.228782 0.600000 0.300000 0.000000
-0.020074 0.008149 0.946949 0.600000 0.000000 0.300000
0.098136 -0.003915 0.872243 0.600000 0.000000 0.300000
-0.038021 -0.663194 0.068100 0.600000 0.300000 0.000000
-0.082913 -0.660640 0.055262 0.600000 0.300000 0.000000
0.047890 0.038135 0.705742 0.000000 0.500000 0.500000
0.004115 0.619688 0.033444 0.000000 1.000000 0.000000
-0.193352 -0.681912 -0.209969 0.600000 0.300000 0.000000
-0.247163 -0.768086 -0.095379 0.300000 0.000000 0.600000
-0.106510 0.474096 0.021152 0.000000 1.000000 0.000000
0.168638 -0.492732 -0.213569 0.600000 0.300000 0.000000
-0.107363 0.300509 0.043476 0.600000 0.300000 0.000000
-0.171626 -0.706097 -0.203746 0.600000 0.300000 0.000000
-0.053559 -0.700818 -0.311739 0.600000 0.300000 0.000000
-0.048978 -0.263397 -0.337077 0.600000 0.300000 0.000000
0.188988 0.287826 -0.223556 0.600000 0.300000 0.000000
-0.079276 -0.408372 -0.303875 0.600000 0.300000 0.000000
-0.089196 0.142306 0.902260 0.000000 0.500000 0.500000
0.161368 -0.732956 -0.265951 0.600000 0.300000 0.000000
0.115473 0.673587 -0.189269 0.000000 1.000000 0.000000
-0.113686 0.115492 0.661963 0.000000 0.500000 0.500000
0.044733 0.568394 0.050152 0.000000 1.000000 0.000000
0.037391 0.545636 0.232507 0.000000 1.000000 0.000000
0.060189 0.246510 0.533609 0.000000 0.500000 0.500000
-0.018684 0.032064 0.693312 0.000000 0.500000 0.500000
-0.199874 -0.362651 -0.076211 0.600000 0.300000 0.000000
0.127009 0.499460 0.004152 0.000000 1.000000 0.000000
-0.208871 0.446325 -0.138504 0.000000 1.000000 0.000000
-0.135851 0.166792 -0.293072 0.600000 0.300000 0.000000
-0.077024 0.545484 0.037696 0.000000 1.000000 0.000000
0.190494 0.475910 -0.149466 0.000000 1.000000 0.000000
0.089247 0.499922 -0.325704 0.000000 1.000000 0.000000
0.084048 -0.283175 0.030283 0.600000 0.300000 0.000000
0.066633 -0.006867 0.812803 0.600000 0.000000 0.300000
0.185578 -0.803218 -0.131671 0.600000 0.300000 0.000000
-0.076811 -0.595478 0.033308 0.600000 0.300000 0.000000
0.083756 0.228783 0.210703 0.000000 0.500000 0.500000
-0.154027 -0.085746 0.003742 0.600000 0.300000 0.000000
-0.039768 -0.768086 -0.374290 0.300000 0.000000 0.600000
0.017371 0.032042 0.238438 0.000000 0.500000 0.500000
-0.184944 0.641903 -0.160996 0.000000 1.000000 0.000000
0.095490 0.076292 0.597655 0.000000 0.500000 0.500000
0.160164 0.598428 -0.000956 0.000000 1.000000 0.000000
-0.141562 -0.357074 -0.016060 0.600000 0.300000 0.000000
0.194677 0.557719 -0.215162 0.000000 1.000000 0.000000
-0.044274 0.051655 0.938406 0.600000 0.000000 0.300000
-0.200259 0.120645 -0.184061 0.600000 0.300000 0.000000
-0.066196 0.051004 0.132285 0.000000 0.500000 0.500000
0.078660 0.058818 0.560340 0.000000 0.500000 0.500000
-0.084747 0.173017 0.876058 0.000000 0.500000 0.500000
0.038925 0.257839 0.621059 0.000000 0.500000 0.500000
0.190370 0.512416 -0.150729 0.000000 1.000000 0.000000
-0.197815 0.608485 -0.192577 0.000000 1.000000 0.000000
0.232011 -0.813600 -0.236947 0.300000 0.000000 0.600000
-0.208314 -0.242855 -0.137041 0.600000 0.300000 0.000000
-0.184607 -0.517870 -0.127365 0.600000 0.300000 0.000000
-0.054961 -0.005285 0.939740 0.600000 0.000000 0.300000
0.026168 0.519345 0.033444 0.000000 1.000000 0.000000
-0.010378 -0.823173 0.049042 0.600000 0.300000 0.000000
-0.136924 -0.724003 -0.292018 0.600000 0.300000 0.000000
-0.079350 0.230541 0.103836 0.000000 0.500000 0.500000
-0.197071 0.555584 -0.077132 0.000000 1.000000 0.000000
-0.203409 0.010844 -0.167966 0.600000 0.300000 0.000000
-0.033445 0.258260 0.439894 0.000000 0.500000 0.500000
0.107431 0.048651 0.923693 0.000000 0.500000 0.500000
0.015769 0.578657 0.151652 0.000000 1.000000 0.000000
0.049163 -0.463649 -0.315349 0.600000 0.300000 0.000000
0.019499 -0.626559 -0.325300 0.600000 0.300000 0.000000
0.003721 0.509574 0.149774 0.000000 1.000000 0.000000
-0.097607 -0.710741 -0.318951 0.600000 0.300000 0.000000
-0.141158 -0.266106 -0.251294 0.600000 0.300000 0.000000
0.076001 -0.470037 -0.329779 0.600000 0.300000 0.000000
0.125649 -0.348296 0.033266 0.600000 0.300000 0.000000
0.105895 0.093305 0.334618 0.000000 0.500000 0.500000
0.163423 -0.662920 -0.008449 0.600000 0.300000 0.000000
-0.091334 0.220139 0.187124 0.000000 0.500000 0.500000
0.160202 -0.381410 -0.267378 0.600000 0.300000 0.000000
0.106763 -0.803995 -0.368358 0.300000 0.000000 0.600000
-0.116080 0.126062 0.785636 0.000000 0.500000 0.500000
-0.053285 0.578739 -0.315789 0.000000 1.000000 0.000000
-0.085411 0.010178 0.832919 0.600000 0.000000 0.300000
0.119515 0.452351 0.034846 0.000000 1.000000 0.000000
0.073199 0.055879 0.100697 0.000000 0.500000 0.500000
0.201339 -0.768086 0.016235 0.300000 0.000000 0.600000
-0.031507 0.586201 -0.341557 0.000000 1.000000 0.000000
0.191809 0.570068 -0.132777 0.000000 1.000000 0.000000
-0.171211 -0.690957 -0.018920 0.600000 0.300000 0.000000
-0.073447 0.236284 0.379119 0.000000 0.500000 0.500000
-0.062381 -0.574055 -0.309175 0.600000 0.300000 0.000000
-0.094418 0.212984 0.633516 0.000000 0.500000 0.500000
-0.008500 0.040402 0.904397 0.600000 0.000000 0.300000
0.081139 -0.000263 0.974780 0.300000 0.600000 0.000000
0.181718 -0.384580 -0.029385 0.600000 0.300000 0.000000
0.208195 0.656726 -0.149173 0.000000 1.000000 0.000000
-0.042865 -0.557638 0.067514 0.600000 0.300000 0.000000
-0.077792 -0.009523 -0.328932 0.600000 0.300000 0.000000
0.070686 0.577404 -0.139735 0.000000 1.000000 0.000000
-0.123355 0.652501 0.007152 0.000000 1.000000 0.000000
0.208938 0.240671 -0.119233 0.600000 0.300000 0.000000
0.150845 -0.598765 -0.280548 0.600000 0.300000 0.000000
0.163785 -0.496093 -0.262446 0.600000 0.300000 0.000000
-0.175861 -0.277519 -0.023385 0.600000 0.300000 0.000000
0.001850 0.585093 0.218938 0.000000 1.000000 0.000000
-0.017153 -0.653616 0.071550 0.600000 0.300000 0.000000
-0.019811 -0.339756 0.071582 0.600000 0.300000 0.000000
-0.024313 0.576813 0.263384 0.000000 1.000000 0.000000
-0.113699 0.632586 -0.310652 0.000000 1.000000 0.000000
-0.175808 0.414837 -0.106737 0.600000 0.300000 0.000000
-0.158818 0.094856 -0.266801 0.600000 0.300000 0.000000
0.119046 0.022997 0.886108 0.300000 0.600000 0.000000
0.078691 -0.041587 0.877599 0.600000 0.000000 0.300000
-0.080624 0.063124 0.165832 0.000000 0.500000 0.500000
-0.183080 -0.515035 -0.153487 0.600000 0.300000 0.000000
0.204061 0.259151 -0.102680 0.600000 0.300000 0.000000
-0.138148 -0.477871 -0.291268 0.600000 0.300000 0.000000
-0.124975 -0.325098 -0.272623 0.600000 0.300000 0.000000
-0.169001 0.573777 -0.254856 0.000000 1.000000 0.000000
0.185528 -0.020970 -0.038013 0.600000 0.300000 0.000000
-0.204050 -0.197537 -0.168409 0.600000 0.300000 0.000000
0.088312 0.538910 0.053213 0.000000 1.000000 0.000000
0.155491 0.527949 -0.245188 0.000000 1.000000 0.000000
0.189654 0.605144 -0.048264 0.000000 1.000000 0.000000
0.232919 -0.821075 -0.030820 0.300000 0.000000 0.600000
-0.114383 0.136118 0.040454 0.000000 0.500000 0.500000
0.160223 -0.663220 -0.039310 0.600000 0.300000 0.000000
0.117574 0.421391 0.013002 0.000000 1.000000 0.000000
-0.206132 0.443215 -0.118828 0.000000 1.000000 0.000000
-0.188633 -0.400062 -0.224619 0.600000 0.300000 0.000000
0.019472 -0.401715 0.071644 0.600000 0.300000 0.000000
-0.047933 -0.765118 -0.337334 0.600000 0.300000 0.000000
0.183796 -0.639739 -0.033663 0.600000 0.300000 0.000000
0.129568 0.673587 -0.040762 0.000000 1.000000 0.000000
0.126855 -0.754919 -0.299865 0.600000 0.300000 0.000000
-0.114091 0.117866 0.629902 0.000000 0.500000 0.500000
0.185187 -0.279367 -0.037157 0.600000 0.300000 0.000000
-0.098004 0.197737 0.779766 0.000000 0.500000 0.500000
0.202677 0.584854 -0.185860 0.000000 1.000000 0.000000
0.110682 -0.621272 -0.310989 0.600000 0.300000 0.000000
0.059006 0.247005 0.102825 0.000000 0.500000 0.500000
0.206425 -0.362297 -0.166058 0.600000 0.300000 0.000000
0.161074 0.112723 -0.265473 0.600000 0.300000 0.000000
0.088647 0.673587 -0.299893 0.000000 1.000000 0.000000
-0.181560 0.372764 -0.232138 0.600000 0.300000 0.000000
-0.204049 0.652058 -0.111424 0.000000 1.000000 0.000000
0.163462 -0.593917 -0.262952 0.600000 0.300000 0.000000
0.185922 -0.282357 -0.230253 0.600000 0.300000 0.000000
0.199782 -0.086786 -0.081479 0.600000 0.300000 0.000000
0.038087 0.257717 0.481771 0.000000 0.500000 0.500000
-0.189912 0.607535 -0.138046 0.000000 1.000000 0.000000
0.146387 0.673587 -0.170029 0.000000 1.000000 0.000000
-0.087878 -0.490540 -0.325557 0.600000 0.300000 0.000000
-0.165698 0.499639 -0.261207 0.000000 1.000000 0.000000
-0.249213 -0.786812 -0.191469 0.300000 0.000000 0.600000
-0.160710 -0.583655 -0.041856 0.600000 0.300000 0.000000
-0.109302 0.186595 0.752496 0.000000 0.500000 0.500000
0.156623 -0.350015 -0.272351 0.600000 0.300000 0.000000
-0.043747 0.170319 0.921858 0.000000 0.500000 0.500000
-0.114301 0.576596 0.038931 0.000000 1.000000 0.000000
0.208051 0.477619 -0.161839 0.000000 1.000000 0.000000
0.083789 0.064648 0.162443 0.000000 0.500000 0.500000
0.187646 0.206076 -0.044839 0.600000 0.300000 0.000000
0.138098 -0.153953 0.022211 0.600000 0.300000 0.000000
-0.088918 -0.622558 0.025687 0.600000 0.300000 0.000000
-0.091947 0.050819 0.945834 0.000000 0.500000 0.500000
0.102529 0.085915 0.195969 0.000000 0.500000 0.500000
-0.076062 0.055802 0.747797 0.000000 0.500000 0.500000
-0.112068 -0.262140 -0.281471 0.600000 0.300000 0.000000
0.140912 0.168172 -0.290567 0.600000 0.300000 0.000000
-0.140173 0.433767 -0.248563 0.600000 0.300000 0.000000
0.064124 0.145452 0.932362 0.000000 0.500000 0.500000
0.090661 0.466492 0.000490 0.600000 0.300000 0.000000
-0.153753 -0.406059 -0.233496 0.600000 0.300000 0.000000
-0.028690 0.528872 0.303138 0.000000 1.000000 0.000000
0.051864 -0.006148 0.943816 0.600000 0.000000 0.300000
-0.160931 -0.762254 -0.042163 0.600000 0.300000 0.000000
0.134283 -0.185392 -0.294980 0.600000 0.300000 0.000000
0.059211 -0.768086 0.085782 0.300000 0.000000 0.600000
0.184033 -0.623165 -0.108848 0.600000 0.300000 0.000000
0.010964 0.344367 -0.344767 0.600000 0.300000 0.000000
-0.145781 -0.722789 -0.022925 0.600000 0.300000 0.000000
0.192504 -0.658468 -0.055532 0.600000 0.300000 0.000000
0.090264 0.222117 0.473696 0.000000 0.500000 0.500000
0.096203 0.673587 -0.201642 0.000000 1.000000 0.000000
0.101189 -0.638541 -0.291567 0.600000 0.300000 0.000000
-0.133613 -0.721236 -0.263665 0.600000 0.300000 0.000000
0.087503 0.193937 -0.326600 0.600000 0.300000 0.000000
-0.060290 -0.558063 -0.333828 0.600000 0.300000 0.000000
0.162420 -0.726021 -0.042377 0.600000 0.300000 0.000000
-0.182249 -0.646988 -0.162814 0.600000 0.300000 0.000000
-0.037639 0.645339 -0.205435 0.000000 1.000000 0.000000
0.086987 0.148753 -0.326741 0.600000 0.300000 0.000000
0.173173 0.058419 -0.017875 0.600000 0.300000 0.000000
0.028947 0.259729 0.590179 0.000000 0.500000 0.500000
0.132400 0.561071 -0.296845 0.000000 1.000000 0.000000
-0.130296 0.449354 0.025811 0.000000 1.000000 0.000000
-0.048551 -0.023579 0.877827 0.600000 0.000000 0.300000
0.178319 0.627140 -0.030430 0.000000 1.000000 0.000000
-0.044594 0.623311 -0.205435 0.000000 1.000000 0.000000
-0.095553 0.030527 0.857595 0.600000 0.000000 0.300000
-0.102448 0.424896 -0.286978 0.600000 0.300000 0.000000
-0.085292 0.320642 0.054825 0.600000 0.300000 0.000000
-0.182585 0.407647 -0.071359 0.000000 1.000000 0.000000
0.088372 -0.008418 0.055098 0.600000 0.300000 0.000000
0.000634 -0.313400 0.051159 0.600000 0.300000 0.000000
-0.104964 0.094446 0.591504 0.000000 0.500000 0.500000
-0.074955 0.024033 0.788397 0.000000 0.500000 0.500000
0.209308 0.120062 -0.119419 0.600000 0.300000 0.000000
-0.103543 0.439894 -0.000933 0.600000 0.300000 0.000000
-0.198253 0.070685 -0.196709 0.600000 0.300000 0.000000
-0.005287 0.029365 0.285679 0.000000 0.500000 0.500000
0.191549 0.495272 -0.138774 0.000000 1.000000 0.000000
-0.037206 -0.178731 0.069527 0.600000 0.300000 0.000000
-0.048235 0.023568 0.795716 0.600000 0.000000 0.300000
-0.035992 0.554330 0.578949 0.000000 1.000000 0.000000
0.152735 0.499216 -0.020319 0.000000 1.000000 0.000000
0.092171 0.219852 0.378168 0.000000 0.500000 0.500000
-0.117277 0.414408 -0.277754 0.600000 0.300000 0.000000
0.030751 0.630882 0.033444 0.000000 1.000000 0.000000
0.050907 -0.496001 -0.336898 0.600000 0.300000 0.000000
-0.078221 0.673587 -0.021211 0.000000 1.000000 0.000000
0.023938 0.033687 0.147117 0.000000 0.500000 0.500000
-0.208166 -0.313992 -0.137288 0.600000 0.300000 0.000000
-0.027870 0.429665 -0.315781 0.600000 0.300000 0.000000
0.192792 0.342508 -0.065180 0.600000 0.300000 0.000000
0.193408 0.447191 -0.056725 0.000000 1.000000 0.000000
0.167353 -0.400423 -0.257418 0.600000 0.300000 0.000000
-0.167305 0.648784 -0.255240 0.000000 1.000000 0.000000
0.164462 0.464125 -0.041376 0.000000 1.000000 0.000000
0.080340 -0.012912 0.904360 0.600000 0.000000 0.300000
-0.191314 0.322697 -0.217913 0.600000 0.300000 0.000000
-0.078540 -0.616886 -0.328640 0.600000 0.300000 0.000000
0.079409 0.673587 -0.328032 0.000000 1.000000 0.000000
0.058921 -0.000281 0.915389 0.600000 0.000000 0.300000
0.148015 0.388985 -0.054956 0.600000 0.300000 0.000000
-0.184950 0.410655 -0.145962 0.600000 0.300000 0.000000
-0.199851 0.450454 -0.087822 0.000000 1.000000 0.000000
-0.007306 0.459893 0.053782 0.000000 1.000000 0.000000
0.145914 0.205384 0.015245 0.600000 0.300000 0.000000
0.206928 -0.563818 -0.108305 0.600000 0.300000 0.000000
0.009420 0.029162 -0.344903 0.600000 0.300000 0.000000
-0.031853 0.275632 -0.341925 0.600000 0.300000 0.000000
-0.145880 0.041498 -0.285155 0.600000 0.300000 0.000000
0.030624 0.020457 0.958996 0.600000 0.000000 0.300000
-0.171133 -0.411346 -0.017272 0.600000 0.300000 0.000000
0.026017 0.393589 0.055819 0.600000 0.300000 0.000000
-0.002215 0.182972 0.924250 0.000000 0.500000 0.500000
0.049780 -0.002564 0.974378 0.600000 0.000000 0.300000
-0.012002 0.438546 0.037682 0.600000 0.300000 0.000000
-0.189450 0.522672 -0.143684 0.000000 1.000000 0.000000
0.112074 0.168953 0.804294 0.000000 0.500000 0.500000
-0.065778 -0.524573 -0.332275 0.600000 0.300000 0.000000
0.128364 0.470946 -0.036812 0.600000 0.300000 0.000000
-0.081294 0.167049 -0.327961 0.600000 0.300000 0.000000
0.070686 0.548330 -0.115704 0.000000 1.000000 0.000000
-0.051311 -0.790352 0.041164 0.600000 0.300000 0.000000
0.051978 -0.162467 -0.336637 0.600000 0.300000 0.000000
0.165557 -0.742218 -0.011286 0.600000 0.300000 0.000000
0.103390 0.087262 0.137628 0.000000 0.500000 0.500000
-0.136174 -0.124014 0.022676 0.600000 0.300000 0.000000
0.097359 0.211009 0.581210 0.000000 0.500000 0.500000
0.131102 -0.619644 0.028065 0.600000 0.300000 0.000000
0.175180 0.115251 -0.020577 0.600000 0.300000 0.000000
-0.009514 0.526282 0.623200 0.000000 1.000000 0.000000
-0.036213 0.036725 0.325649 0.000000 0.500000 0.500000
0.113930 0.112688 0.267286 0.000000 0.500000 0.500000
-0.205438 0.309949 -0.105047 0.600000 0.300000 0.000000
0.022785 0.033127 0.374792 0.000000 0.500000 0.500000
-0.126106 0.381171 0.031649 0.600000 0.300000 0.000000
-0.042066 0.523113 0.033444 0.000000 1.000000 0.000000
-0.174247 0.612502 -0.060969 0.000000 1.000000 0.000000
0.100932 0.052799 -0.317611 0.600000 0.300000 0.000000
-0.033806 0.572843 0.554245 0.000000 1.000000 0.000000
0.118363 0.151109 0.508010 0.000000 0.500000 0.500000
0.070686 0.482819 -0.143204 0.000000 1.000000 0.000000
-0.000325 0.509409 0.045704 0.000000 1.000000 0.000000
-0.161398 -0.022438 -0.263434 0.600000 0.300000 0.000000
-0.193901 0.466329 -0.059271 0.000000 1.000000 0.000000
0.089042 0.359088 0.052941 0.600000 0.300000 0.000000
-0.104331 0.535291 -0.294730 0.000000 1.000000 0.000000
0.032659 0.034786 0.641685 0.000000 0.500000 0.500000
-0.043388 0.050013 0.902093 0.600000 0.000000 0.300000
-0.039566 -0.009452 0.980414 0.600000 0.000000 0.300000
-0.097272 0.208982 0.124019 0.000000 0.500000 0.500000
-0.175554 -0.450803 -0.191544 0.600000 0.300000 0.000000
0.066789 -0.633909 -0.308391 0.600000 0.300000 0.000000
-0.064310 0.278276 -0.332771 0.600000 0.300000 0.000000
-0.064223 -0.006859 0.884670 0.600000 0.000000 0.300000
0.039010 0.257874 0.645774 0.000000 0.500000 0.500000
-0.195441 -0.208657 -0.205350 0.600000 0.300000 0.000000
0.129122 -0.706666 -0.298329 0.600000 0.300000 0.000000
0.185919 0.642116 -0.094742 0.000000 1.000000 0.000000
0.205672 0.341768 -0.156349 0.600000 0.300000 0.000000
-0.113999 0.117264 0.557225 0.000000 0.500000 0.500000
-0.198925 0.139660 -0.191427 0.600000 0.300000 0.000000
-0.150156 0.621901 0.008462 0.000000 1.000000 0.000000
0.164563 0.465157 -0.118892 0.600000 0.300000 0.000000
0.118058 0.134807 0.641105 0.000000 0.500000 0.500000
-0.159949 0.548528 -0.003991 0.000000 1.000000 0.000000
0.018151 0.589569 0.477850 0.000000 1.000000 0.000000
-0.173270 -0.765269 -0.247415 0.600000 0.300000 0.000000
-0.150101 -0.356090 0.006640 0.600000 0.300000 0.000000
-0.065576 0.266695 0.062839 0.600000 0.300000 0.000000
0.171177 0.450252 -0.107832 0.600000 0.300000 0.000000
-0.096745 0.569308 0.049261 0.000000 1.000000 0.000000
-0.173200 0.217844 -0.245081 0.600000 0.300000 0.000000
-0.111050 0.180608 0.169943 0.000000 0.500000 0.500000
-0.093889 0.603793 -0.321932 0.000000 1.000000 0.000000
0.073886 0.388985 0.037112 0.600000 0.300000 0.000000
0.088131 0.402538 -0.299879 0.600000 0.300000 0.000000
0.008123 -0.789299 0.049746 0.600000 0.300000 0.000000
0.033996 0.547510 0.622677 0.000000 1.000000 0.000000
-0.071811 -0.656355 0.036264 0.600000 0.300000 0.000000
-0.023356 -0.644378 0.046544 0.600000 0.300000 0.000000
0.117121 0.295846 -0.306655 0.600000 0.300000 0.000000
-0.146872 -0.744538 -0.024379 0.600000 0.300000 0.000000
-0.043778 0.604360 0.069579 0.000000 1.000000 0.000000
0.098180 0.197107 0.790651 0.000000 0.500000 0.500000
0.115512 -0.630728 0.009451 0.600000 0.300000 0.000000
-0.114803 0.122738 0.223084 0.000000 0.500000 0.500000
0.098999 -0.472295 0.048171 0.600000 0.300000 0.000000
-0.200257 -0.719728 -0.184595 0.600000 0.300000 0.000000
-0.006951 -0.060621 0.797741 0.600000 0.000000 0.300000
0.201118 0.461250 -0.194247 0.000000 1.000000 0.000000
0.137095 0.637889 -0.291712 0.000000 1.000000 0.000000
0.154460 0.658888 -0.278007 0.000000 1.000000 0.000000
0.039860 0.544578 -0.205435 0.000000 1.000000 0.000000
-0.202540 0.464355 -0.184766 0.000000 1.000000 0.000000
0.187266 -0.438031 -0.228858 0.600000 0.300000 0.000000
-0.076283 0.647436 0.057110 0.000000 1.000000 0.000000
0.187866 -0.698653 -0.043886 0.600000 0.300000 0.000000
-0.001216 -0.212508 -0.345306 0.600000 0.300000 0.000000
0.169531 -0.284263 -0.211880 0.600000 0.300000 0.000000
-0.109411 0.184897 0.248558 0.000000 0.500000 0.500000
0.018852 0.592494 0.576053 0.000000 1.000000 0.000000
-0.175007 0.606042 -0.209592 0.000000 1.000000 0.000000
0.009719 -0.793464 -0.321449 0.600000 0.300000 0.000000
0.136213 0.407647 0.023219 0.000000 1.000000 0.000000
0.103596 0.087759 0.422486 0.000000 0.500000 0.500000
0.062773 0.037784 0.765799 0.000000 0.500000 0.500000
-0.077893 -0.194841 0.058606 0.600000 0.300000 0.000000
0.032494 0.178294 -0.342140 0.600000 0.300000 0.000000
0.082568 -0.086917 -0.327964 0.600000 0.300000 0.000000
-0.047827 0.407647 0.061774 0.000000 1.000000 0.000000
-0.143680 -0.400705 0.013596 0.600000 0.300000 0.000000
0.107939 -0.030579 -0.312900 0.600000 0.300000 0.000000
0.192239 0.046359 -0.057804 0.600000 0.300000 0.000000
0.065482 -0.311274 -0.308525 0.600000 0.300000 0.000000
0.127734 0.659743 0.028111 0.000000 1.000000 0.000000
-0.178488 -0.027216 -0.026924 0.600000 0.300000 0.000000
0.122017 -0.322393 -0.275886 0.600000 0.300000 0.000000
-0.106622 0.190268 0.205013 0.000000 0.500000 0.500000
-0.067479 0.039966 0.769358 0.000000 0.500000 0.500000
-0.122948 0.388985 -0.020213 0.600000 0.300000 0.000000
0.206345 0.430814 -0.107615 0.000000 1.000000 0.000000
-0.164764 -0.715038 -0.051148 0.600000 0.300000 0.000000
0.198811 0.520542 -0.202364 0.000000 1.000000 0.000000
0.202912 0.282397 -0.173565 0.600000 0.300000 0.000000
0.200210 0.102920 -0.086458 0.600000 0.300000 0.000000
0.132745 -0.225919 -0.296020 0.600000 0.300000 0.000000
0.070686 0.650317 -0.153265 0.000000 1.000000 0.000000
0.156881 -0.458150 -0.034808 0.600000 0.300000 0.000000
-0.059362 -0.740799 -0.334082 0.600000 0.300000 0.000000
-0.068651 0.388985 -0.000149 0.600000 0.300000 0.000000
-0.045434 0.673587 -0.173276 0.000000 1.000000 0.000000
-0.063887 -0.160501 -0.332859 0.600000 0.300000 0.000000
0.069501 0.610734 -0.313387 0.000000 1.000000 0.000000
-0.117799 -0.473464 -0.305206 0.600000 0.300000 0.000000
0.155512 -0.474538 -0.273971 0.600000 0.300000 0.000000
-0.087078 -0.499342 0.053600 0.600000 0.300000 0.000000
-0.027176 -0.532893 0.045464 0.600000 0.300000 0.000000
-0.035016 0.159566 -0.341033 0.600000 0.300000 0.000000
-0.053718 -0.614516 0.040263 0.600000 0.300000 0.000000
0.050381 -0.460421 0.066917 0.600000 0.300000 0.000000
-0.032217 0.544681 0.611056 0.000000 1.000000 0.000000
-0.129973 -0.510843 -0.296855 0.600000 0.300000 0.000000
-0.084888 0.226156 0.062837 0.000000 0.500000 0.500000
0.116654 0.130775 0.746323 0.000000 0.500000 0.500000
0.164047 -0.549928 -0.046377 0.600000 0.300000 0.000000
0.181186 0.480703 -0.074463 0.000000 1.000000 0.000000
-0.031702 -0.447226 -0.318337 0.600000 0.300000 0.000000
-0.094634 0.213130 0.553323 0.000000 0.500000 0.500000
-0.165480 -0.708958 -0.258246 0.600000 0.300000 0.000000
0.165465 0.632877 -0.010077 0.000000 1.000000 0.000000
-0.132802 0.388985 -0.198695 0.600000 0.300000 0.000000
0.152306 -0.393390 0.005531 0.600000 0.300000 0.000000
-0.100441 0.085095 0.726287 0.000000 0.500000 0.500000
0.141210 -0.341015 -0.290181 0.600000 0.300000 0.000000
0.183714 0.626974 -0.181803 0.000000 1.000000 0.000000
-0.072807 -0.708449 0.060410 0.600000 0.300000 0.000000
-0.042119 0.043681 0.850531 0.600000 0.000000 0.300000
-0.105484 -0.510711 0.015039 0.600000 0.300000 0.000000
0.004238 0.264246 0.684353 0.000000 0.500000 0.500000
0.042988 0.449562 0.031438 0.600000 0.300000 0.000000
0.174967 -0.433913 -0.200976 0.600000 0.300000 0.000000
0.099365 0.182140 0.834302 0.000000 0.500000 0.500000
0.153931 0.672084 0.007511 0.000000 1.000000 0.000000
0.206491 -0.665268 -0.167357 0.600000 0.300000 0.000000
-0.122256 -0.175951 -0.302260 0.600000 0.300000 0.000000
-0.055150 0.043092 0.611469 0.000000 0.500000 0.500000
-0.112568 -0.706232 0.010719 0.600000 0.300000 0.000000
-0.052720 0.041521 0.687339 0.000000 0.500000 0.500000
0.076164 -0.694754 -0.304048 0.600000 0.300000 0.000000
-0.043857 0.673587 -0.243547 0.000000 1.000000 0.000000
-0.003240 0.028720 0.585831 0.000000 0.500000 0.500000
0.121674 -0.511066 0.004443 0.600000 0.300000 0.000000
-0.042185 0.044877 0.990402 0.000000 0.500000 0.500000
-0.037343 0.037383 0.156089 0.000000 0.500000 0.500000
0.116611 0.673587 0.012971 0.000000 1.000000 0.000000
-0.044049 -0.535471 -0.314656 0.600000 0.300000 0.000000
-0.106147 0.097301 0.459182 0.000000 0.500000 0.500000
-0.069003 -0.017228 0.930647 0.600000 0.000000 0.300000
0.197566 -0.312868 -0.069633 0.600000 0.300000 0.000000
-0.146710 -0.512874 -0.244508 0.600000 0.300000 0.000000
-0.146072 -0.768086 -0.287305 0.300000 0.000000 0.600000
-0.175104 -0.603999 -0.191712 0.600000 0.300000 0.000000
-0.089134 -0.001734 0.810666 0.300000 0.600000 0.000000
0.205842 -0.484887 -0.170856 0.600000 0.300000 0.000000
-0.112868 0.407647 0.029803 0.000000 1.000000 0.000000
-0.116956 0.229143 0.038370 0.600000 0.300000 0.000000
-0.001252 -0.754090 -0.321939 0.600000 0.300000 0.000000
-0.045480 0.483457 -0.205435 0.000000 1.000000 0.000000
-0.183003 -0.010019 -0.231458 0.600000 0.300000 0.000000
0.049684 0.431825 0.065752 0.000000 1.000000 0.000000
-0.167716 -0.349285 -0.013091 0.600000 0.300000 0.000000
-0.154370 -0.711565 -0.234034 0.600000 0.300000 0.000000
-0.172183 0.535884 -0.251145 0.000000 1.000000 0.000000
-0.159061 -0.385631 -0.003581 0.600000 0.300000 0.000000
0.019631 0.031965 0.693670 0.000000 0.500000 0.500000
0.080955 -0.372797 0.057961 0.600000 0.300000 0.000000
-0.206183 0.209807 -0.147875 0.600000 0.300000 0.000000
0.037056 -0.646456 -0.340827 0.600000 0.300000 0.000000
-0.204604 -0.612833 -0.169447 0.600000 0.300000 0.000000
-0.046372 -0.665386 -0.313898 0.600000 0.300000 0.000000
-0.150358 0.619864 -0.020301 0.000000 1.000000 0.000000
0.050565 0.224672 0.851622 0.000000 0.500000 0.500000
-0.172066 -0.223408 -0.018273 0.600000 0.300000 0.000000
0.251445 -0.787602 -0.091293 0.300000 0.000000 0.600000
-0.181437 0.585065 -0.181579 0.000000 1.000000 0.000000
-0.078766 0.313900 -0.328694 0.600000 0.300000 0.000000
-0.016473 0.584894 0.336328 0.000000 1.000000 0.000000
-0.183631 -0.436443 -0.147607 0.600000 0.300000 0.000000
0.052181 0.673587 -0.025032 0.000000 1.000000 0.000000
-0.051980 0.631464 -0.333950 0.000000 1.000000 0.000000
-0.202970 0.295934 -0.164812 0.600000 0.300000 0.000000
0.021215 0.409465 0.072896 0.000000 1.000000 0.000000
-0.040817 0.037127 0.583360 0.000000 0.500000 0.500000
0.206638 -0.525513 -0.102965 0.600000 0.300000 0.000000
-0.181005 -0.614519 -0.168932 0.600000 0.300000 0.000000
0.170330 -0.343522 -0.066343 0.600000 0.300000 0.000000
0.030637 -0.413429 0.044693 0.600000 0.300000 0.000000
0.167804 0.210383 -0.010642 0.600000 0.300000 0.000000
-0.206365 -0.539852 -0.161809 0.600000 0.300000 0.000000
0.036389 0.559130 0.304502 0.000000 1.000000 0.000000
0.054441 0.332538 0.066546 0.600000 0.300000 0.000000
-0.001949 -0.657803 0.050664 0.600000 0.300000 0.000000
-0.180415 -0.524347 -0.093126 0.600000 0.300000 0.000000
-0.008371 0.577695 0.066770 0.000000 1.000000 0.000000
-0.126258 -0.277720 -0.271784 0.600000 0.300000 0.000000
0.064197 0.181286 0.889583 0.000000 0.500000 0.500000
-0.137480 0.368352 0.021511 0.600000 0.300000 0.000000
0.001456 -0.027675 0.771200 0.300000 0.600000 0.000000
-0.046283 0.456670 0.068618 0.000000 1.000000 0.000000
-0.189674 0.513505 -0.222054 0.000000 1.000000 0.000000
-0.190272 0.347657 -0.051603 0.600000 0.300000 0.000000
0.075223 -0.588108 -0.304484 0.600000 0.300000 0.000000
0.186109 -0.480048 -0.126249 0.600000 0.300000 0.000000
-0.014982 -0.406463 -0.333047 0.600000 0.300000 0.000000
-0.208406 0.231323 -0.134538 0.600000 0.300000 0.000000
-0.123912 -0.491704 0.033501 0.600000 0.300000 0.000000
-0.204099 0.595175 -0.162585 0.000000 1.000000 0.000000
0.169835 -0.562649 -0.060607 0.600000 0.300000 0.000000
0.062502 0.633510 0.042602 0.000000 1.000000 0.000000
0.186964 -0.742221 -0.146260 0.600000 0.300000 0.000000
-0.187630 0.429774 -0.046215 0.000000 1.000000 0.000000
-0.107614 0.191592 0.519140 0.000000 0.500000 0.500000
-0.084336 -0.355487 -0.327029 0.600000 0.300000 0.000000
0.001992 -0.414780 -0.322009 0.600000 0.300000 0.000000
0.201557 -0.227004 -0.188080 0.600000 0.300000 0.000000
0.115276 0.083645 0.827594 0.000000 0.500000 0.500000
-0.015938 -0.664329 -0.321121 0.600000 0.300000 0.000000
0.011251 -0.766722 -0.344750 0.600000 0.300000 0.000000
-0.003783 0.285476 0.073955 0.600000 0.300000 0.000000
-0.037709 -0.235351 -0.340273 0.600000 0.300000 0.000000
-0.023994 0.571832 0.143434 0.000000 1.000000 0.000000
0.144856 -0.650145 -0.253042 0.600000 0.300000 0.000000
0.208597 -0.043717 -0.147072 0.600000 0.300000 0.000000
-0.146415 0.053693 0.013062 0.600000 0.300000 0.000000
-0.085617 0.225455 0.725069 0.000000 0.500000 0.500000
-0.140949 0.481026 -0.288917 0.000000 1.000000 0.000000
0.057243 0.046563 0.838472 0.600000 0.000000 0.300000
0.203439 0.643334 -0.175775 0.000000 1.000000 0.000000
-0.005817 0.168171 -0.344999 0.600000 0.300000 0.000000
-0.015817 0.011959 1.001502 0.300000 0.600000 0.000000
0.179287 -0.399055 -0.240501 0.600000 0.300000 0.000000
0.007338 0.200965 0.906686 0.000000 0.500000 0.500000
-0.172674 0.041304 -0.246527 0.600000 0.300000 0.000000
0.206773 -0.091394 -0.158619 0.600000 0.300000 0.000000
0.090394 0.487864 0.030832 0.000000 1.000000 0.000000
0.032494 0.258561 0.359488 0.000000 0.500000 0.500000
0.098275 -0.029003 0.869583 0.300000 0.600000 0.000000
-0.190104 0.226329 -0.051214 0.600000 0.300000 0.000000
-0.053274 0.041330 0.426762 0.000000 0.500000 0.500000
-0.093662 0.488810 0.050444 0.000000 1.000000 0.000000
0.049852 0.253164 0.436581 0.000000 0.500000 0.500000
-0.060541 0.453575 0.044695 0.000000 1.000000 0.000000
0.094588 -0.508395 -0.321982 0.600000 0.300000 0.000000
0.166356 -0.528576 -0.052053 0.600000 0.300000 0.000000
0.136390 0.388985 0.003907 0.600000 0.300000 0.000000
-0.202526 0.167289 -0.169964 0.600000 0.300000 0.000000
-0.050895 0.230586 0.827445 0.000000 0.500000 0.500000
-0.186293 -0.683592 -0.043176 0.600000 0.300000 0.000000
-0.059388 -0.794129 0.111067 0.300000 0.000000 0.600000
-0.179883 -0.565488 -0.089510 0.600000 0.300000 0.000000
0.051192 -0.109972 -0.336866 0.600000 0.300000 0.000000
0.182554 -0.086505 -0.234486 0.600000 0.300000 0.000000
-0.005769 0.673587 -0.011999 0.000000 1.000000 0.000000
-0.084984 -0.031969 -0.326887 0.600000 0.300000 0.000000
0.179879 0.621143 -0.201702 0.000000 1.000000 0.000000
-0.183776 0.612307 -0.098752 0.000000 1.000000 0.000000
-0.199813 0.513894 -0.089149 0.000000 1.000000 0.000000
-0.093763 0.215765 0.321701 0.000000 0.500000 0.500000
0.037795 -0.393265 -0.317825 0.600000 0.300000 0.000000
-0.174247 0.463510 -0.209608 0.000000 1.000000 0.000000
-0.093887 0.388985 0.013119 0.600000 0.300000 0.000000
-0.116890 0.146160 0.526141 0.000000 0.500000 0.500000
-0.181793 -0.367248 -0.103044 0.600000 0.300000 0.000000
0.159912 -0.249216 -0.002200 0.600000 0.300000 0.000000
0.009608 0.594613 0.533634 0.000000 1.000000 0.000000
-0.206746 -0.360946 -0.118839 0.600000 0.300000 0.000000
-0.025702 -0.407926 0.070503 0.600000 0.300000 0.000000
0.096780 0.154726 0.873014 0.000000 0.500000 0.500000
0.154713 -0.400592 -0.031887 0.600000 0.300000 0.000000
-0.181510 -0.792332 -0.100617 0.600000 0.300000 0.000000
0.107882 0.440841 0.022167 0.000000 1.000000 0.000000
0.164071 0.388985 -0.032510 0.600000 0.300000 0.000000
-0.182801 -0.691771 -0.112494 0.600000 0.300000 0.000000
0.155085 0.057338 -0.274267 0.600000 0.300000 0.000000
0.028740 0.673587 0.050603 0.000000 1.000000 0.000000
-0.048659 -0.577285 -0.337127 0.600000 0.300000 0.000000
-0.167536 0.451603 -0.048807 0.000000 1.000000 0.000000
0.155336 0.564442 0.005704 0.000000 1.000000 0.000000
-0.063644 0.242951 0.214315 0.000000 0.500000 0.500000
-0.024157 0.633643 0.033444 0.000000 1.000000 0.000000
0.203993 0.505469 -0.093646 0.000000 1.000000 0.000000
0.197305 0.379745 -0.204185 0.600000 0.300000 0.000000
-0.208244 -0.141804 -0.132754 0.600000 0.300000 0.000000
0.091200 0.220409 0.529893 0.000000 0.500000 0.500000
0.022570 0.599508 -0.214766 0.000000 1.000000 0.000000
0.112597 -0.009211 0.852423 0.300000 0.600000 0.000000
-0.087230 -0.449670 -0.325988 0.600000 0.300000 0.000000
-0.068351 -0.312198 0.062176 0.600000 0.300000 0.000000
-0.091162 0.182968 0.849208 0.000000 0.500000 0.500000
0.168821 0.547391 -0.049824 0.000000 1.000000 0.000000
-0.005993 -0.768086 -0.377315 0.300000 0.000000 0.600000
0.022497 0.260412 0.307991 0.000000 0.500000 0.500000
0.015671 0.527716 0.602911 0.000000 1.000000 0.000000
-0.142604 -0.706108 -0.288135 0.600000 0.300000 0.000000
-0.185184 -0.109942 -0.039854 0.600000 0.300000 0.000000
0.132639 -0.587202 -0.265654 0.600000 0.300000 0.000000
0.035762 0.557206 0.208657 0.000000 1.000000 0.000000
0.209890 -0.465201 -0.146753 0.600000 0.300000 0.000000
-0.105020 0.522441 0.022634 0.000000 1.000000 0.000000
-0.095979 -0.346483 -0.292471 0.600000 0.300000 0.000000
0.004329 -0.676684 0.073902 0.600000 0.300000 0.000000
-0.178056 -0.094047 -0.026342 0.600000 0.300000 0.000000
0.156243 -0.172077 0.002348 0.600000 0.300000 0.000000
0.040028 0.140513 0.950455 0.000000 0.500000 0.500000
0.085134 -0.009394 0.941421 0.600000 0.000000 0.300000
-0.087555 0.223882 0.503458 0.000000 0.500000 0.500000
-0.104257 0.553046 0.023428 0.000000 1.000000 0.000000
0.005239 0.388985 -0.308263 0.600000 0.300000 0.000000
-0.039430 -0.329402 0.042485 0.600000 0.300000 0.000000
-0.158337 -0.749918 -0.004801 0.600000 0.300000 0.000000
-0.026977 0.581005 0.459133 0.000000 1.000000 0.000000
0.152013 0.589869 -0.248776 0.000000 1.000000 0.000000
-0.144504 -0.280537 -0.020023 0.600000 0.300000 0.000000
-0.188207 0.440490 -0.153673 0.000000 1.000000 0.000000
-0.051253 -0.766410 -0.312430 0.600000 0.300000 0.000000
0.040059 0.037396 0.292176 0.000000 0.500000 0.500000
-0.083152 0.237576 -0.327443 0.600000 0.300000 0.000000
0.005127 0.514898 0.318036 0.000000 1.000000 0.000000
0.122168 -0.662061 -0.303108 0.600000 0.300000 0.000000
-0.097435 -0.755497 0.047336 0.600000 0.300000 0.000000
0.116880 0.162738 0.101258 0.000000 0.500000 0.500000
0.082908 0.002048 0.830515 0.600000 0.000000 0.300000
-0.029509 -0.801639 0.115873 0.300000 0.000000 0.600000
-0.122878 0.388985 -0.056660 0.600000 0.300000 0.000000
-0.207644 -0.762092 -0.144605 0.600000 0.300000 0.000000
-0.137310 0.673587 -0.200291 0.000000 1.000000 0.000000
-0.082664 0.604663 0.054663 0.000000 1.000000 0.000000
0.141611 0.456707 -0.043595 0.600000 0.300000 0.000000
0.145104 0.370606 -0.287768 0.600000 0.300000 0.000000
-0.173276 -0.440649 -0.070915 0.600000 0.300000 0.000000
-0.127959 0.673587 0.007076 0.000000 1.000000 0.000000
0.206279 -0.650101 -0.101997 0.600000 0.300000 0.000000
-0.061423 -0.084951 -0.333568 0.600000 0.300000 0.000000
0.085463 0.051594 0.772549 0.000000 0.500000 0.500000
-0.016264 0.612040 -0.325047 0.000000 1.000000 0.000000
0.210455 0.439638 -0.137463 0.000000 1.000000 0.000000
-0.063790 -0.038988 0.812956 0.300000 0.600000 0.000000
-0.178239 -0.805393 -0.177954 0.600000 0.300000 0.000000
0.106022 0.373808 -0.314127 0.600000 0.300000 0.000000
-0.029758 -0.121214 -0.342516 0.600000 0.300000 0.000000
-0.115373 0.142774 0.214101 0.000000 0.500000 0.500000
0.047089 0.388985 -0.328491 0.600000 0.300000 0.000000
-0.033654 0.012717 0.789975 0.600000 0.000000 0.300000
-0.141327 0.596325 0.018268 0.000000 1.000000 0.000000
0.183879 -0.043565 -0.232365 0.600000 0.300000 0.000000
-0.085117 -0.694164 -0.300077 0.600000 0.300000 0.000000
-0.120729 0.579632 -0.305914 0.000000 1.000000 0.000000
-0.113407 0.173739 0.414325 0.000000 0.500000 0.500000
-0.094360 -0.549677 -0.321196 0.600000 0.300000 0.000000
-0.159634 0.611773 -0.004595 0.000000 1.000000 0.000000
0.115246 0.172634 0.347699 0.000000 0.500000 0.500000
0.024498 0.566728 0.033444 0.000000 1.000000 0.000000
0.121668 0.195906 -0.303606 0.600000 0.300000 0.000000
0.179907 -0.300975 -0.100919 0.600000 0.300000 0.000000
0.141024 -0.613612 -0.257970 0.600000 0.300000 0.000000
-0.204255 0.089830 -0.161473 0.600000 0.300000 0.000000
0.025702 0.530523 0.501444 0.000000 1.000000 0.000000
-0.043124 0.388985 0.019408 0.600000 0.300000 0.000000
0.204855 -0.478605 -0.091828 0.600000 0.300000 0.000000
-0.106766 0.098794 0.311404 0.000000 0.500000 0.500000
0.186241 0.239637 -0.040590 0.600000 0.300000 0.000000
0.126995 -0.549064 0.032107 0.600000 0.300000 0.000000
0.075409 -0.563229 -0.304398 0.600000 0.300000 0.000000
-0.182371 -0.538685 -0.033357 0.600000 0.300000 0.000000
-0.182059 0.507908 -0.186756 0.000000 1.000000 0.000000
0.205595 -0.232886 -0.168290 0.600000 0.300000 0.000000
0.199878 -0.045752 -0.082567 0.600000 0.300000 0.000000
0.101694 0.673587 -0.242719 0.000000 1.000000 0.000000
-0.192964 -0.241316 -0.214160 0.600000 0.300000 0.000000
-0.064803 -0.245858 0.063353 0.600000 0.300000 0.000000
0.048384 -0.187981 0.068057 0.600000 0.300000 0.000000
0.190977 0.426224 -0.144576 0.000000 1.000000 0.000000
-0.073397 0.235265 0.150059 0.000000 0.500000 0.500000
-0.207391 -0.633177 -0.136824 0.600000 0.300000 0.000000
-0.013877 0.510870 0.112803 0.000000 1.000000 0.000000
-0.086909 -0.301044 0.027315 0.600000 0.300000 0.000000
-0.011802 0.262247 0.214452 0.000000 0.500000 0.500000
0.037254 0.558986 0.371250 0.000000 1.000000 0.000000
-0.049048 -0.533026 0.066682 0.600000 0.300000 0.000000
-0.089916 -0.733325 0.051353 0.600000 0.300000 0.000000
0.151272 -0.434149 -0.279860 0.600000 0.300000 0.000000
0.070686 0.546939 -0.096098 0.000000 1.000000 0.000000
0.108531 -0.575193 -0.286588 0.600000 0.300000 0.000000
0.137483 -0.128427 0.022759 0.600000 0.300000 0.000000
-0.192357 0.555860 -0.215722 0.000000 1.000000 0.000000
-0.101204 0.035155 0.047465 0.600000 0.300000 0.000000
0.113635 0.176913 0.585743 0.000000 0.500000 0.500000
0.226076 -0.784245 -0.255583 0.300000 0.000000 0.600000
0.126407 -0.464146 0.032631 0.600000 0.300000 0.000000
0.190614 -0.323706 -0.050787 0.600000 0.300000 0.000000
-0.142424 -0.679605 0.013450 0.600000 0.300000 0.000000
0.208959 -0.354911 -0.130043 0.600000 0.300000 0.000000
-0.019075 -0.259997 -0.320703 0.600000 0.300000 0.000000
-0.060928 0.388985 0.061522 0.600000 0.300000 0.000000
-0.176076 -0.666392 -0.187449 0.600000 0.300000 0.000000
0.046803 0.255455 0.255290 0.000000 0.500000 0.500000
