0.522314 -0.111260 0.744758 0.600000 0.000000 0.300000
0.617429 0.563371 -0.556541 0.500000 0.500000 0.000000
0.214812 -0.127992 0.738554 0.600000 0.000000 0.300000
-0.200295 0.361317 -0.412011 0.000000 1.000000 0.000000
0.344020 -0.121960 0.407754 0.600000 0.300000 0.000000
-0.599212 0.146397 -0.323747 0.000000 1.000000 0.000000
-0.380798 -0.111260 0.684509 0.600000 0.000000 0.300000
-0.333212 0.195154 -0.362371 0.500000 0.500000 0.000000
-0.335635 0.361350 -0.430353 0.500000 0.500000 0.000000
-0.463690 -0.115443 0.315968 0.600000 0.300000 0.000000
0.495507 -0.118092 -0.177267 0.500000 0.500000 0.000000
-0.675029 -0.095522 -0.251296 0.500000 0.500000 0.000000
-0.113007 -0.116562 0.646463 0.500000 0.000000 0.500000
-0.423018 0.093499 -0.302146 0.000000 1.000000 0.000000
-0.508971 -0.111260 0.459000 0.600000 0.000000 0.300000
-0.363050 0.272140 -0.433596 0.500000 0.500000 0.000000
0.387864 0.510984 -0.473988 0.500000 0.500000 0.000000
0.086442 -0.115443 0.319015 0.600000 0.300000 0.000000
-0.660220 -0.111260 -0.101206 0.600000 0.000000 0.300000
0.190602 0.288582 -0.381940 0.000000 1.000000 0.000000
0.732882 -0.124715 -0.002679 0.600000 0.000000 0.300000
-0.676110 -0.149063 -0.025048 0.600000 0.000000 0.300000
0.414375 0.443997 -0.445997 0.000000 1.000000 0.000000
0.033380 -0.127992 0.179975 0.600000 0.300000 0.000000
-0.070728 -0.207045 0.035904 0.600000 0.000000 0.300000
0.291368 0.217117 -0.411061 0.500000 0.500000 0.000000
0.172309 -0.115443 0.314440 0.600000 0.300000 0.000000
0.172086 0.299711 -0.405163 0.500000 0.500000 0.000000
0.600751 -0.111260 -0.111939 0.600000 0.000000 0.300000
0.707995 -0.152593 0.267823 0.600000 0.000000 0.300000
0.183894 -0.207045 -0.049994 0.600000 0.000000 0.300000
0.568224 0.160993 -0.330322 0.000000 1.000000 0.000000
-0.641161 0.090931 -0.359353 0.500000 0.500000 0.000000
-0.612932 -0.111260 0.687105 0.600000 0.000000 0.300000
0.653227 -0.207045 -0.020039 0.600000 0.000000 0.300000
0.177827 0.535518 -0.501584 0.500000 0.500000 0.000000
-0.482680 -0.197827 0.444718 0.600000 0.000000 0.300000
0.644580 -0.127992 0.117115 0.600000 0.000000 0.300000
-0.162770 -0.207045 0.114934 0.600000 0.000000 0.300000
0.347474 -0.206048 0.502468 0.600000 0.000000 0.300000
0.288964 -0.115262 0.038105 0.600000 0.000000 0.300000
-0.645737 -0.187627 0.065944 0.600000 0.000000 0.300000
0.099937 -0.197827 0.376224 0.600000 0.000000 0.300000
0.108729 0.480894 -0.519916 0.500000 0.500000 0.000000
0.616816 0.218568 -0.415803 0.500000 0.500000 0.000000
0.076853 -0.115443 0.200031 0.600000 0.300000 0.000000
-0.383385 -0.111260 0.724665 0.600000 0.000000 0.300000
0.106242 -0.115443 0.210402 0.600000 0.300000 0.000000
-0.048329 0.150271 -0.383786 0.500000 0.500000 0.000000
-0.264179 -0.115443 0.221987 0.600000 0.300000 0.000000
-0.618053 0.134406 -0.337571 0.500000 0.500000 0.000000
-0.052721 -0.207045 -0.037462 0.600000 0.000000 0.300000
0.130298 -0.134686 -0.200851 0.500000 0.500000 0.000000
0.551464 -0.115601 0.178028 0.600000 0.300000 0.000000
-0.581704 0.344868 -0.406041 0.000000 1.000000 0.000000
-0.020089 -0.090664 -0.285102 0.500000 0.500000 0.000000
-0.545081 -0.115443 0.100672 0.600000 0.300000 0.000000
0.340697 -0.012756 -0.277335 0.500000 0.500000 0.000000
0.068618 -0.127992 0.739751 0.600000 0.000000 0.300000
0.295524 -0.023334 -0.312601 0.500000 0.500000 0.000000
-0.053781 -0.131293 -0.213343 0.500000 0.500000 0.000000
0.297534 -0.115443 0.259881 0.600000 0.300000 0.000000
-0.650661 -0.175361 0.044150 0.600000 0.000000 0.300000
-0.014817 -0.131980 -0.268517 0.500000 0.500000 0.000000
0.449823 -0.129485 0.737363 0.600000 0.000000 0.300000
-0.573287 -0.207045 0.508765 0.600000 0.000000 0.300000
0.048977 -0.113277 -0.140636 0.600000 0.000000 0.300000
0.015262 -0.207045 0.002075 0.600000 0.000000 0.300000
-0.000003 -0.116562 0.634757 0.500000 0.000000 0.500000
0.182372 -0.115443 0.223677 0.600000 0.300000 0.000000
-0.012559 -0.178231 -0.242789 0.500000 0.500000 0.000000
0.698848 -0.127992 0.310567 0.600000 0.000000 0.300000
0.684357 -0.166502 -0.066644 0.600000 0.000000 0.300000
0.351835 0.285693 -0.380758 0.000000 1.000000 0.000000
-0.354130 0.444183 -0.503822 0.500000 0.500000 0.000000
0.670686 -0.164819 0.710863 0.600000 0.000000 0.300000
-0.067493 0.385931 -0.422825 0.000000 1.000000 0.000000
-0.030409 0.577000 -0.498856 0.500000 0.500000 0.000000
0.109375 -0.116562 0.536630 0.500000 0.000000 0.500000
0.298455 0.206614 -0.349501 0.000000 1.000000 0.000000
-0.535818 -0.101814 -0.121097 0.600000 0.000000 0.300000
-0.232594 -0.197827 0.491790 0.600000 0.000000 0.300000
0.044878 0.326676 -0.469411 0.300000 0.000000 0.600000
0.125535 0.185022 -0.397826 0.500000 0.500000 0.000000
0.591354 0.337783 -0.402064 0.000000 1.000000 0.000000
0.505008 -0.197827 0.394629 0.600000 0.000000 0.300000
0.236660 -0.066742 -0.299133 0.500000 0.500000 0.000000
0.153596 -0.143215 -0.267865 0.500000 0.500000 0.000000
-0.096479 0.231149 -0.430339 0.300000 0.000000 0.600000
-0.272164 0.209222 -0.407685 0.500000 0.500000 0.000000
0.399490 -0.111260 0.637150 0.600000 0.000000 0.300000
0.386509 0.489679 -0.482838 0.500000 0.500000 0.000000
-0.396610 -0.014882 -0.258878 0.000000 1.000000 0.000000
-0.185483 -0.197827 0.430066 0.600000 0.000000 0.300000
0.672991 -0.111260 0.505981 0.600000 0.000000 0.300000
0.168090 -0.116241 0.545069 0.500000 0.000000 0.500000
0.311950 -0.111260 0.629948 0.600000 0.000000 0.300000
0.492872 0.076935 -0.314017 0.500000 0.500000 0.000000
0.702732 -0.039061 -0.301961 0.500000 0.500000 0.000000
0.644418 -0.183138 -0.203162 0.600000 0.000000 0.300000
-0.335957 -0.114998 -0.180287 0.500000 0.500000 0.000000
0.397893 -0.191620 -0.216386 0.500000 0.500000 0.000000
0.017607 0.073573 -0.295078 0.000000 1.000000 0.000000
0.294292 -0.134966 -0.271205 0.500000 0.500000 0.000000
-0.414033 -0.170523 -0.251636 0.500000 0.500000 0.000000
0.558599 0.205427 -0.366571 0.500000 0.500000 0.000000
0.254551 -0.109922 -0.108767 0.600000 0.000000 0.300000
0.232123 0.119221 -0.375185 0.500000 0.500000 0.000000
-0.207832 -0.111260 0.454922 0.600000 0.000000 0.300000
0.044076 0.506199 -0.471830 0.000000 1.000000 0.000000
0.256995 -0.197827 0.242285 0.600000 0.000000 0.300000
-0.519436 -0.125680 0.360321 0.600000 0.300000 0.000000
0.541933 0.482165 -0.461078 0.000000 1.000000 0.000000
-0.003275 -0.044272 -0.264472 0.500000 0.500000 0.000000
-0.353249 0.091363 -0.319919 0.500000 0.500000 0.000000
0.446209 -0.127293 0.417725 0.600000 0.300000 0.000000
-0.586775 -0.207045 0.069451 0.600000 0.000000 0.300000
-0.487240 -0.111260 -0.056132 0.600000 0.000000 0.300000
-0.415170 0.544019 -0.548915 0.500000 0.500000 0.000000
0.212305 -0.054411 -0.299878 0.500000 0.500000 0.000000
0.607246 0.246920 -0.423141 0.500000 0.500000 0.000000
-0.215684 0.201634 -0.347460 0.000000 1.000000 0.000000
-0.663268 -0.169151 0.095723 0.600000 0.000000 0.300000
0.617100 -0.111260 0.669881 0.600000 0.000000 0.300000
-0.566860 0.230807 -0.416554 0.500000 0.500000 0.000000
0.690466 -0.111260 -0.091073 0.600000 0.000000 0.300000
-0.048803 -0.207045 0.556621 0.600000 0.000000 0.300000
-0.308632 0.341008 -0.461622 0.500000 0.500000 0.000000
0.023254 -0.207045 0.612362 0.600000 0.000000 0.300000
-0.586877 0.194416 -0.401667 0.500000 0.500000 0.000000
-0.519403 0.411211 -0.450739 0.500000 0.500000 0.000000
-0.619881 0.308673 -0.408797 0.500000 0.500000 0.000000
0.443987 -0.111260 0.019981 0.600000 0.000000 0.300000
0.536040 0.100021 -0.323462 0.500000 0.500000 0.000000
-0.344405 0.009522 -0.286445 0.500000 0.500000 0.000000
0.319848 0.281471 -0.397677 0.500000 0.500000 0.000000
0.498257 -0.197827 0.248328 0.600000 0.000000 0.300000
0.460448 -0.207045 -0.016656 0.600000 0.000000 0.300000
-0.260661 0.075531 -0.313443 0.500000 0.500000 0.000000
0.057347 0.569964 -0.513590 0.500000 0.500000 0.000000
-0.645245 -0.170682 0.568719 0.600000 0.000000 0.300000
0.637791 -0.111260 0.476547 0.600000 0.000000 0.300000
0.424679 -0.115443 0.091844 0.600000 0.300000 0.000000
-0.235921 -0.117597 -0.188138 0.500000 0.500000 0.000000
-0.429304 0.331492 -0.418136 0.500000 0.500000 0.000000
-0.309850 -0.192184 -0.208665 0.500000 0.500000 0.000000
0.233206 -0.197418 -0.122287 0.600000 0.000000 0.300000
-0.408669 -0.113173 -0.221904 0.500000 0.500000 0.000000
0.263424 -0.207045 -0.121733 0.600000 0.000000 0.300000
0.624781 -0.127992 0.178971 0.600000 0.300000 0.000000
-0.411921 -0.207045 0.557252 0.600000 0.000000 0.300000
0.547008 -0.113260 -0.169408 0.500000 0.500000 0.000000
-0.545612 -0.165658 -0.234085 0.500000 0.500000 0.000000
0.334076 0.242611 -0.425636 0.500000 0.500000 0.000000
0.556722 -0.123624 0.360321 0.600000 0.300000 0.000000
-0.574751 -0.115443 0.160168 0.600000 0.300000 0.000000
-0.552945 0.524468 -0.497065 0.500000 0.500000 0.000000
-0.180953 -0.188211 -0.236931 0.500000 0.500000 0.000000
0.331861 -0.207045 0.280980 0.600000 0.000000 0.300000
-0.516826 -0.207045 0.192830 0.600000 0.000000 0.300000
-0.404315 -0.115443 0.310056 0.600000 0.300000 0.000000
-0.219719 0.014855 -0.271067 0.000000 1.000000 0.000000
0.249465 -0.061462 -0.257412 0.500000 0.500000 0.000000
0.276569 -0.110974 0.548810 0.600000 0.000000 0.300000
0.670683 0.450600 -0.447926 0.500000 0.500000 0.000000
-0.159722 -0.127992 0.111202 0.600000 0.300000 0.000000
-0.092754 0.572850 -0.496631 0.500000 0.500000 0.000000
-0.474393 -0.207045 0.057466 0.600000 0.000000 0.300000
-0.080777 -0.115443 0.381923 0.600000 0.300000 0.000000
0.060048 -0.009162 -0.261239 0.000000 1.000000 0.000000
0.110186 -0.098889 -0.018570 0.600000 0.000000 0.300000
0.683502 -0.111260 0.592486 0.600000 0.000000 0.300000
0.183670 -0.081618 -0.230034 0.500000 0.500000 0.000000
0.694018 -0.194357 -0.063892 0.600000 0.000000 0.300000
-0.312032 0.563736 -0.503264 0.500000 0.500000 0.000000
-0.274051 -0.194357 -0.127567 0.600000 0.000000 0.300000
-0.268639 -0.109055 -0.096046 0.600000 0.000000 0.300000
0.628235 -0.149054 0.737363 0.600000 0.000000 0.300000
-0.654373 0.290117 -0.399814 0.500000 0.500000 0.000000
-0.281696 0.246742 -0.365185 0.000000 1.000000 0.000000
-0.602609 -0.126875 0.117263 0.600000 0.300000 0.000000
0.351692 0.393797 -0.424948 0.000000 1.000000 0.000000
0.637742 0.279567 -0.440744 0.500000 0.500000 0.000000
0.547395 -0.117972 0.304314 0.600000 0.300000 0.000000
0.249458 -0.198962 0.402874 0.600000 0.000000 0.300000
-0.525997 -0.111260 0.656586 0.600000 0.000000 0.300000
0.314444 0.438593 -0.444376 0.000000 1.000000 0.000000
0.704250 -0.161109 0.627151 0.600000 0.000000 0.300000
-0.106551 0.454108 -0.468335 0.500000 0.500000 0.000000
-0.512539 -0.115443 0.393605 0.600000 0.300000 0.000000
-0.633426 -0.121717 0.270852 0.600000 0.000000 0.300000
0.076370 0.519691 -0.495112 0.500000 0.500000 0.000000
-0.057609 0.136911 -0.320413 0.000000 1.000000 0.000000
-0.211344 -0.207045 0.101039 0.600000 0.000000 0.300000
0.704250 -0.192715 -0.006129 0.600000 0.000000 0.300000
0.072397 -0.207045 0.566602 0.600000 0.000000 0.300000
0.619064 0.522873 -0.477820 0.500000 0.500000 0.000000
0.727737 -0.143987 0.251500 0.600000 0.000000 0.300000
-0.504980 -0.101814 -0.094071 0.600000 0.000000 0.300000
0.598406 0.212610 -0.369528 0.500000 0.500000 0.000000
-0.557078 0.233378 -0.377999 0.500000 0.500000 0.000000
-0.307388 -0.197827 0.332799 0.600000 0.000000 0.300000
-0.626959 -0.090941 -0.243840 0.500000 0.500000 0.000000
0.331793 -0.207045 0.020391 0.600000 0.000000 0.300000
-0.070597 0.441890 -0.463320 0.500000 0.500000 0.000000
-0.078098 -0.111260 0.493973 0.600000 0.000000 0.300000
-0.088554 -0.116562 0.539816 0.500000 0.000000 0.500000
0.363028 0.101867 -0.306651 0.000000 1.000000 0.000000
-0.450811 -0.111260 0.017270 0.600000 0.000000 0.300000
-0.097275 0.048940 -0.342160 0.500000 0.500000 0.000000
0.631985 -0.127761 0.386237 0.600000 0.300000 0.000000
-0.432273 -0.197827 0.347812 0.600000 0.000000 0.300000
0.504891 0.274848 -0.434563 0.500000 0.500000 0.000000
0.584274 -0.207045 0.577482 0.600000 0.000000 0.300000
0.120638 0.538216 -0.502685 0.500000 0.500000 0.000000
0.042709 -0.127992 0.751712 0.600000 0.000000 0.300000
0.008918 -0.098889 -0.036611 0.600000 0.000000 0.300000
-0.311913 -0.190303 -0.243081 0.500000 0.500000 0.000000
-0.514868 -0.207045 0.581352 0.600000 0.000000 0.300000
0.135140 -0.115778 0.038898 0.600000 0.000000 0.300000
-0.306311 0.440989 -0.462947 0.500000 0.500000 0.000000
-0.485067 0.527966 -0.480940 0.500000 0.500000 0.000000
0.254771 0.344895 -0.404973 0.000000 1.000000 0.000000
-0.486866 -0.094621 -0.287700 0.500000 0.500000 0.000000
-0.150728 -0.197827 0.359087 0.600000 0.000000 0.300000
-0.652253 -0.149379 0.700597 0.600000 0.000000 0.300000
0.416192 -0.197827 0.370383 0.600000 0.000000 0.300000
-0.251060 0.250485 -0.385001 0.500000 0.500000 0.000000
0.073915 -0.112997 -0.155948 0.500000 0.500000 0.000000
0.173467 -0.111260 0.452818 0.600000 0.000000 0.300000
-0.123914 0.342660 -0.475949 0.300000 0.000000 0.600000
-0.022356 -0.207045 0.237698 0.600000 0.000000 0.300000
0.328282 -0.207045 0.047087 0.600000 0.000000 0.300000
0.495611 -0.146399 0.737363 0.600000 0.000000 0.300000
0.158359 -0.197827 0.254754 0.600000 0.000000 0.300000
0.437185 -0.115443 0.290343 0.600000 0.300000 0.000000
0.578999 -0.221694 0.003834 0.600000 0.000000 0.300000
-0.622459 0.447369 -0.465580 0.500000 0.500000 0.000000
0.642570 0.029501 -0.277052 0.500000 0.500000 0.000000
-0.509054 -0.013545 -0.277012 0.500000 0.500000 0.000000
-0.508678 -0.115443 0.254790 0.600000 0.300000 0.000000
0.161246 -0.127992 0.114172 0.600000 0.300000 0.000000
0.195266 0.366751 -0.415000 0.000000 1.000000 0.000000
0.420562 0.343301 -0.462562 0.500000 0.500000 0.000000
0.650585 -0.207045 0.527605 0.600000 0.000000 0.300000
0.609959 -0.194357 -0.152195 0.600000 0.000000 0.300000
-0.440816 -0.194357 0.695851 0.600000 0.000000 0.300000
0.558128 0.539500 -0.547066 0.500000 0.500000 0.000000
0.049852 -0.171035 -0.256447 0.500000 0.500000 0.000000
-0.139191 -0.160271 0.740539 0.600000 0.000000 0.300000
0.275665 -0.207045 0.103875 0.600000 0.000000 0.300000
0.562771 -0.207045 0.218326 0.600000 0.000000 0.300000
-0.233749 -0.207045 -0.081899 0.600000 0.000000 0.300000
-0.282956 -0.115443 0.150371 0.600000 0.300000 0.000000
0.115506 0.263342 -0.390261 0.500000 0.500000 0.000000
-0.592209 -0.111260 -0.008182 0.600000 0.000000 0.300000
-0.295374 -0.115443 0.358179 0.600000 0.300000 0.000000
-0.231997 -0.113277 -0.045753 0.600000 0.000000 0.300000
0.570442 0.379017 -0.477173 0.500000 0.500000 0.000000
0.630408 -0.014200 -0.259159 0.000000 1.000000 0.000000
-0.554643 0.373105 -0.475836 0.500000 0.500000 0.000000
0.493940 -0.207045 0.301010 0.600000 0.000000 0.300000
-0.070096 -0.115443 0.161354 0.600000 0.300000 0.000000
-0.502882 0.553585 -0.490193 0.500000 0.500000 0.000000
0.363933 -0.207045 0.598126 0.600000 0.000000 0.300000
0.695197 -0.035100 -0.280896 0.500000 0.500000 0.000000
0.667616 0.374477 -0.416839 0.500000 0.500000 0.000000
0.164039 0.556325 -0.553916 0.500000 0.500000 0.000000
0.339087 -0.127992 0.116858 0.600000 0.300000 0.000000
-0.350080 0.110999 -0.327998 0.500000 0.500000 0.000000
-0.470064 0.452164 -0.507092 0.500000 0.500000 0.000000
0.227827 0.139360 -0.339597 0.500000 0.500000 0.000000
-0.526265 -0.115443 0.058772 0.600000 0.300000 0.000000
-0.080337 -0.207045 0.558216 0.600000 0.000000 0.300000
-0.051609 -0.197827 0.320265 0.600000 0.000000 0.300000
-0.679403 -0.111260 0.501170 0.600000 0.000000 0.300000
-0.453214 0.585609 -0.528451 0.500000 0.500000 0.000000
0.047112 -0.207045 0.673691 0.600000 0.000000 0.300000
-0.591111 0.068401 -0.291883 0.000000 1.000000 0.000000
-0.018676 0.113838 -0.373005 0.500000 0.500000 0.000000
0.106089 -0.121532 0.279471 0.600000 0.300000 0.000000
-0.691271 -0.143987 0.284774 0.600000 0.000000 0.300000
-0.512078 -0.207045 0.435496 0.600000 0.000000 0.300000
0.263943 -0.207045 -0.011950 0.600000 0.000000 0.300000
0.571434 -0.111260 0.596645 0.600000 0.000000 0.300000
0.207470 0.324066 -0.415098 0.500000 0.500000 0.000000
0.574062 -0.101814 -0.051647 0.600000 0.000000 0.300000
-0.384024 0.030794 -0.339049 0.500000 0.500000 0.000000
-0.600819 0.014813 -0.288609 0.500000 0.500000 0.000000
0.074053 0.005796 -0.284922 0.500000 0.500000 0.000000
0.289191 -0.123055 0.161026 0.600000 0.300000 0.000000
-0.159684 -0.111260 0.491339 0.600000 0.000000 0.300000
0.030126 0.034643 -0.279157 0.000000 1.000000 0.000000
-0.366608 -0.026562 -0.271683 0.500000 0.500000 0.000000
-0.119363 -0.076848 -0.232477 0.500000 0.500000 0.000000
-0.570711 0.035902 -0.297282 0.500000 0.500000 0.000000
-0.596967 -0.111260 0.547355 0.600000 0.000000 0.300000
-0.122769 -0.207045 0.527114 0.600000 0.000000 0.300000
-0.089908 -0.159959 -0.197461 0.500000 0.500000 0.000000
-0.392712 -0.207045 -0.090148 0.600000 0.000000 0.300000
-0.535394 -0.207045 0.581611 0.600000 0.000000 0.300000
0.496475 -0.154053 -0.251100 0.500000 0.500000 0.000000
-0.136861 -0.194357 -0.133228 0.600000 0.000000 0.300000
0.118595 0.093529 -0.320806 0.500000 0.500000 0.000000
0.662852 0.039694 -0.342680 0.500000 0.500000 0.000000
0.460943 -0.115443 0.233590 0.600000 0.300000 0.000000
0.418003 -0.197827 0.249588 0.600000 0.000000 0.300000
-0.617760 -0.073751 -0.252389 0.500000 0.500000 0.000000
0.367448 0.308567 -0.408755 0.500000 0.500000 0.000000
-0.634443 0.373336 -0.479147 0.500000 0.500000 0.000000
0.352329 -0.123180 0.187209 0.600000 0.300000 0.000000
-0.620892 -0.207045 0.517062 0.600000 0.000000 0.300000
0.567457 -0.207045 0.632754 0.600000 0.000000 0.300000
0.316720 0.580082 -0.530694 0.500000 0.500000 0.000000
-0.444278 0.393906 -0.487518 0.500000 0.500000 0.000000
0.640313 -0.111260 -0.099236 0.600000 0.000000 0.300000
-0.660726 -0.154351 0.070778 0.600000 0.000000 0.300000
-0.220351 -0.111260 0.643675 0.600000 0.000000 0.300000
0.228940 -0.115443 0.166804 0.600000 0.300000 0.000000
0.552828 0.238303 -0.419620 0.500000 0.500000 0.000000
0.286150 -0.197827 0.486592 0.600000 0.000000 0.300000
-0.185615 -0.207045 0.009510 0.600000 0.000000 0.300000
-0.127172 -0.197827 0.336584 0.600000 0.000000 0.300000
-0.461723 -0.111260 -0.031883 0.600000 0.000000 0.300000
-0.644130 -0.006411 -0.279132 0.500000 0.500000 0.000000
-0.641274 0.416538 -0.452328 0.500000 0.500000 0.000000
-0.229550 -0.170785 -0.211577 0.500000 0.000000 0.500000
0.177494 -0.115170 0.760403 0.600000 0.000000 0.300000
0.103301 -0.102436 -0.121401 0.600000 0.000000 0.300000
0.081067 0.488695 -0.464148 0.000000 1.000000 0.000000
0.639298 -0.194357 0.671815 0.600000 0.000000 0.300000
0.407201 0.468337 -0.456076 0.000000 1.000000 0.000000
-0.283014 -0.205528 0.196443 0.600000 0.000000 0.300000
-0.297667 -0.111260 -0.065143 0.600000 0.000000 0.300000
-0.298187 -0.153310 -0.199282 0.500000 0.500000 0.000000
0.118488 -0.118774 0.057672 0.600000 0.300000 0.000000
-0.617009 0.165428 -0.331535 0.000000 1.000000 0.000000
0.165378 -0.130965 0.737363 0.600000 0.000000 0.300000
-0.567090 0.284715 -0.381439 0.000000 1.000000 0.000000
0.572429 0.567283 -0.504041 0.500000 0.500000 0.000000
-0.254521 -0.153942 0.673300 0.600000 0.000000 0.300000
0.518315 0.519315 -0.494958 0.500000 0.500000 0.000000
0.505988 -0.127992 0.240255 0.600000 0.300000 0.000000
0.345330 -0.197827 0.330000 0.600000 0.000000 0.300000
0.128903 0.249124 -0.437692 0.300000 0.000000 0.600000
0.553573 -0.115443 0.150341 0.600000 0.300000 0.000000
-0.486333 0.311032 -0.453619 0.500000 0.500000 0.000000
-0.261942 -0.111260 0.692656 0.600000 0.000000 0.300000
-0.153398 -0.114737 -0.178463 0.500000 0.500000 0.000000
-0.107456 -0.098889 -0.120532 0.600000 0.000000 0.300000
-0.377328 -0.111260 0.472958 0.600000 0.000000 0.300000
-0.352477 0.560554 -0.540242 0.500000 0.500000 0.000000
-0.566556 -0.127992 0.244167 0.600000 0.300000 0.000000
0.142680 -0.115443 0.216808 0.600000 0.300000 0.000000
-0.068205 -0.108190 -0.201695 0.500000 0.500000 0.000000
-0.602044 0.554252 -0.540916 0.500000 0.500000 0.000000
-0.172221 -0.111260 0.574453 0.600000 0.000000 0.300000
-0.457680 0.137419 -0.320072 0.000000 1.000000 0.000000
0.409645 -0.122343 0.135101 0.600000 0.300000 0.000000
-0.208674 0.158966 -0.347581 0.500000 0.500000 0.000000
0.044135 0.372929 -0.475799 0.500000 0.500000 0.000000
-0.310848 -0.166129 0.690393 0.600000 0.000000 0.300000
0.535131 -0.097304 -0.236316 0.500000 0.500000 0.000000
0.273546 -0.115443 0.295448 0.600000 0.300000 0.000000
0.459765 0.279305 -0.436371 0.500000 0.500000 0.000000
-0.605557 -0.207045 0.490507 0.600000 0.000000 0.300000
0.653522 0.242498 -0.381732 0.500000 0.500000 0.000000
0.571346 -0.115443 0.236309 0.600000 0.300000 0.000000
0.117167 -0.113277 -0.142920 0.600000 0.000000 0.300000
0.452326 0.151251 -0.388267 0.500000 0.500000 0.000000
0.634939 0.157755 -0.328899 0.500000 0.500000 0.000000
-0.635523 -0.127992 0.381865 0.600000 0.000000 0.300000
-0.474765 0.404939 -0.492027 0.500000 0.500000 0.000000
-0.558415 -0.115443 0.393066 0.600000 0.300000 0.000000
0.215184 -0.207045 -0.020152 0.600000 0.000000 0.300000
0.380864 -0.124829 -0.215792 0.500000 0.500000 0.000000
0.620925 0.471280 -0.456626 0.000000 1.000000 0.000000
-0.280176 -0.197827 0.350424 0.600000 0.000000 0.300000
-0.018766 0.372730 -0.480409 0.300000 0.000000 0.600000
0.099982 0.257582 -0.369261 0.000000 1.000000 0.000000
0.231428 0.197886 -0.345925 0.000000 1.000000 0.000000
-0.334786 -0.111260 0.713004 0.600000 0.000000 0.300000
0.004342 0.298807 -0.404797 0.500000 0.500000 0.000000
0.705539 0.318191 -0.409054 0.500000 0.500000 0.000000
0.285723 -0.175660 -0.211577 0.500000 0.000000 0.500000
0.060329 -0.088515 -0.075626 0.600000 0.000000 0.300000
0.279004 -0.111260 0.714636 0.600000 0.000000 0.300000
-0.051103 -0.207045 0.597346 0.600000 0.000000 0.300000
0.352950 0.531321 -0.499868 0.500000 0.500000 0.000000
0.359816 0.492423 -0.524316 0.500000 0.500000 0.000000
-0.420591 -0.207045 0.609412 0.600000 0.000000 0.300000
0.615970 -0.207045 0.486083 0.600000 0.000000 0.300000
0.287746 -0.113277 -0.141079 0.600000 0.000000 0.300000
-0.179760 -0.115443 0.347016 0.600000 0.300000 0.000000
-0.651434 0.542407 -0.529424 0.500000 0.500000 0.000000
-0.151531 -0.105554 -0.278971 0.500000 0.500000 0.000000
-0.465380 0.257930 -0.370483 0.000000 1.000000 0.000000
0.288280 0.309370 -0.452939 0.500000 0.500000 0.000000
-0.472705 0.360806 -0.430128 0.500000 0.500000 0.000000
-0.467415 -0.111260 0.590220 0.600000 0.000000 0.300000
-0.230020 -0.207045 0.668427 0.600000 0.000000 0.300000
-0.585667 -0.207045 0.415251 0.600000 0.000000 0.300000
-0.531094 -0.115443 0.280640 0.600000 0.300000 0.000000
0.081122 0.161386 -0.348571 0.500000 0.500000 0.000000
0.662092 0.203225 -0.365664 0.500000 0.500000 0.000000
-0.210738 0.339200 -0.421288 0.500000 0.500000 0.000000
-0.098022 0.370149 -0.433993 0.500000 0.500000 0.000000
-0.491664 -0.146065 -0.201201 0.500000 0.500000 0.000000
0.574015 0.282464 -0.441929 0.500000 0.500000 0.000000
-0.487236 0.578396 -0.499487 0.500000 0.500000 0.000000
-0.006020 -0.115443 0.144707 0.600000 0.300000 0.000000
0.704250 -0.163486 0.227130 0.600000 0.000000 0.300000
0.446373 -0.111260 0.709685 0.600000 0.000000 0.300000
-0.258801 0.524512 -0.537291 0.500000 0.500000 0.000000
0.535263 -0.111260 0.649786 0.600000 0.000000 0.300000
-0.144645 0.166488 -0.332410 0.000000 1.000000 0.000000
-0.513309 0.261344 -0.371880 0.000000 1.000000 0.000000
-0.591229 -0.167462 -0.220582 0.500000 0.500000 0.000000
0.434403 -0.194357 0.700333 0.600000 0.000000 0.300000
0.574363 0.260041 -0.370266 0.000000 1.000000 0.000000
-0.464557 -0.172016 0.673526 0.600000 0.000000 0.300000
-0.284462 -0.194357 0.707292 0.600000 0.000000 0.300000
-0.335438 -0.111260 0.013008 0.600000 0.000000 0.300000
0.143658 0.455096 -0.468739 0.500000 0.500000 0.000000
-0.250977 0.009859 -0.286583 0.500000 0.500000 0.000000
0.322841 -0.190438 0.737363 0.600000 0.000000 0.300000
0.173589 -0.207045 -0.097198 0.600000 0.000000 0.300000
0.053340 0.234502 -0.378459 0.500000 0.500000 0.000000
0.655859 -0.194357 -0.187151 0.600000 0.000000 0.300000
0.298238 0.063467 -0.308510 0.500000 0.500000 0.000000
-0.005224 0.056036 -0.349335 0.500000 0.500000 0.000000
0.509388 -0.141002 -0.201063 0.500000 0.500000 0.000000
0.310532 -0.197827 0.449583 0.600000 0.000000 0.300000
-0.607845 0.289933 -0.441582 0.500000 0.500000 0.000000
0.209916 0.153227 -0.389076 0.500000 0.500000 0.000000
0.458469 -0.207045 0.672860 0.600000 0.000000 0.300000
-0.393990 -0.207045 0.573893 0.600000 0.000000 0.300000
0.237409 -0.111260 0.711581 0.600000 0.000000 0.300000
0.032301 0.345196 -0.406175 0.000000 1.000000 0.000000
-0.611028 0.457437 -0.451988 0.000000 1.000000 0.000000
-0.568051 0.041270 -0.346265 0.500000 0.500000 0.000000
-0.537532 -0.156331 0.729852 0.600000 0.000000 0.300000
0.665919 -0.103822 -0.216782 0.500000 0.500000 0.000000
0.433971 0.114835 -0.329568 0.500000 0.500000 0.000000
-0.572032 -0.111260 0.624474 0.600000 0.000000 0.300000
0.513628 -0.105181 0.005096 0.600000 0.000000 0.300000
-0.206864 -0.196494 -0.164365 0.500000 0.000000 0.500000
0.256257 -0.185278 -0.250342 0.500000 0.500000 0.000000
0.382771 -0.107039 -0.025944 0.600000 0.000000 0.300000
-0.498152 0.456955 -0.469499 0.500000 0.500000 0.000000
-0.359599 -0.115443 0.337235 0.600000 0.300000 0.000000
-0.441272 0.284432 -0.381323 0.000000 1.000000 0.000000
0.322505 -0.121875 -0.193765 0.500000 0.500000 0.000000
0.446901 -0.111260 0.745753 0.600000 0.000000 0.300000
-0.300656 0.413009 -0.491070 0.500000 0.500000 0.000000
0.052081 0.140694 -0.379682 0.500000 0.500000 0.000000
-0.342925 0.355166 -0.410259 0.000000 1.000000 0.000000
0.615396 -0.207045 -0.058315 0.600000 0.000000 0.300000
-0.488384 0.054145 -0.286028 0.000000 1.000000 0.000000
0.235204 -0.115443 0.392236 0.600000 0.300000 0.000000
0.195532 -0.111260 0.735778 0.600000 0.000000 0.300000
0.080682 0.192041 -0.401257 0.500000 0.500000 0.000000
-0.122877 0.035611 -0.341018 0.500000 0.500000 0.000000
0.596614 0.248688 -0.384266 0.500000 0.500000 0.000000
-0.413763 -0.165794 -0.212481 0.500000 0.500000 0.000000
0.011867 -0.116950 0.434698 0.600000 0.000000 0.300000
0.367012 -0.127992 0.122890 0.600000 0.300000 0.000000
0.546809 -0.120354 -0.217848 0.500000 0.500000 0.000000
-0.398302 -0.207045 0.067162 0.600000 0.000000 0.300000
0.120473 -0.127992 0.365008 0.600000 0.300000 0.000000
-0.680910 -0.162955 0.036164 0.600000 0.000000 0.300000
0.613501 0.183584 -0.340073 0.000000 1.000000 0.000000
0.644326 -0.207045 0.088021 0.600000 0.000000 0.300000
-0.340925 -0.166129 0.663538 0.600000 0.000000 0.300000
-0.339593 -0.202994 0.220273 0.600000 0.000000 0.300000
0.206565 0.440673 -0.445226 0.000000 1.000000 0.000000
-0.327785 -0.207045 0.522883 0.600000 0.000000 0.300000
-0.484263 -0.111260 0.603920 0.600000 0.000000 0.300000
-0.656758 -0.178750 0.135429 0.600000 0.000000 0.300000
0.536687 -0.178369 -0.210020 0.500000 0.500000 0.000000
0.161637 0.510728 -0.473883 0.500000 0.500000 0.000000
-0.397954 -0.122134 0.248307 0.600000 0.300000 0.000000
0.586029 0.350566 -0.465532 0.500000 0.500000 0.000000
-0.636527 0.258565 -0.369949 0.500000 0.500000 0.000000
-0.286395 -0.121159 -0.272808 0.500000 0.500000 0.000000
0.141128 0.142397 -0.340839 0.500000 0.500000 0.000000
-0.573619 -0.127992 0.303107 0.600000 0.300000 0.000000
0.449483 0.581990 -0.537621 0.500000 0.500000 0.000000
-0.050057 0.364629 -0.431710 0.500000 0.500000 0.000000
0.732882 -0.126731 0.636838 0.600000 0.000000 0.300000
-0.205641 0.223560 -0.374015 0.500000 0.500000 0.000000
0.508736 -0.115443 0.375743 0.600000 0.300000 0.000000
0.131266 0.227694 -0.375690 0.500000 0.500000 0.000000
0.234802 -0.115443 0.099885 0.600000 0.300000 0.000000
0.003615 -0.111260 0.030061 0.600000 0.000000 0.300000
0.289123 0.483752 -0.524264 0.500000 0.500000 0.000000
0.705295 -0.014307 -0.270657 0.500000 0.500000 0.000000
-0.276771 0.538542 -0.546674 0.500000 0.500000 0.000000
0.472714 -0.197827 0.185225 0.600000 0.000000 0.300000
-0.376750 -0.115443 0.160177 0.600000 0.300000 0.000000
-0.064029 0.422885 -0.455514 0.500000 0.500000 0.000000
-0.535288 0.026039 -0.274556 0.000000 1.000000 0.000000
-0.478067 0.059938 -0.346633 0.500000 0.500000 0.000000
-0.400626 0.419569 -0.498011 0.500000 0.500000 0.000000
0.111836 -0.196494 -0.185674 0.500000 0.000000 0.500000
0.500132 0.333468 -0.400298 0.000000 1.000000 0.000000
0.257139 -0.111260 0.649783 0.600000 0.000000 0.300000
0.692632 -0.127992 0.279537 0.600000 0.000000 0.300000
-0.024751 0.126400 -0.316472 0.000000 1.000000 0.000000
0.594712 0.204740 -0.348733 0.000000 1.000000 0.000000
-0.440100 -0.162133 0.726629 0.600000 0.000000 0.300000
0.425836 -0.156866 -0.262254 0.500000 0.500000 0.000000
0.259787 0.351892 -0.466070 0.500000 0.500000 0.000000
-0.574059 0.506679 -0.472117 0.000000 1.000000 0.000000
0.132439 -0.127992 0.246837 0.600000 0.300000 0.000000
0.485122 -0.178100 -0.187931 0.500000 0.500000 0.000000
-0.118181 0.380345 -0.491362 0.300000 0.000000 0.600000
0.063861 0.437581 -0.502200 0.500000 0.500000 0.000000
0.190808 -0.207045 0.235277 0.600000 0.000000 0.300000
0.705742 0.196975 -0.382606 0.500000 0.500000 0.000000
0.229144 -0.201017 0.301432 0.600000 0.000000 0.300000
0.301151 -0.207045 -0.117013 0.600000 0.000000 0.300000
-0.239734 -0.207045 0.555014 0.600000 0.000000 0.300000
-0.651029 -0.127992 0.348911 0.600000 0.000000 0.300000
-0.171182 -0.115443 0.416369 0.600000 0.300000 0.000000
-0.230004 0.463344 -0.472113 0.500000 0.500000 0.000000
-0.224088 0.428891 -0.457971 0.500000 0.500000 0.000000
0.202452 0.351230 -0.465803 0.500000 0.500000 0.000000
-0.376313 0.067807 -0.291640 0.000000 1.000000 0.000000
-0.563933 -0.190721 -0.203587 0.500000 0.500000 0.000000
0.429412 -0.111260 -0.037180 0.600000 0.000000 0.300000
0.160702 0.083627 -0.316755 0.500000 0.500000 0.000000
0.137536 0.112711 -0.368248 0.500000 0.500000 0.000000
0.119132 0.577557 -0.512819 0.500000 0.500000 0.000000
0.563565 0.457353 -0.469661 0.500000 0.500000 0.000000
0.441216 0.282247 -0.397994 0.500000 0.500000 0.000000
0.339208 -0.111260 0.559565 0.600000 0.000000 0.300000
0.005595 -0.197827 0.267205 0.600000 0.000000 0.300000
0.420139 0.154679 -0.345831 0.500000 0.500000 0.000000
-0.645006 0.173331 -0.352934 0.500000 0.500000 0.000000
0.187686 0.068474 -0.354420 0.500000 0.500000 0.000000
-0.095597 -0.116562 0.564309 0.500000 0.000000 0.500000
-0.263654 -0.111260 0.548829 0.600000 0.000000 0.300000
-0.375473 0.006124 -0.267497 0.000000 1.000000 0.000000
0.354478 -0.158805 -0.198049 0.500000 0.500000 0.000000
0.575081 -0.168081 -0.239937 0.500000 0.500000 0.000000
0.671381 -0.194357 0.263381 0.600000 0.000000 0.300000
0.322034 -0.194357 0.699356 0.600000 0.000000 0.300000
0.661585 0.422987 -0.455554 0.500000 0.500000 0.000000
0.139500 -0.197827 0.318820 0.600000 0.000000 0.300000
0.473754 0.496388 -0.529431 0.500000 0.500000 0.000000
-0.028732 0.307948 -0.408502 0.500000 0.500000 0.000000
0.106159 -0.043469 -0.264803 0.500000 0.500000 0.000000
-0.648893 -0.127992 0.285846 0.600000 0.000000 0.300000
0.617694 0.033397 -0.278646 0.000000 1.000000 0.000000
0.660946 -0.194357 -0.105725 0.600000 0.000000 0.300000
-0.204922 -0.084574 -0.287848 0.500000 0.500000 0.000000
0.421821 0.029653 -0.277115 0.000000 1.000000 0.000000
-0.147501 -0.192961 -0.211577 0.500000 0.000000 0.500000
0.533985 0.181270 -0.356699 0.500000 0.500000 0.000000
0.682998 -0.194357 0.571068 0.600000 0.000000 0.300000
-0.129721 -0.113277 0.003115 0.600000 0.000000 0.300000
0.178016 -0.114989 0.037685 0.600000 0.000000 0.300000
-0.458624 0.146069 -0.342335 0.500000 0.500000 0.000000
0.273644 0.207375 -0.349812 0.000000 1.000000 0.000000
0.216879 0.549036 -0.505363 0.500000 0.500000 0.000000
0.691354 -0.194357 0.516545 0.600000 0.000000 0.300000
-0.648420 -0.178991 0.445229 0.600000 0.000000 0.300000
-0.608863 0.483185 -0.480207 0.500000 0.500000 0.000000
0.180545 0.440742 -0.445255 0.000000 1.000000 0.000000
-0.004518 -0.196494 -0.201046 0.500000 0.000000 0.500000
0.205363 -0.041353 -0.248071 0.000000 1.000000 0.000000
-0.539844 -0.169594 0.708177 0.600000 0.000000 0.300000
-0.525962 0.135387 -0.319242 0.000000 1.000000 0.000000
0.145292 -0.197827 0.449017 0.600000 0.000000 0.300000
0.597315 -0.085061 -0.228387 0.500000 0.500000 0.000000
0.409454 0.424787 -0.456291 0.500000 0.500000 0.000000
0.466479 -0.111162 -0.193832 0.500000 0.500000 0.000000
-0.673077 -0.164176 0.387869 0.600000 0.000000 0.300000
0.571169 -0.207045 0.338488 0.600000 0.000000 0.300000
-0.161235 -0.000968 -0.326030 0.500000 0.500000 0.000000
-0.515539 0.275683 -0.439157 0.500000 0.500000 0.000000
0.353249 0.578931 -0.532699 0.500000 0.500000 0.000000
-0.060707 -0.194357 0.721678 0.600000 0.000000 0.300000
-0.168947 -0.115443 0.169826 0.600000 0.300000 0.000000
-0.250484 0.121716 -0.376196 0.500000 0.500000 0.000000
0.594981 -0.183392 -0.207514 0.500000 0.500000 0.000000
0.697240 0.137873 -0.354003 0.500000 0.500000 0.000000
-0.439438 -0.111260 0.552994 0.600000 0.000000 0.300000
0.213254 -0.115443 0.255178 0.600000 0.300000 0.000000
0.037530 -0.115443 0.234100 0.600000 0.300000 0.000000
0.113258 0.422616 -0.495657 0.500000 0.500000 0.000000
-0.684262 -0.159653 0.058773 0.600000 0.000000 0.300000
0.108254 -0.116562 0.653203 0.500000 0.000000 0.500000
0.662707 -0.128375 0.717929 0.600000 0.000000 0.300000
-0.582640 -0.113108 0.034794 0.600000 0.000000 0.300000
0.208381 -0.111260 0.659967 0.600000 0.000000 0.300000
-0.385850 -0.127992 0.366205 0.600000 0.300000 0.000000
0.341261 -0.058803 -0.298099 0.500000 0.500000 0.000000
0.579303 -0.194357 -0.134896 0.600000 0.000000 0.300000
-0.443042 -0.197827 0.393437 0.600000 0.000000 0.300000
0.678910 0.223262 -0.410147 0.500000 0.500000 0.000000
-0.327967 -0.207045 0.130234 0.600000 0.000000 0.300000
0.128193 0.159093 -0.347633 0.500000 0.500000 0.000000
-0.396886 -0.111260 -0.033271 0.600000 0.000000 0.300000
-0.486606 -0.194357 -0.161625 0.600000 0.000000 0.300000
-0.396661 0.376890 -0.436725 0.500000 0.500000 0.000000
0.354081 0.095435 -0.361916 0.500000 0.500000 0.000000
0.653418 -0.206142 0.005465 0.600000 0.000000 0.300000
0.045470 -0.109551 0.701126 0.000000 0.500000 0.500000
0.456739 -0.197827 0.238347 0.600000 0.000000 0.300000
0.430838 -0.115443 0.343408 0.600000 0.300000 0.000000
-0.460911 -0.111260 0.742787 0.600000 0.000000 0.300000
-0.545500 0.346774 -0.424386 0.500000 0.500000 0.000000
0.497155 -0.194357 -0.168958 0.600000 0.000000 0.300000
-0.259397 -0.115443 0.352747 0.600000 0.300000 0.000000
0.305506 -0.115443 0.127640 0.600000 0.300000 0.000000
-0.069980 -0.134450 -0.200748 0.500000 0.500000 0.000000
-0.536331 0.256189 -0.369770 0.000000 1.000000 0.000000
-0.433544 0.312932 -0.410541 0.500000 0.500000 0.000000
-0.218512 -0.118078 0.085198 0.600000 0.300000 0.000000
0.210591 -0.126015 0.311527 0.600000 0.300000 0.000000
0.442175 0.293930 -0.442363 0.500000 0.500000 0.000000
-0.126290 -0.196494 -0.204093 0.500000 0.000000 0.500000
-0.650568 0.466165 -0.469628 0.500000 0.500000 0.000000
0.507605 -0.115443 0.138628 0.600000 0.300000 0.000000
0.622684 0.371647 -0.415925 0.000000 1.000000 0.000000
-0.310463 0.145925 -0.386088 0.500000 0.500000 0.000000
-0.051317 -0.115443 0.354613 0.600000 0.300000 0.000000
0.293329 -0.054074 -0.260435 0.500000 0.500000 0.000000
-0.324032 -0.207045 0.617958 0.600000 0.000000 0.300000
-0.497847 0.360506 -0.412445 0.000000 1.000000 0.000000
0.379859 -0.176300 -0.245313 0.500000 0.500000 0.000000
0.221495 0.433420 -0.499419 0.500000 0.500000 0.000000
0.068970 0.291970 -0.384245 0.000000 1.000000 0.000000
0.442725 -0.101814 -0.064762 0.600000 0.000000 0.300000
-0.376419 0.563656 -0.503234 0.500000 0.500000 0.000000
0.067535 0.539778 -0.540487 0.500000 0.500000 0.000000
0.031646 0.092455 -0.302802 0.000000 1.000000 0.000000
0.692007 -0.127992 0.097278 0.600000 0.000000 0.300000
-0.059301 -0.111260 0.751568 0.600000 0.000000 0.300000
0.534774 0.526540 -0.541799 0.500000 0.500000 0.000000
-0.655631 -0.173198 0.644450 0.600000 0.000000 0.300000
0.695489 -0.169993 -0.176047 0.600000 0.000000 0.300000
0.677280 0.127122 -0.334914 0.500000 0.500000 0.000000
-0.353800 -0.153942 0.727201 0.600000 0.000000 0.300000
-0.634442 0.480082 -0.478922 0.500000 0.500000 0.000000
-0.222081 0.224825 -0.356957 0.000000 1.000000 0.000000
0.281502 -0.054199 -0.304229 0.500000 0.500000 0.000000
0.495722 -0.183601 -0.206367 0.500000 0.500000 0.000000
-0.616313 0.171572 -0.352738 0.500000 0.500000 0.000000
-0.510750 -0.207045 0.673702 0.600000 0.000000 0.300000
-0.257034 -0.115443 0.174367 0.600000 0.300000 0.000000
-0.175520 0.111088 -0.367582 0.500000 0.500000 0.000000
0.678552 -0.114801 -0.237698 0.500000 0.500000 0.000000
-0.133008 0.161845 -0.388350 0.500000 0.500000 0.000000
-0.102410 0.534627 -0.483536 0.500000 0.500000 0.000000
-0.044063 -0.207045 0.636524 0.600000 0.000000 0.300000
-0.255701 -0.207045 0.519993 0.600000 0.000000 0.300000
-0.545802 -0.127992 0.243329 0.600000 0.300000 0.000000
0.543194 0.280923 -0.378806 0.000000 1.000000 0.000000
-0.553664 -0.207045 -0.008688 0.600000 0.000000 0.300000
0.534269 -0.115443 0.355640 0.600000 0.300000 0.000000
0.317317 -0.111260 0.485764 0.600000 0.000000 0.300000
0.456056 -0.079587 -0.250010 0.500000 0.500000 0.000000
0.180936 0.124156 -0.333376 0.500000 0.500000 0.000000
-0.673077 -0.188756 -0.059978 0.600000 0.000000 0.300000
0.561243 -0.127992 0.190497 0.600000 0.300000 0.000000
0.415581 0.391662 -0.424069 0.000000 1.000000 0.000000
0.276976 -0.204492 0.693939 0.600000 0.000000 0.300000
-0.174171 -0.207045 0.052541 0.600000 0.000000 0.300000
0.433671 0.396228 -0.444613 0.500000 0.500000 0.000000
0.150952 -0.088515 -0.055325 0.600000 0.000000 0.300000
0.643692 -0.207045 0.308059 0.600000 0.000000 0.300000
0.079615 -0.194357 0.702609 0.600000 0.000000 0.300000
-0.398098 0.442272 -0.503040 0.500000 0.500000 0.000000
-0.564861 0.011912 -0.287423 0.500000 0.500000 0.000000
-0.310336 -0.207045 -0.095244 0.600000 0.000000 0.300000
0.525618 -0.111260 0.677590 0.600000 0.000000 0.300000
-0.439492 -0.115443 0.164525 0.600000 0.300000 0.000000
-0.329754 -0.099892 -0.233684 0.500000 0.500000 0.000000
-0.598898 0.256738 -0.387559 0.500000 0.500000 0.000000
-0.210143 0.241619 -0.421039 0.500000 0.500000 0.000000
-0.668988 -0.188869 0.238970 0.600000 0.000000 0.300000
-0.645504 -0.188740 0.085797 0.600000 0.000000 0.300000
0.305633 0.398665 -0.485206 0.500000 0.500000 0.000000
0.398300 -0.197827 0.460125 0.600000 0.000000 0.300000
-0.038543 0.153022 -0.345158 0.500000 0.500000 0.000000
-0.335580 -0.101893 -0.117680 0.600000 0.000000 0.300000
-0.349369 -0.115443 0.356955 0.600000 0.300000 0.000000
0.152191 -0.115443 0.359714 0.600000 0.300000 0.000000
-0.460696 0.387329 -0.440972 0.500000 0.500000 0.000000
0.479323 -0.197827 0.476195 0.600000 0.000000 0.300000
0.145255 -0.109551 0.696506 0.000000 0.500000 0.500000
0.697691 -0.134033 -0.172222 0.600000 0.000000 0.300000
0.197619 0.402766 -0.447286 0.500000 0.500000 0.000000
-0.426145 -0.207045 0.682375 0.600000 0.000000 0.300000
-0.289670 -0.201807 0.401235 0.600000 0.000000 0.300000
0.570410 0.531109 -0.499780 0.500000 0.500000 0.000000
0.490774 -0.111260 0.652613 0.600000 0.000000 0.300000
-0.114247 0.291074 -0.401636 0.500000 0.500000 0.000000
0.034065 0.569222 -0.512966 0.500000 0.500000 0.000000
-0.657919 -0.110052 -0.172897 0.500000 0.500000 0.000000
0.069603 0.269797 -0.392901 0.500000 0.500000 0.000000
0.166064 0.035223 -0.279394 0.000000 1.000000 0.000000
-0.480749 0.156171 -0.390279 0.500000 0.500000 0.000000
0.201039 0.213921 -0.352491 0.000000 1.000000 0.000000
-0.114605 -0.022690 -0.312865 0.500000 0.500000 0.000000
0.704250 -0.146063 0.300111 0.600000 0.000000 0.300000
0.480228 0.394168 -0.425100 0.000000 1.000000 0.000000
0.013899 -0.197827 0.218149 0.600000 0.000000 0.300000
-0.251654 -0.127992 0.258300 0.600000 0.300000 0.000000
0.548056 -0.127992 0.757673 0.600000 0.000000 0.300000
0.323710 -0.085326 -0.226788 0.500000 0.500000 0.000000
0.396869 0.472458 -0.519644 0.500000 0.500000 0.000000
0.179915 0.498809 -0.468594 0.000000 1.000000 0.000000
0.348408 -0.197827 0.095642 0.600000 0.000000 0.300000
-0.581642 0.330659 -0.461657 0.500000 0.500000 0.000000
-0.643025 -0.127992 0.107932 0.600000 0.000000 0.300000
-0.660029 -0.176996 0.602013 0.600000 0.000000 0.300000
0.409557 0.512283 -0.474520 0.500000 0.500000 0.000000
0.654073 0.376038 -0.436379 0.500000 0.500000 0.000000
-0.184785 0.483672 -0.524231 0.500000 0.500000 0.000000
0.358666 -0.003338 -0.320787 0.500000 0.500000 0.000000
-0.337463 0.490189 -0.526897 0.500000 0.500000 0.000000
-0.522798 -0.205717 -0.122287 0.600000 0.000000 0.300000
0.298156 0.358883 -0.473242 0.500000 0.500000 0.000000
-0.443675 -0.139079 -0.195460 0.500000 0.500000 0.000000
-0.434206 -0.099368 -0.285758 0.500000 0.500000 0.000000
-0.159538 -0.113277 -0.121743 0.600000 0.000000 0.300000
0.481816 -0.207045 0.042393 0.600000 0.000000 0.300000
0.456601 -0.207045 0.281277 0.600000 0.000000 0.300000
-0.501928 -0.148373 -0.218257 0.500000 0.500000 0.000000
0.337120 0.334167 -0.458823 0.500000 0.500000 0.000000
0.640771 -0.111260 0.707866 0.600000 0.000000 0.300000
0.423885 -0.105270 -0.221868 0.300000 0.000000 0.600000
0.627638 0.110061 -0.327610 0.500000 0.500000 0.000000
-0.453020 -0.207045 0.662210 0.600000 0.000000 0.300000
0.103081 -0.194357 0.706601 0.600000 0.000000 0.300000
-0.102470 -0.060186 -0.257934 0.500000 0.500000 0.000000
-0.456271 -0.207045 0.148877 0.600000 0.000000 0.300000
-0.274897 0.100139 -0.323510 0.500000 0.500000 0.000000
-0.314854 -0.111260 0.653516 0.600000 0.000000 0.300000
-0.186983 0.451953 -0.467454 0.500000 0.500000 0.000000
-0.553144 -0.207045 -0.044919 0.600000 0.000000 0.300000
0.416195 -0.111260 0.681819 0.600000 0.000000 0.300000
-0.042756 -0.108292 -0.200331 0.500000 0.500000 0.000000
-0.151441 -0.207045 0.626796 0.600000 0.000000 0.300000
0.115911 -0.180441 -0.211577 0.500000 0.000000 0.500000
0.194031 0.176074 -0.394254 0.500000 0.500000 0.000000
-0.592272 0.133799 -0.337324 0.500000 0.500000 0.000000
-0.131795 -0.127992 0.169818 0.600000 0.300000 0.000000
-0.676110 -0.171208 0.143209 0.600000 0.000000 0.300000
0.139846 0.265319 -0.372424 0.000000 1.000000 0.000000
0.559731 -0.111260 0.501229 0.600000 0.000000 0.300000
0.110685 0.310970 -0.454870 0.300000 0.000000 0.600000
0.086046 -0.107303 -0.203959 0.500000 0.500000 0.000000
-0.243969 -0.201807 0.422804 0.600000 0.000000 0.300000
0.684940 -0.124164 -0.188097 0.600000 0.000000 0.300000
0.332309 0.101013 -0.306302 0.000000 1.000000 0.000000
0.357432 -0.108931 -0.189840 0.500000 0.500000 0.000000
0.599638 0.327177 -0.455965 0.500000 0.500000 0.000000
-0.408285 0.105922 -0.366548 0.500000 0.500000 0.000000
-0.296208 -0.109375 -0.157477 0.500000 0.500000 0.000000
-0.314718 -0.076824 -0.295000 0.500000 0.500000 0.000000
-0.021024 -0.115443 0.227012 0.600000 0.300000 0.000000
0.112959 0.005908 -0.284967 0.500000 0.500000 0.000000
0.310499 -0.101814 -0.139815 0.600000 0.000000 0.300000
0.592536 -0.111260 0.479261 0.600000 0.000000 0.300000
-0.102430 -0.018109 -0.257545 0.000000 1.000000 0.000000
0.624384 -0.113947 -0.279796 0.500000 0.500000 0.000000
0.509692 0.539614 -0.503262 0.500000 0.500000 0.000000
0.670807 0.481574 -0.460734 0.500000 0.500000 0.000000
-0.318881 -0.022940 -0.317020 0.500000 0.500000 0.000000
-0.670234 0.326188 -0.431434 0.500000 0.500000 0.000000
0.207222 -0.113322 -0.170276 0.500000 0.500000 0.000000
-0.624567 -0.194357 0.180643 0.600000 0.000000 0.300000
0.022757 -0.009178 -0.278798 0.500000 0.500000 0.000000
0.708769 -0.147241 -0.084398 0.600000 0.000000 0.300000
0.269595 -0.207045 0.132356 0.600000 0.000000 0.300000
-0.261283 0.254431 -0.368543 0.000000 1.000000 0.000000
-0.042154 -0.090832 -0.069548 0.600000 0.000000 0.300000
-0.461485 0.109631 -0.308745 0.000000 1.000000 0.000000
-0.684800 -0.140190 0.051567 0.600000 0.000000 0.300000
0.526737 0.083518 -0.316710 0.500000 0.500000 0.000000
0.042079 -0.116121 0.268502 0.600000 0.300000 0.000000
-0.124289 -0.194357 0.725959 0.600000 0.000000 0.300000
-0.581462 -0.194357 0.711154 0.600000 0.000000 0.300000
-0.348248 0.111586 -0.372087 0.500000 0.500000 0.000000
-0.572865 -0.111260 0.585255 0.600000 0.000000 0.300000
-0.581123 0.157109 -0.346822 0.500000 0.500000 0.000000
0.514249 0.288462 -0.400557 0.500000 0.500000 0.000000
0.000280 0.390380 -0.442221 0.500000 0.500000 0.000000
0.036052 0.157964 -0.347171 0.500000 0.500000 0.000000
0.651558 0.183441 -0.340014 0.500000 0.500000 0.000000
-0.032895 0.461593 -0.471396 0.500000 0.500000 0.000000
-0.366999 -0.127401 0.056763 0.600000 0.000000 0.300000
-0.448358 -0.207045 0.288640 0.600000 0.000000 0.300000
-0.281370 -0.111260 0.660228 0.600000 0.000000 0.300000
-0.612442 -0.107666 -0.282365 0.500000 0.500000 0.000000
0.462557 0.032305 -0.339667 0.500000 0.500000 0.000000
-0.358825 0.159413 -0.388369 0.500000 0.500000 0.000000
0.051874 0.476289 -0.477406 0.500000 0.500000 0.000000
-0.383995 0.247467 -0.383766 0.500000 0.500000 0.000000
-0.412902 -0.132190 -0.214684 0.500000 0.500000 0.000000
0.308641 0.293486 -0.383946 0.000000 1.000000 0.000000
0.448189 -0.108348 -0.021741 0.600000 0.000000 0.300000
-0.224932 -0.194357 0.732453 0.600000 0.000000 0.300000
-0.021664 0.158380 -0.391183 0.500000 0.500000 0.000000
-0.411134 -0.207045 0.219636 0.600000 0.000000 0.300000
-0.424019 0.353731 -0.427230 0.500000 0.500000 0.000000
0.001691 -0.207045 0.443760 0.600000 0.000000 0.300000
0.398557 0.350825 -0.407400 0.000000 1.000000 0.000000
-0.605078 0.162000 -0.392664 0.500000 0.500000 0.000000
-0.621576 -0.127992 0.180219 0.600000 0.000000 0.300000
0.019916 -0.099523 -0.121401 0.600000 0.000000 0.300000
0.554918 -0.222519 -0.028165 0.600000 0.000000 0.300000
-0.643394 0.010559 -0.326952 0.500000 0.500000 0.000000
0.317133 -0.197827 0.319548 0.600000 0.000000 0.300000
-0.328399 0.505922 -0.489480 0.500000 0.500000 0.000000
-0.059655 0.230839 -0.376963 0.500000 0.500000 0.000000
-0.197764 -0.104983 -0.015490 0.600000 0.000000 0.300000
-0.140520 -0.207045 0.100831 0.600000 0.000000 0.300000
0.000392 -0.207045 0.402822 0.600000 0.000000 0.300000
0.226764 0.526859 -0.498043 0.500000 0.500000 0.000000
-0.037700 -0.207045 0.536075 0.600000 0.000000 0.300000
-0.219675 0.352502 -0.466318 0.500000 0.500000 0.000000
0.101508 -0.092847 -0.288425 0.500000 0.500000 0.000000
-0.043372 -0.040978 -0.309639 0.500000 0.500000 0.000000
-0.397934 0.444460 -0.464383 0.500000 0.500000 0.000000
0.170625 0.132017 -0.318580 0.000000 1.000000 0.000000
0.484729 0.409489 -0.489990 0.500000 0.500000 0.000000
0.060251 0.415112 -0.452334 0.500000 0.500000 0.000000
-0.357695 -0.111260 -0.049594 0.600000 0.000000 0.300000
-0.637235 0.480722 -0.519451 0.500000 0.500000 0.000000
-0.563141 0.463336 -0.454202 0.000000 1.000000 0.000000
0.172519 -0.112950 0.515867 0.500000 0.000000 0.500000
0.593577 -0.115443 0.343851 0.600000 0.300000 0.000000
-0.354777 -0.115443 0.095197 0.600000 0.300000 0.000000
-0.531903 0.569909 -0.554387 0.500000 0.500000 0.000000
-0.673077 -0.171601 0.356097 0.600000 0.000000 0.300000
0.170812 -0.127868 0.238792 0.600000 0.300000 0.000000
0.371851 -0.118296 0.042769 0.600000 0.000000 0.300000
0.233426 0.097803 -0.322554 0.500000 0.500000 0.000000
0.721126 -0.127992 0.470308 0.600000 0.000000 0.300000
-0.347902 -0.207045 0.153749 0.600000 0.000000 0.300000
-0.016232 -0.207045 0.296218 0.600000 0.000000 0.300000
-0.521779 -0.127992 0.739155 0.600000 0.000000 0.300000
0.297329 -0.117184 0.434337 0.600000 0.000000 0.300000
0.710161 -0.184434 0.591612 0.600000 0.000000 0.300000
-0.013902 -0.127675 -0.197759 0.500000 0.500000 0.000000
0.682715 0.275235 -0.375894 0.500000 0.500000 0.000000
0.262376 0.311520 -0.409965 0.500000 0.500000 0.000000
-0.383866 0.123553 -0.314430 0.000000 1.000000 0.000000
0.592206 -0.207045 0.185825 0.600000 0.000000 0.300000
0.128640 -0.111260 0.748845 0.600000 0.000000 0.300000
-0.502391 -0.050702 -0.306697 0.500000 0.500000 0.000000
0.399180 0.585543 -0.498224 0.500000 0.500000 0.000000
0.552359 -0.115443 0.075274 0.600000 0.300000 0.000000
-0.103904 -0.152808 -0.209258 0.500000 0.000000 0.500000
0.127066 -0.088515 -0.088956 0.600000 0.000000 0.300000
