0.391386 -0.332739 0.083153 0.500000 0.500000 0.000000
-0.233675 0.485709 0.073529 0.500000 0.500000 0.000000
-0.101808 0.568929 0.018788 0.500000 0.500000 0.000000
0.392946 0.625935 0.018788 0.500000 0.500000 0.000000
0.440139 -0.349380 0.016972 0.500000 0.500000 0.000000
0.305955 0.700938 0.018788 0.500000 0.500000 0.000000
0.459736 -0.401499 0.016972 0.500000 0.500000 0.000000
0.409311 -0.582442 0.083165 0.500000 0.500000 0.000000
-0.326121 0.193062 0.062284 0.500000 0.500000 0.000000
-0.333200 0.226727 -0.152837 0.600000 0.300000 0.000000
-0.116428 0.528148 0.018788 0.500000 0.500000 0.000000
0.308124 -0.527767 -0.036784 0.600000 0.000000 0.300000
-0.333200 -0.727362 -0.128643 0.600000 0.300000 0.000000
0.507166 -0.175615 0.018083 0.500000 0.500000 0.000000
0.308124 -0.287156 -0.131313 0.600000 0.000000 0.300000
-0.333200 -0.179122 -0.181476 0.600000 0.300000 0.000000
-0.444187 0.032315 0.081349 0.500000 0.500000 0.000000
0.307124 -0.675600 -0.158518 0.600000 0.000000 0.300000
0.083308 0.833554 0.073529 0.500000 0.500000 0.000000
-0.420510 -0.664867 0.018788 0.500000 0.500000 0.000000
-0.478474 -0.186072 0.081349 0.500000 0.500000 0.000000
0.511277 -0.133998 0.043765 0.500000 0.500000 0.000000
-0.335832 -0.186581 -0.055099 0.600000 0.300000 0.000000
0.304495 -0.566263 0.061405 0.500000 0.500000 0.000000
-0.377846 -0.102193 0.018788 0.500000 0.500000 0.000000
-0.335832 -0.167149 -0.116606 0.600000 0.300000 0.000000
0.304747 0.092234 0.071815 0.500000 0.500000 0.000000
0.462395 -0.450200 0.082165 0.500000 0.500000 0.000000
0.380068 0.473247 0.018788 0.500000 0.500000 0.000000
0.088459 0.693577 0.073529 0.500000 0.500000 0.000000
0.304492 0.003601 -0.090781 0.600000 0.000000 0.300000
0.362290 0.298320 0.016972 0.500000 0.500000 0.000000
0.304492 -0.113465 0.041887 0.500000 0.500000 0.000000
-0.001953 0.467428 0.018788 0.500000 0.500000 0.000000
-0.131876 0.508605 0.018788 0.500000 0.500000 0.000000
0.326980 -0.459588 0.083165 0.500000 0.500000 0.000000
-0.335832 -0.290954 -0.010870 0.600000 0.300000 0.000000
-0.326121 -0.467633 0.054145 0.500000 0.500000 0.000000
-0.459314 0.361339 0.073529 0.500000 0.500000 0.000000
-0.105457 0.831697 0.025486 0.500000 0.500000 0.000000
-0.360414 0.104188 0.018788 0.500000 0.500000 0.000000
0.308124 -0.377249 -0.033737 0.600000 0.000000 0.300000
0.223371 0.522654 0.073529 0.500000 0.500000 0.000000
-0.071232 0.816400 0.073529 0.500000 0.500000 0.000000
0.501732 0.391016 0.018788 0.500000 0.500000 0.000000
-0.472038 -0.766219 0.018788 0.500000 0.500000 0.000000
0.476579 0.206699 0.016972 0.500000 0.500000 0.000000
0.379923 -0.270086 0.016972 0.500000 0.500000 0.000000
-0.333200 -0.800722 -0.187037 0.600000 0.300000 0.000000
-0.230723 0.722433 0.018788 0.500000 0.500000 0.000000
0.304492 -0.592170 -0.216081 0.600000 0.000000 0.300000
-0.465345 -0.806036 0.018788 0.500000 0.500000 0.000000
-0.326121 -0.541973 0.040956 0.500000 0.500000 0.000000
0.503363 -0.494286 0.082026 0.500000 0.500000 0.000000
-0.498164 -0.202946 0.080346 0.500000 0.500000 0.000000
0.308124 -0.214907 -0.016392 0.600000 0.000000 0.300000
0.340996 -0.150590 0.082165 0.500000 0.500000 0.000000
-0.333200 -0.487203 -0.097989 0.600000 0.300000 0.000000
0.304492 0.181929 -0.141815 0.600000 0.000000 0.300000
-0.332201 0.005053 0.006090 0.600000 0.300000 0.000000
-0.332201 -0.323389 -0.173110 0.600000 0.300000 0.000000
0.358215 -0.393435 0.083165 0.500000 0.500000 0.000000
-0.498164 -0.261098 0.045082 0.500000 0.500000 0.000000
-0.333200 -0.666499 -0.103380 0.600000 0.300000 0.000000
-0.394150 -0.311395 0.018788 0.500000 0.500000 0.000000
-0.010951 0.842207 0.073309 0.500000 0.500000 0.000000
0.308124 -0.802937 -0.036855 0.600000 0.000000 0.300000
0.383513 0.333681 0.057453 0.500000 0.500000 0.000000
-0.498164 0.239544 0.025163 0.500000 0.500000 0.000000
0.307124 0.094999 -0.167975 0.600000 0.000000 0.300000
-0.244185 0.777783 0.021696 0.500000 0.500000 0.000000
0.485439 -0.213219 0.016974 0.500000 0.500000 0.000000
0.304492 -0.746260 -0.064865 0.600000 0.000000 0.300000
-0.437499 -0.001451 0.081349 0.500000 0.500000 0.000000
0.304492 -0.318005 -0.129250 0.600000 0.000000 0.300000
-0.326121 0.253083 0.034764 0.500000 0.500000 0.000000
-0.332628 -0.434126 -0.163265 0.600000 0.300000 0.000000
0.318442 0.144399 0.082546 0.500000 0.500000 0.000000
0.490145 -0.840583 0.082972 0.500000 0.500000 0.000000
-0.335214 -0.376385 -0.258284 0.600000 0.300000 0.000000
0.473874 0.516192 0.037090 0.500000 0.500000 0.000000
-0.326121 0.344720 0.066431 0.500000 0.500000 0.000000
0.450503 -0.717785 0.083165 0.500000 0.500000 0.000000
-0.326121 -0.775549 0.018995 0.500000 0.500000 0.000000
-0.078160 0.681976 0.018788 0.500000 0.500000 0.000000
-0.420045 0.571686 0.073529 0.500000 0.500000 0.000000
-0.326121 0.160537 0.023501 0.500000 0.500000 0.000000
0.415138 -0.268054 0.016972 0.500000 0.500000 0.000000
0.307124 0.300161 -0.029929 0.600000 0.000000 0.300000
0.478412 -0.017822 0.016972 0.500000 0.500000 0.000000
0.307290 -0.586032 -0.140709 0.600000 0.000000 0.300000
0.307124 0.277458 -0.065262 0.600000 0.000000 0.300000
-0.326121 -0.763325 0.036267 0.500000 0.500000 0.000000
0.304492 -0.138478 -0.083864 0.600000 0.000000 0.300000
-0.332201 0.095504 -0.019726 0.600000 0.300000 0.000000
-0.442633 -0.762170 0.081349 0.500000 0.500000 0.000000
0.310049 -0.579954 0.001177 0.600000 0.000000 0.300000
0.376609 -0.435361 0.083165 0.500000 0.500000 0.000000
0.174026 0.398627 0.018788 0.500000 0.500000 0.000000
0.304492 0.203037 0.025354 0.500000 0.500000 0.000000
0.271547 0.515941 0.073529 0.500000 0.500000 0.000000
-0.009948 0.705240 0.073529 0.500000 0.500000 0.000000
-0.498164 -0.684247 0.063964 0.500000 0.500000 0.000000
0.157578 0.689870 0.073529 0.500000 0.500000 0.000000
0.431161 -0.404214 0.082721 0.500000 0.500000 0.000000
-0.479296 -0.129963 0.018788 0.500000 0.500000 0.000000
-0.346100 -0.688374 0.018788 0.500000 0.500000 0.000000
-0.361488 -0.598761 0.018788 0.500000 0.500000 0.000000
-0.333200 -0.092293 -0.122038 0.600000 0.300000 0.000000
0.329322 0.494385 0.073529 0.500000 0.500000 0.000000
0.338993 -0.583897 0.083165 0.500000 0.500000 0.000000
0.272892 0.696148 0.073529 0.500000 0.500000 0.000000
-0.002088 0.341452 0.042768 0.500000 0.500000 0.000000
0.495091 0.461894 0.064705 0.500000 0.500000 0.000000
-0.293183 0.510850 0.018788 0.500000 0.500000 0.000000
-0.335820 0.023949 0.009164 0.600000 0.300000 0.000000
0.116485 0.543835 0.018788 0.500000 0.500000 0.000000
-0.335832 -0.634910 -0.202473 0.600000 0.300000 0.000000
-0.333392 0.208680 0.024073 0.600000 0.300000 0.000000
-0.462345 0.518097 0.072035 0.500000 0.500000 0.000000
0.205079 0.429793 0.073529 0.500000 0.500000 0.000000
-0.451984 -0.055344 0.081349 0.500000 0.500000 0.000000
-0.486239 0.429797 0.046972 0.500000 0.500000 0.000000
0.366190 0.280724 0.083165 0.500000 0.500000 0.000000
0.452520 0.362453 0.073529 0.500000 0.500000 0.000000
-0.255029 0.746044 0.073529 0.500000 0.500000 0.000000
-0.125396 0.425034 0.073529 0.500000 0.500000 0.000000
0.293639 0.663112 0.018788 0.500000 0.500000 0.000000
0.133274 0.807376 0.073529 0.500000 0.500000 0.000000
-0.434528 0.244576 0.018788 0.500000 0.500000 0.000000
-0.335832 0.088151 -0.084656 0.600000 0.300000 0.000000
0.399132 0.506950 0.018788 0.500000 0.500000 0.000000
0.205980 0.530049 0.018788 0.500000 0.500000 0.000000
-0.173270 0.345582 0.018788 0.500000 0.500000 0.000000
-0.357667 -0.827121 0.081349 0.500000 0.500000 0.000000
0.281109 0.459287 0.018788 0.500000 0.500000 0.000000
-0.475701 0.334370 0.018788 0.500000 0.500000 0.000000
0.030178 0.492364 0.073529 0.500000 0.500000 0.000000
0.510949 0.044660 0.043567 0.500000 0.500000 0.000000
-0.379523 0.442895 0.018788 0.500000 0.500000 0.000000
0.392527 -0.224261 0.082831 0.500000 0.500000 0.000000
-0.318367 0.694428 0.018788 0.500000 0.500000 0.000000
-0.469927 -0.805575 0.081349 0.500000 0.500000 0.000000
0.367090 -0.820134 0.016972 0.500000 0.500000 0.000000
0.258070 0.726465 0.073529 0.500000 0.500000 0.000000
0.304492 -0.580418 -0.029159 0.600000 0.000000 0.300000
-0.335829 -0.688275 0.000242 0.600000 0.300000 0.000000
-0.033777 0.541293 0.073529 0.500000 0.500000 0.000000
-0.332737 -0.490799 -0.172093 0.600000 0.300000 0.000000
-0.077472 0.608104 0.018788 0.500000 0.500000 0.000000
0.304492 0.123183 0.047952 0.500000 0.500000 0.000000
0.308124 -0.603351 -0.232577 0.600000 0.000000 0.300000
0.117037 0.350806 0.018788 0.500000 0.500000 0.000000
-0.335832 -0.211935 -0.171261 0.600000 0.300000 0.000000
0.307265 0.258930 -0.007466 0.600000 0.000000 0.300000
0.307124 0.190492 -0.075623 0.600000 0.000000 0.300000
-0.335832 -0.399288 -0.126843 0.600000 0.300000 0.000000
0.066376 0.495633 0.018788 0.500000 0.500000 0.000000
0.489101 -0.747551 0.016976 0.500000 0.500000 0.000000
-0.351830 0.283336 0.018788 0.500000 0.500000 0.000000
0.304492 -0.819633 -0.053694 0.600000 0.000000 0.300000
-0.335832 -0.552095 -0.141581 0.600000 0.300000 0.000000
0.128816 0.632887 0.018788 0.500000 0.500000 0.000000
0.132129 0.819617 0.018788 0.500000 0.500000 0.000000
-0.335832 -0.080781 -0.230053 0.600000 0.300000 0.000000
-0.335832 -0.140414 -0.031887 0.600000 0.300000 0.000000
0.131984 0.482674 0.073529 0.500000 0.500000 0.000000
0.304492 -0.716462 -0.144618 0.600000 0.000000 0.300000
0.304493 0.306204 -0.096050 0.600000 0.000000 0.300000
-0.333200 -0.742547 -0.155799 0.600000 0.300000 0.000000
0.419134 0.564954 0.018788 0.500000 0.500000 0.000000
-0.414285 0.357798 0.073529 0.500000 0.500000 0.000000
-0.333200 -0.587874 -0.157983 0.600000 0.300000 0.000000
0.445982 0.310494 0.016974 0.500000 0.500000 0.000000
0.339176 -0.150753 0.016980 0.500000 0.500000 0.000000
0.304492 0.117455 -0.101681 0.600000 0.000000 0.300000
-0.412935 -0.738583 0.081349 0.500000 0.500000 0.000000
-0.446954 -0.032884 0.081349 0.500000 0.500000 0.000000
0.153873 0.607594 0.018788 0.500000 0.500000 0.000000
0.307124 0.121140 -0.197790 0.600000 0.000000 0.300000
0.304492 0.028270 0.040005 0.500000 0.500000 0.000000
0.094922 0.833162 0.038035 0.500000 0.500000 0.000000
-0.358547 -0.699931 0.081349 0.500000 0.500000 0.000000
0.318738 0.132588 0.011537 0.500000 0.500000 0.000000
0.510656 -0.654988 0.041964 0.500000 0.500000 0.000000
-0.184381 0.605883 0.073529 0.500000 0.500000 0.000000
0.387468 -0.512830 0.016972 0.500000 0.500000 0.000000
-0.440025 -0.574049 0.018788 0.500000 0.500000 0.000000
0.262812 0.396197 0.073529 0.500000 0.500000 0.000000
-0.005160 0.616549 0.073529 0.500000 0.500000 0.000000
-0.474448 -0.849018 0.081349 0.500000 0.500000 0.000000
-0.332201 -0.438172 -0.210075 0.600000 0.300000 0.000000
-0.326121 0.324808 0.053846 0.500000 0.500000 0.000000
-0.333200 -0.563358 0.008174 0.600000 0.300000 0.000000
-0.335832 -0.006368 -0.231203 0.600000 0.300000 0.000000
0.213819 0.684405 0.018788 0.500000 0.500000 0.000000
-0.461783 0.272601 0.081349 0.500000 0.500000 0.000000
-0.326121 -0.641557 0.057702 0.500000 0.500000 0.000000
-0.335832 -0.420982 -0.063469 0.600000 0.300000 0.000000
0.511108 -0.165722 0.060686 0.500000 0.500000 0.000000
0.449717 0.528141 0.073529 0.500000 0.500000 0.000000
-0.380738 0.129240 0.081349 0.500000 0.500000 0.000000
0.082206 0.666564 0.073529 0.500000 0.500000 0.000000
-0.332647 0.065012 -0.051535 0.600000 0.300000 0.000000
0.026060 0.643081 0.073529 0.500000 0.500000 0.000000
-0.368823 -0.283635 0.081349 0.500000 0.500000 0.000000
0.228025 0.404550 0.073529 0.500000 0.500000 0.000000
0.405678 0.111118 0.016972 0.500000 0.500000 0.000000
0.347058 0.050486 0.082801 0.500000 0.500000 0.000000
-0.417780 0.325954 0.018788 0.500000 0.500000 0.000000
0.325919 0.450476 0.073529 0.500000 0.500000 0.000000
0.304492 0.246525 -0.223480 0.600000 0.000000 0.300000
0.383573 -0.752459 0.016972 0.500000 0.500000 0.000000
-0.323668 0.392365 0.018788 0.500000 0.500000 0.000000
0.396468 0.328631 0.018931 0.500000 0.500000 0.000000
0.341723 0.564269 0.018788 0.500000 0.500000 0.000000
0.358686 -0.215678 0.016972 0.500000 0.500000 0.000000
0.024802 0.690302 0.018788 0.500000 0.500000 0.000000
0.435648 0.481862 0.073529 0.500000 0.500000 0.000000
-0.335832 -0.390310 -0.051393 0.600000 0.300000 0.000000
-0.384290 -0.860671 0.061221 0.500000 0.500000 0.000000
-0.221480 0.499753 0.018788 0.500000 0.500000 0.000000
-0.217704 0.345797 0.021838 0.500000 0.500000 0.000000
0.293801 0.750750 0.040760 0.500000 0.500000 0.000000
0.356804 0.028798 0.082977 0.500000 0.500000 0.000000
-0.287311 0.374177 0.018788 0.500000 0.500000 0.000000
-0.218348 0.595332 0.073529 0.500000 0.500000 0.000000
0.304493 -0.434477 -0.246098 0.600000 0.000000 0.300000
0.304492 0.243510 -0.149342 0.600000 0.000000 0.300000
-0.388000 -0.779268 0.018788 0.500000 0.500000 0.000000
-0.326121 -0.406068 0.059276 0.500000 0.500000 0.000000
-0.395186 0.282001 0.018788 0.500000 0.500000 0.000000
-0.298549 0.484611 0.018788 0.500000 0.500000 0.000000
-0.332544 -0.390742 -0.155995 0.600000 0.300000 0.000000
0.307122 -0.181170 -0.252297 0.600000 0.000000 0.300000
0.429976 -0.558622 0.083165 0.500000 0.500000 0.000000
-0.189706 0.562848 0.073529 0.500000 0.500000 0.000000
0.202541 0.784542 0.073529 0.500000 0.500000 0.000000
0.175182 0.666268 0.018788 0.500000 0.500000 0.000000
0.103552 0.665760 0.018788 0.500000 0.500000 0.000000
-0.480794 -0.010586 0.081349 0.500000 0.500000 0.000000
0.304492 0.186469 0.013282 0.500000 0.500000 0.000000
-0.326121 -0.056697 0.057538 0.500000 0.500000 0.000000
0.138176 0.789485 0.018788 0.500000 0.500000 0.000000
0.026376 0.610554 0.073529 0.500000 0.500000 0.000000
0.304585 -0.330347 0.066634 0.500000 0.500000 0.000000
-0.177741 0.736951 0.073529 0.500000 0.500000 0.000000
-0.495268 0.370475 0.060312 0.500000 0.500000 0.000000
0.289622 0.567915 0.073529 0.500000 0.500000 0.000000
0.442574 0.411953 0.018788 0.500000 0.500000 0.000000
0.331397 0.015929 0.082332 0.500000 0.500000 0.000000
0.142824 0.528748 0.073529 0.500000 0.500000 0.000000
0.215122 0.366517 0.073529 0.500000 0.500000 0.000000
-0.449438 0.492275 0.018788 0.500000 0.500000 0.000000
-0.370329 -0.460248 0.081349 0.500000 0.500000 0.000000
0.297446 0.425262 0.018788 0.500000 0.500000 0.000000
0.120401 0.442947 0.073529 0.500000 0.500000 0.000000
-0.476315 0.376134 0.073529 0.500000 0.500000 0.000000
0.354201 -0.446942 0.016972 0.500000 0.500000 0.000000
-0.326121 -0.665825 0.025409 0.500000 0.500000 0.000000
0.510508 -0.575539 0.052673 0.500000 0.500000 0.000000
0.304492 -0.509850 -0.206521 0.600000 0.000000 0.300000
-0.354960 -0.796446 0.018788 0.500000 0.500000 0.000000
-0.332244 -0.105622 -0.081335 0.600000 0.300000 0.000000
0.304492 -0.677962 -0.198533 0.600000 0.000000 0.300000
0.411746 -0.542386 0.083165 0.500000 0.500000 0.000000
0.308124 -0.557249 -0.058141 0.600000 0.000000 0.300000
-0.333200 -0.841783 -0.237542 0.600000 0.300000 0.000000
-0.399619 -0.060964 0.081349 0.500000 0.500000 0.000000
-0.214646 0.681513 0.073529 0.500000 0.500000 0.000000
0.442992 0.518167 0.018788 0.500000 0.500000 0.000000
0.401500 -0.245697 0.082860 0.500000 0.500000 0.000000
0.304492 -0.623358 -0.094894 0.600000 0.000000 0.300000
-0.333200 -0.768071 -0.078740 0.600000 0.300000 0.000000
-0.412075 -0.740940 0.018788 0.500000 0.500000 0.000000
0.510750 -0.691029 0.062341 0.500000 0.500000 0.000000
0.029461 0.343423 0.018788 0.500000 0.500000 0.000000
0.361942 -0.425398 0.016972 0.500000 0.500000 0.000000
0.320456 -0.438394 0.012574 0.500000 0.500000 0.000000
-0.035355 0.839493 0.044858 0.500000 0.500000 0.000000
0.321950 -0.636148 0.013546 0.500000 0.500000 0.000000
-0.326121 -0.173292 0.057006 0.500000 0.500000 0.000000
0.304492 -0.699717 -0.037958 0.600000 0.000000 0.300000
-0.335066 -0.330550 -0.259936 0.600000 0.300000 0.000000
-0.458755 -0.738533 0.018788 0.500000 0.500000 0.000000
-0.406952 0.285678 0.081349 0.500000 0.500000 0.000000
-0.021775 0.533674 0.018788 0.500000 0.500000 0.000000
-0.335832 -0.428570 -0.007258 0.600000 0.300000 0.000000
0.349635 0.528757 0.073529 0.500000 0.500000 0.000000
-0.335832 -0.756719 -0.031980 0.600000 0.300000 0.000000
0.318834 -0.139489 0.011518 0.500000 0.500000 0.000000
-0.362749 -0.334016 0.018788 0.500000 0.500000 0.000000
0.307071 -0.838611 -0.242634 0.600000 0.000000 0.300000
0.388143 -0.820664 0.016972 0.500000 0.500000 0.000000
0.020391 0.453523 0.073529 0.500000 0.500000 0.000000
0.493864 -0.310784 0.082156 0.500000 0.500000 0.000000
0.491516 -0.261861 0.016977 0.500000 0.500000 0.000000
-0.350127 -0.498402 0.018788 0.500000 0.500000 0.000000
-0.257562 0.395177 0.018788 0.500000 0.500000 0.000000
0.475704 0.172845 0.082165 0.500000 0.500000 0.000000
0.335316 -0.866991 0.031094 0.500000 0.500000 0.000000
-0.456341 -0.583320 0.018788 0.500000 0.500000 0.000000
-0.335832 -0.643565 -0.084171 0.600000 0.300000 0.000000
-0.167412 0.778285 0.073529 0.500000 0.500000 0.000000
0.330418 0.384449 0.073529 0.500000 0.500000 0.000000
-0.430146 0.591606 0.039831 0.500000 0.500000 0.000000
0.329129 -0.751845 0.015528 0.500000 0.500000 0.000000
-0.108352 0.703588 0.018788 0.500000 0.500000 0.000000
-0.498164 0.163080 0.032566 0.500000 0.500000 0.000000
-0.465911 -0.107431 0.081349 0.500000 0.500000 0.000000
0.374980 0.188206 0.083165 0.500000 0.500000 0.000000
-0.335832 -0.345474 -0.210093 0.600000 0.300000 0.000000
-0.349039 -0.042847 0.018788 0.500000 0.500000 0.000000
-0.333410 -0.856275 0.000125 0.600000 0.300000 0.000000
-0.326121 0.109562 0.041744 0.500000 0.500000 0.000000
0.304492 -0.377349 -0.105533 0.600000 0.000000 0.300000
-0.463163 -0.624044 0.081349 0.500000 0.500000 0.000000
0.346489 -0.467439 0.083165 0.500000 0.500000 0.000000
-0.321028 0.469425 0.018788 0.500000 0.500000 0.000000
-0.326121 -0.134867 0.022473 0.500000 0.500000 0.000000
-0.064045 0.535233 0.018788 0.500000 0.500000 0.000000
0.308124 -0.416579 -0.202494 0.600000 0.000000 0.300000
-0.326121 -0.089737 0.037108 0.500000 0.500000 0.000000
0.507224 -0.010124 0.018109 0.500000 0.500000 0.000000
-0.193312 0.562307 0.018788 0.500000 0.500000 0.000000
0.376235 0.207691 0.016972 0.500000 0.500000 0.000000
0.304492 -0.497860 0.025761 0.500000 0.500000 0.000000
-0.328062 -0.241630 0.081349 0.500000 0.500000 0.000000
-0.447588 0.371415 0.018788 0.500000 0.500000 0.000000
-0.423023 -0.083044 0.018788 0.500000 0.500000 0.000000
-0.332201 0.183470 -0.002387 0.600000 0.300000 0.000000
0.019355 0.552235 0.018788 0.500000 0.500000 0.000000
-0.422324 0.267976 0.081349 0.500000 0.500000 0.000000
0.511115 -0.490976 0.064078 0.500000 0.500000 0.000000
-0.031512 0.801179 0.018788 0.500000 0.500000 0.000000
0.268482 0.437809 0.018788 0.500000 0.500000 0.000000
-0.335832 0.210956 -0.081367 0.600000 0.300000 0.000000
-0.332484 -0.449895 -0.247049 0.600000 0.300000 0.000000
-0.335832 -0.608926 -0.132624 0.600000 0.300000 0.000000
-0.289854 0.731912 0.073529 0.500000 0.500000 0.000000
0.308124 -0.115512 -0.028100 0.600000 0.000000 0.300000
0.398721 -0.439547 0.083165 0.500000 0.500000 0.000000
-0.397970 0.432959 0.018788 0.500000 0.500000 0.000000
-0.335832 -0.562676 -0.060445 0.600000 0.300000 0.000000
0.510843 -0.702382 0.029847 0.500000 0.500000 0.000000
0.491758 -0.050649 0.082157 0.500000 0.500000 0.000000
-0.203677 0.697256 0.018788 0.500000 0.500000 0.000000
-0.335832 -0.818904 -0.190248 0.600000 0.300000 0.000000
-0.326121 -0.274114 0.051580 0.500000 0.500000 0.000000
-0.348696 0.526089 0.073529 0.500000 0.500000 0.000000
-0.433624 -0.222320 0.081349 0.500000 0.500000 0.000000
-0.167359 0.579292 0.073529 0.500000 0.500000 0.000000
0.318591 0.334989 0.051487 0.500000 0.500000 0.000000
-0.059570 0.795102 0.073529 0.500000 0.500000 0.000000
-0.332201 -0.071258 -0.065209 0.600000 0.300000 0.000000
0.323550 0.044777 0.082267 0.500000 0.500000 0.000000
0.510593 -0.616795 0.044444 0.500000 0.500000 0.000000
0.307665 -0.069423 -0.053408 0.600000 0.000000 0.300000
-0.333200 -0.029468 -0.164642 0.600000 0.300000 0.000000
0.308124 -0.756857 -0.023879 0.600000 0.000000 0.300000
-0.335829 -0.805162 0.000739 0.600000 0.300000 0.000000
0.241646 0.717705 0.073529 0.500000 0.500000 0.000000
0.178729 0.811040 0.056921 0.500000 0.500000 0.000000
0.304493 -0.840758 0.051502 0.500000 0.500000 0.000000
0.418686 -0.208908 0.016972 0.500000 0.500000 0.000000
-0.326121 0.151434 0.064206 0.500000 0.500000 0.000000
0.510883 -0.351366 0.054322 0.500000 0.500000 0.000000
-0.335810 -0.528017 -0.244486 0.600000 0.300000 0.000000
-0.335832 0.058219 -0.002782 0.600000 0.300000 0.000000
0.457846 -0.698360 0.083129 0.500000 0.500000 0.000000
0.208591 0.456409 0.018788 0.500000 0.500000 0.000000
0.304493 0.046676 -0.252034 0.600000 0.000000 0.300000
-0.377015 -0.015505 0.018788 0.500000 0.500000 0.000000
0.510811 0.275045 0.069250 0.500000 0.500000 0.000000
-0.334404 -0.150428 -0.260258 0.600000 0.300000 0.000000
-0.326121 -0.306100 0.070567 0.500000 0.500000 0.000000
0.315565 0.315007 0.009564 0.500000 0.500000 0.000000
-0.335780 0.047102 -0.250575 0.600000 0.300000 0.000000
-0.181915 0.658821 0.018788 0.500000 0.500000 0.000000
0.371393 0.684140 0.073529 0.500000 0.500000 0.000000
0.182847 0.339243 0.018788 0.500000 0.500000 0.000000
-0.207370 0.503361 0.073529 0.500000 0.500000 0.000000
-0.373732 -0.505774 0.081349 0.500000 0.500000 0.000000
0.387953 0.180386 0.016972 0.500000 0.500000 0.000000
-0.249388 0.346435 0.039735 0.500000 0.500000 0.000000
-0.498164 -0.849263 0.058427 0.500000 0.500000 0.000000
-0.335832 -0.561298 -0.097239 0.600000 0.300000 0.000000
-0.162577 0.582859 0.018788 0.500000 0.500000 0.000000
-0.467991 0.131960 0.081349 0.500000 0.500000 0.000000
-0.334746 0.056793 0.025826 0.600000 0.300000 0.000000
-0.335783 -0.416696 0.013514 0.600000 0.300000 0.000000
0.111886 0.401661 0.018788 0.500000 0.500000 0.000000
-0.083324 0.732724 0.018788 0.500000 0.500000 0.000000
0.429756 -0.535313 0.016972 0.500000 0.500000 0.000000
0.304492 -0.823863 -0.133879 0.600000 0.000000 0.300000
-0.421302 0.601027 0.018788 0.500000 0.500000 0.000000
0.098884 0.746907 0.018788 0.500000 0.500000 0.000000
-0.351196 0.641965 0.018788 0.500000 0.500000 0.000000
-0.498164 -0.153695 0.078515 0.500000 0.500000 0.000000
0.467024 -0.326262 0.082165 0.500000 0.500000 0.000000
0.307124 0.169323 -0.111636 0.600000 0.000000 0.300000
-0.306064 0.596837 0.018788 0.500000 0.500000 0.000000
-0.333477 -0.029688 -0.253609 0.600000 0.300000 0.000000
-0.351831 -0.845251 0.018788 0.500000 0.500000 0.000000
0.312579 -0.557321 0.082244 0.500000 0.500000 0.000000
-0.484517 0.377783 0.018788 0.500000 0.500000 0.000000
0.304493 -0.391924 -0.251736 0.600000 0.000000 0.300000
-0.332201 0.031536 -0.012257 0.600000 0.300000 0.000000
-0.333200 -0.693887 -0.190535 0.600000 0.300000 0.000000
0.133299 0.571150 0.018788 0.500000 0.500000 0.000000
0.304587 -0.051432 0.066413 0.500000 0.500000 0.000000
-0.318297 0.625314 0.018788 0.500000 0.500000 0.000000
-0.343605 -0.748601 0.018788 0.500000 0.500000 0.000000
-0.333200 0.102446 -0.068935 0.600000 0.300000 0.000000
0.487756 -0.083539 0.082161 0.500000 0.500000 0.000000
0.493287 -0.011211 0.082156 0.500000 0.500000 0.000000
0.304492 0.046838 -0.156893 0.600000 0.000000 0.300000
0.500047 0.417330 0.060975 0.500000 0.500000 0.000000
0.336862 -0.530738 0.083165 0.500000 0.500000 0.000000
0.304492 0.258709 -0.186264 0.600000 0.000000 0.300000
0.304492 -0.713928 -0.109785 0.600000 0.000000 0.300000
0.432387 -0.860519 0.018160 0.500000 0.500000 0.000000
0.305018 -0.850895 -0.180005 0.600000 0.000000 0.300000
0.304492 -0.705274 -0.058181 0.600000 0.000000 0.300000
0.355527 0.134328 0.016972 0.500000 0.500000 0.000000
0.242558 0.336521 0.062883 0.500000 0.500000 0.000000
-0.333403 -0.566279 0.081349 0.500000 0.500000 0.000000
0.391806 -0.475558 0.083165 0.500000 0.500000 0.000000
-0.401093 0.087191 0.018788 0.500000 0.500000 0.000000
0.360539 0.058951 0.016972 0.500000 0.500000 0.000000
-0.377582 0.020145 0.081349 0.500000 0.500000 0.000000
0.097510 0.747901 0.073529 0.500000 0.500000 0.000000
0.496083 -0.547828 0.016985 0.500000 0.500000 0.000000
-0.238731 0.546436 0.073529 0.500000 0.500000 0.000000
0.000651 0.843498 0.038288 0.500000 0.500000 0.000000
-0.333200 0.135792 -0.056294 0.600000 0.300000 0.000000
-0.340719 0.706754 0.056181 0.500000 0.500000 0.000000
-0.333200 0.271545 -0.075005 0.600000 0.300000 0.000000
-0.309316 0.347643 0.055924 0.500000 0.500000 0.000000
0.307124 -0.060202 -0.116674 0.600000 0.000000 0.300000
-0.335366 -0.286599 -0.256577 0.600000 0.300000 0.000000
-0.368961 0.672822 0.053039 0.500000 0.500000 0.000000
-0.443237 -0.476107 0.018788 0.500000 0.500000 0.000000
0.476458 0.509580 0.072231 0.500000 0.500000 0.000000
-0.277497 0.631410 0.018788 0.500000 0.500000 0.000000
-0.332235 -0.523458 -0.198535 0.600000 0.300000 0.000000
-0.010253 0.418989 0.018788 0.500000 0.500000 0.000000
0.408632 -0.525111 0.016972 0.500000 0.500000 0.000000
-0.198431 0.699205 0.073529 0.500000 0.500000 0.000000
-0.343755 0.328118 0.018788 0.500000 0.500000 0.000000
0.426368 -0.367715 0.082593 0.500000 0.500000 0.000000
-0.335832 -0.778760 -0.056257 0.600000 0.300000 0.000000
0.268548 0.770948 0.032803 0.500000 0.500000 0.000000
-0.422738 0.118044 0.018788 0.500000 0.500000 0.000000
-0.442788 0.562745 0.024376 0.500000 0.500000 0.000000
-0.363964 -0.412269 0.018788 0.500000 0.500000 0.000000
0.307072 0.319355 -0.121654 0.600000 0.000000 0.300000
-0.316247 0.353617 0.018788 0.500000 0.500000 0.000000
0.307124 0.213430 -0.129653 0.600000 0.000000 0.300000
0.400604 0.129763 0.082912 0.500000 0.500000 0.000000
0.287955 0.431027 0.073529 0.500000 0.500000 0.000000
0.170137 0.546282 0.018788 0.500000 0.500000 0.000000
-0.109081 0.646301 0.073529 0.500000 0.500000 0.000000
0.304492 -0.319698 0.003071 0.600000 0.000000 0.300000
-0.410102 -0.020150 0.081349 0.500000 0.500000 0.000000
-0.333012 -0.216201 -0.134164 0.600000 0.300000 0.000000
-0.498164 -0.350447 0.045270 0.500000 0.500000 0.000000
-0.333200 0.208976 -0.105665 0.600000 0.300000 0.000000
0.451537 0.447700 0.018788 0.500000 0.500000 0.000000
0.044476 0.437983 0.018788 0.500000 0.500000 0.000000
0.070235 0.606914 0.018788 0.500000 0.500000 0.000000
0.448067 0.112173 0.016972 0.500000 0.500000 0.000000
-0.400689 -0.676902 0.018788 0.500000 0.500000 0.000000
-0.403242 0.351449 0.033048 0.500000 0.500000 0.000000
-0.332353 -0.423440 -0.243506 0.600000 0.300000 0.000000
-0.239240 0.430922 0.073529 0.500000 0.500000 0.000000
0.066523 0.837485 0.030238 0.500000 0.500000 0.000000
0.464415 -0.267711 0.016972 0.500000 0.500000 0.000000
0.304492 -0.760670 0.005808 0.600000 0.000000 0.300000
0.105246 0.380119 0.073529 0.500000 0.500000 0.000000
0.119929 0.419075 0.073529 0.500000 0.500000 0.000000
0.365798 -0.841989 0.083164 0.500000 0.500000 0.000000
-0.383356 -0.243982 0.081349 0.500000 0.500000 0.000000
0.307124 -0.002964 -0.073868 0.600000 0.000000 0.300000
-0.333200 -0.792458 -0.093771 0.600000 0.300000 0.000000
-0.359057 0.569333 0.073529 0.500000 0.500000 0.000000
-0.446288 0.036440 0.018788 0.500000 0.500000 0.000000
-0.333200 -0.140512 -0.205297 0.600000 0.300000 0.000000
0.447158 0.584504 0.034015 0.500000 0.500000 0.000000
-0.335832 -0.270941 -0.172374 0.600000 0.300000 0.000000
-0.332201 -0.205670 -0.064573 0.600000 0.300000 0.000000
-0.335798 0.131122 -0.246744 0.600000 0.300000 0.000000
0.126498 0.672453 0.073529 0.500000 0.500000 0.000000
0.405282 0.594867 0.073529 0.500000 0.500000 0.000000
0.308124 -0.630537 -0.237203 0.600000 0.000000 0.300000
-0.335832 -0.613435 -0.064263 0.600000 0.300000 0.000000
0.226573 0.360399 0.018788 0.500000 0.500000 0.000000
-0.418322 0.572605 0.018788 0.500000 0.500000 0.000000
-0.171967 0.699063 0.073529 0.500000 0.500000 0.000000
-0.060966 0.416762 0.073529 0.500000 0.500000 0.000000
0.467173 0.384034 0.018788 0.500000 0.500000 0.000000
0.484876 -0.866001 0.076353 0.500000 0.500000 0.000000
-0.444447 0.175589 0.018788 0.500000 0.500000 0.000000
0.304492 -0.828005 0.012165 0.500000 0.500000 0.000000
-0.391409 -0.119689 0.081349 0.500000 0.500000 0.000000
-0.332201 -0.060174 -0.018028 0.600000 0.300000 0.000000
-0.184873 0.502449 0.073529 0.500000 0.500000 0.000000
-0.484634 -0.030708 0.081349 0.500000 0.500000 0.000000
-0.481715 0.459519 0.034520 0.500000 0.500000 0.000000
-0.464057 -0.369829 0.081349 0.500000 0.500000 0.000000
-0.321613 0.651486 0.073529 0.500000 0.500000 0.000000
-0.389196 0.479518 0.018788 0.500000 0.500000 0.000000
0.318640 0.329976 0.080618 0.500000 0.500000 0.000000
0.314820 -0.209028 0.008905 0.500000 0.500000 0.000000
0.304492 0.274626 -0.219308 0.600000 0.000000 0.300000
0.452322 -0.205354 0.082165 0.500000 0.500000 0.000000
-0.318746 0.577834 0.018788 0.500000 0.500000 0.000000
0.316113 0.531983 0.073529 0.500000 0.500000 0.000000
0.304493 -0.441023 0.055578 0.500000 0.500000 0.000000
0.304492 0.187310 -0.010643 0.600000 0.000000 0.300000
0.307124 0.232294 -0.098856 0.600000 0.000000 0.300000
-0.398831 0.170420 0.081349 0.500000 0.500000 0.000000
0.304492 -0.660397 -0.211945 0.600000 0.000000 0.300000
-0.403132 -0.524959 0.081349 0.500000 0.500000 0.000000
-0.049041 0.576278 0.073529 0.500000 0.500000 0.000000
-0.476427 -0.668349 0.018788 0.500000 0.500000 0.000000
0.510804 -0.770124 0.034302 0.500000 0.500000 0.000000
-0.431668 -0.600534 0.081349 0.500000 0.500000 0.000000
0.378902 0.495826 0.073529 0.500000 0.500000 0.000000
0.342641 0.562290 0.073529 0.500000 0.500000 0.000000
0.315341 -0.830175 0.082889 0.500000 0.500000 0.000000
0.475102 -0.795853 0.083095 0.500000 0.500000 0.000000
-0.002279 0.680595 0.018788 0.500000 0.500000 0.000000
-0.423264 -0.801146 0.018788 0.500000 0.500000 0.000000
-0.326121 -0.843475 0.073504 0.500000 0.500000 0.000000
-0.355232 0.522927 0.018788 0.500000 0.500000 0.000000
0.307124 0.169069 -0.172882 0.600000 0.000000 0.300000
-0.357965 0.571816 0.018788 0.500000 0.500000 0.000000
0.037288 0.553993 0.073529 0.500000 0.500000 0.000000
0.407218 -0.560883 0.016972 0.500000 0.500000 0.000000
0.510798 0.194827 0.067120 0.500000 0.500000 0.000000
-0.396934 -0.188842 0.018788 0.500000 0.500000 0.000000
-0.152156 0.607921 0.018788 0.500000 0.500000 0.000000
-0.498164 0.308606 0.040125 0.500000 0.500000 0.000000
0.304492 -0.725590 -0.187546 0.600000 0.000000 0.300000
-0.167449 0.513843 0.073529 0.500000 0.500000 0.000000
-0.441195 -0.315324 0.081349 0.500000 0.500000 0.000000
-0.348929 0.215673 0.081349 0.500000 0.500000 0.000000
-0.363603 0.539682 0.018788 0.500000 0.500000 0.000000
-0.397047 0.613611 0.073529 0.500000 0.500000 0.000000
-0.498164 -0.574849 0.055181 0.500000 0.500000 0.000000
-0.398279 0.373267 0.018788 0.500000 0.500000 0.000000
0.242668 0.595246 0.073529 0.500000 0.500000 0.000000
-0.326121 -0.755184 0.081090 0.500000 0.500000 0.000000
-0.335832 -0.807536 -0.026303 0.600000 0.300000 0.000000
-0.375439 -0.168057 0.081349 0.500000 0.500000 0.000000
-0.252209 0.613366 0.018788 0.500000 0.500000 0.000000
-0.335832 0.289921 -0.186967 0.600000 0.300000 0.000000
-0.174826 0.481940 0.018788 0.500000 0.500000 0.000000
0.421850 0.025528 0.016972 0.500000 0.500000 0.000000
0.304492 -0.619260 -0.193239 0.600000 0.000000 0.300000
0.331500 0.144723 0.015906 0.500000 0.500000 0.000000
-0.332604 -0.567401 -0.195878 0.600000 0.300000 0.000000
0.304492 -0.081604 0.036308 0.500000 0.500000 0.000000
0.242108 0.459367 0.073529 0.500000 0.500000 0.000000
0.510805 -0.612478 0.068220 0.500000 0.500000 0.000000
0.304492 -0.392480 -0.074275 0.600000 0.000000 0.300000
-0.333200 -0.324596 0.002754 0.600000 0.300000 0.000000
-0.332201 -0.593916 -0.223123 0.600000 0.300000 0.000000
0.360254 -0.072575 0.016972 0.500000 0.500000 0.000000
-0.326121 -0.126454 0.067372 0.500000 0.500000 0.000000
-0.343717 -0.629726 0.081349 0.500000 0.500000 0.000000
-0.334347 -0.490273 0.025846 0.600000 0.300000 0.000000
-0.332201 -0.187328 -0.003788 0.600000 0.300000 0.000000
-0.335832 -0.311095 -0.160297 0.600000 0.300000 0.000000
0.405960 -0.322823 0.016972 0.500000 0.500000 0.000000
-0.361870 -0.375971 0.081349 0.500000 0.500000 0.000000
-0.335832 -0.064533 -0.089273 0.600000 0.300000 0.000000
-0.433311 0.218854 0.081349 0.500000 0.500000 0.000000
0.311045 -0.232716 0.081220 0.500000 0.500000 0.000000
0.511307 -0.165544 0.042588 0.500000 0.500000 0.000000
0.307455 -0.518104 -0.134158 0.600000 0.000000 0.300000
0.437602 0.169239 0.016972 0.500000 0.500000 0.000000
0.431606 -0.300285 0.016972 0.500000 0.500000 0.000000
-0.326121 0.041916 0.070755 0.500000 0.500000 0.000000
-0.335832 -0.180142 -0.076164 0.600000 0.300000 0.000000
-0.498164 -0.292778 0.020456 0.500000 0.500000 0.000000
-0.286061 0.648818 0.073529 0.500000 0.500000 0.000000
0.308124 -0.329098 -0.066698 0.600000 0.000000 0.300000
0.306209 0.049392 0.077523 0.500000 0.500000 0.000000
-0.365989 -0.616966 0.081349 0.500000 0.500000 0.000000
0.477344 0.101524 0.082165 0.500000 0.500000 0.000000
0.103474 0.455419 0.073529 0.500000 0.500000 0.000000
0.308124 -0.697899 -0.078385 0.600000 0.000000 0.300000
0.334092 -0.730603 0.016338 0.500000 0.500000 0.000000
-0.382698 0.383630 0.073529 0.500000 0.500000 0.000000
0.366389 -0.009663 0.083091 0.500000 0.500000 0.000000
-0.333200 -0.843108 -0.070656 0.600000 0.300000 0.000000
0.304492 -0.294128 -0.085166 0.600000 0.000000 0.300000
0.176253 0.568647 0.073529 0.500000 0.500000 0.000000
-0.273969 0.755868 0.032300 0.500000 0.500000 0.000000
0.304493 0.263926 -0.251731 0.600000 0.000000 0.300000
0.310775 0.295395 0.003485 0.600000 0.000000 0.300000
0.304664 0.322969 -0.188739 0.600000 0.000000 0.300000
0.511194 0.138270 0.027780 0.500000 0.500000 0.000000
0.308124 -0.727994 -0.095379 0.600000 0.000000 0.300000
0.304492 -0.601067 0.022376 0.500000 0.500000 0.000000
-0.128208 0.825440 0.035828 0.500000 0.500000 0.000000
0.102102 0.832070 0.021533 0.500000 0.500000 0.000000
0.058792 0.709174 0.073529 0.500000 0.500000 0.000000
-0.332201 -0.079554 0.004711 0.600000 0.300000 0.000000
0.168650 0.338011 0.037110 0.500000 0.500000 0.000000
-0.388383 -0.379196 0.081349 0.500000 0.500000 0.000000
-0.255815 0.463182 0.018788 0.500000 0.500000 0.000000
0.388751 -0.667362 0.083165 0.500000 0.500000 0.000000
0.064455 0.685838 0.018788 0.500000 0.500000 0.000000
-0.483285 0.198516 0.081349 0.500000 0.500000 0.000000
0.369494 -0.112341 0.082691 0.500000 0.500000 0.000000
-0.375512 -0.688730 0.018788 0.500000 0.500000 0.000000
0.489645 -0.572689 0.016976 0.500000 0.500000 0.000000
-0.238793 0.367509 0.018788 0.500000 0.500000 0.000000
-0.392472 -0.808378 0.081349 0.500000 0.500000 0.000000
-0.022816 0.649538 0.018788 0.500000 0.500000 0.000000
-0.213763 0.757659 0.018788 0.500000 0.500000 0.000000
-0.326121 -0.680274 0.069998 0.500000 0.500000 0.000000
-0.416307 0.497990 0.018788 0.500000 0.500000 0.000000
0.232251 0.787597 0.025618 0.500000 0.500000 0.000000
0.304492 -0.808588 0.030775 0.500000 0.500000 0.000000
0.465173 -0.754428 0.083165 0.500000 0.500000 0.000000
-0.168446 0.417429 0.018788 0.500000 0.500000 0.000000
0.304492 -0.032044 -0.099102 0.600000 0.000000 0.300000
-0.443427 0.088318 0.018788 0.500000 0.500000 0.000000
-0.434156 -0.170500 0.081349 0.500000 0.500000 0.000000
0.387073 -0.061340 0.083165 0.500000 0.500000 0.000000
-0.332377 0.540763 0.073529 0.500000 0.500000 0.000000
0.382687 -0.785190 0.016972 0.500000 0.500000 0.000000
0.070759 0.770635 0.073529 0.500000 0.500000 0.000000
-0.345657 -0.072805 0.018788 0.500000 0.500000 0.000000
-0.229204 0.447184 0.073529 0.500000 0.500000 0.000000
-0.208744 0.574129 0.073529 0.500000 0.500000 0.000000
0.453472 -0.209700 0.016972 0.500000 0.500000 0.000000
-0.152912 0.729333 0.073529 0.500000 0.500000 0.000000
0.119684 0.338998 0.034203 0.500000 0.500000 0.000000
0.510396 0.116000 0.019988 0.500000 0.500000 0.000000
-0.116722 0.733060 0.018788 0.500000 0.500000 0.000000
0.303012 0.743383 0.054284 0.500000 0.500000 0.000000
-0.335832 -0.586820 -0.117754 0.600000 0.300000 0.000000
0.471456 0.150797 0.016972 0.500000 0.500000 0.000000
-0.076600 0.814785 0.018788 0.500000 0.500000 0.000000
-0.284024 0.347133 0.062423 0.500000 0.500000 0.000000
-0.332438 0.095704 -0.038114 0.600000 0.300000 0.000000
-0.333200 -0.483093 -0.048018 0.600000 0.300000 0.000000
-0.263504 0.478226 0.073529 0.500000 0.500000 0.000000
-0.317525 0.519133 0.018788 0.500000 0.500000 0.000000
-0.163500 0.394495 0.073529 0.500000 0.500000 0.000000
0.390445 0.463083 0.073529 0.500000 0.500000 0.000000
-0.439334 0.464777 0.018788 0.500000 0.500000 0.000000
0.247361 0.659447 0.073529 0.500000 0.500000 0.000000
0.437629 -0.122228 0.082165 0.500000 0.500000 0.000000
-0.295222 0.381383 0.073529 0.500000 0.500000 0.000000
-0.496726 0.285476 0.018788 0.500000 0.500000 0.000000
-0.400523 0.385617 0.073529 0.500000 0.500000 0.000000
-0.335832 0.073264 -0.126594 0.600000 0.300000 0.000000
0.398085 0.651197 0.067890 0.500000 0.500000 0.000000
-0.498164 -0.528411 0.061027 0.500000 0.500000 0.000000
0.456747 -0.765582 0.016972 0.500000 0.500000 0.000000
0.179498 0.598999 0.073529 0.500000 0.500000 0.000000
-0.151184 0.520533 0.018788 0.500000 0.500000 0.000000
0.308124 -0.523206 -0.064448 0.600000 0.000000 0.300000
0.510196 -0.490878 0.019448 0.500000 0.500000 0.000000
-0.186537 0.433163 0.018788 0.500000 0.500000 0.000000
0.308124 -0.229115 -0.053240 0.600000 0.000000 0.300000
-0.036133 0.605792 0.073529 0.500000 0.500000 0.000000
0.304492 -0.788619 0.025532 0.500000 0.500000 0.000000
-0.477563 -0.681662 0.081349 0.500000 0.500000 0.000000
0.198330 0.756078 0.073529 0.500000 0.500000 0.000000
-0.335832 -0.237940 -0.015263 0.600000 0.300000 0.000000
0.439970 -0.260994 0.082165 0.500000 0.500000 0.000000
-0.498164 -0.774886 0.079184 0.500000 0.500000 0.000000
-0.333200 0.151696 -0.203137 0.600000 0.300000 0.000000
-0.028668 0.399204 0.018788 0.500000 0.500000 0.000000
-0.400119 0.048022 0.081349 0.500000 0.500000 0.000000
-0.326121 -0.324974 0.032234 0.500000 0.500000 0.000000
0.304492 -0.626214 0.043901 0.500000 0.500000 0.000000
-0.333211 -0.125373 -0.240560 0.600000 0.300000 0.000000
0.057821 0.773952 0.018788 0.500000 0.500000 0.000000
0.432670 -0.866885 0.072957 0.500000 0.500000 0.000000
-0.335782 -0.397901 0.013624 0.600000 0.300000 0.000000
0.008798 0.715165 0.018788 0.500000 0.500000 0.000000
-0.381977 0.349108 0.034833 0.500000 0.500000 0.000000
0.304492 -0.101788 -0.159319 0.600000 0.000000 0.300000
-0.326121 -0.091197 0.061700 0.500000 0.500000 0.000000
-0.072319 0.498063 0.073529 0.500000 0.500000 0.000000
0.305598 -0.124738 -0.269505 0.600000 0.000000 0.300000
-0.390223 0.049063 0.018788 0.500000 0.500000 0.000000
0.200825 0.560750 0.073529 0.500000 0.500000 0.000000
0.308038 -0.682204 -0.003474 0.600000 0.000000 0.300000
0.334903 -0.338927 0.083165 0.500000 0.500000 0.000000
-0.456424 -0.209409 0.081349 0.500000 0.500000 0.000000
0.510929 0.313355 0.061858 0.500000 0.500000 0.000000
0.304564 -0.103130 0.065661 0.500000 0.500000 0.000000
0.346642 0.260002 0.016975 0.500000 0.500000 0.000000
-0.335832 0.228076 -0.046299 0.600000 0.300000 0.000000
-0.326121 -0.109908 0.048704 0.500000 0.500000 0.000000
0.346871 -0.186071 0.016975 0.500000 0.500000 0.000000
-0.442838 0.079704 0.081349 0.500000 0.500000 0.000000
0.233675 0.618334 0.073529 0.500000 0.500000 0.000000
-0.056500 0.507916 0.018788 0.500000 0.500000 0.000000
0.321799 -0.239861 0.013448 0.500000 0.500000 0.000000
-0.498164 0.097580 0.058648 0.500000 0.500000 0.000000
0.304492 0.224492 -0.035427 0.600000 0.000000 0.300000
0.501128 -0.690430 0.082090 0.500000 0.500000 0.000000
0.287096 0.336378 0.073529 0.500000 0.500000 0.000000
0.316794 -0.599777 0.082820 0.500000 0.500000 0.000000
-0.326121 -0.710297 0.036871 0.500000 0.500000 0.000000
0.304492 -0.326449 -0.199693 0.600000 0.000000 0.300000
-0.021570 0.680056 0.018788 0.500000 0.500000 0.000000
0.307124 0.042991 -0.101015 0.600000 0.000000 0.300000
-0.052352 0.713114 0.073529 0.500000 0.500000 0.000000
-0.326121 -0.813011 0.045955 0.500000 0.500000 0.000000
0.480593 0.094674 0.016972 0.500000 0.500000 0.000000
0.320749 -0.079390 0.082123 0.500000 0.500000 0.000000
0.489340 0.476617 0.027325 0.500000 0.500000 0.000000
0.304492 -0.141758 -0.119994 0.600000 0.000000 0.300000
-0.388161 -0.270962 0.081349 0.500000 0.500000 0.000000
0.307085 0.317515 -0.079764 0.600000 0.000000 0.300000
-0.110872 0.454165 0.018788 0.500000 0.500000 0.000000
0.255793 0.348670 0.073529 0.500000 0.500000 0.000000
-0.095653 0.404671 0.073529 0.500000 0.500000 0.000000
0.462507 0.545277 0.055742 0.500000 0.500000 0.000000
0.098381 0.414373 0.073529 0.500000 0.500000 0.000000
-0.333200 -0.334086 -0.012827 0.600000 0.300000 0.000000
-0.333200 -0.012768 -0.135049 0.600000 0.300000 0.000000
-0.498164 -0.498705 0.065753 0.500000 0.500000 0.000000
0.162052 0.646244 0.073529 0.500000 0.500000 0.000000
0.098522 0.339424 0.036991 0.500000 0.500000 0.000000
-0.333200 -0.706395 -0.139462 0.600000 0.300000 0.000000
-0.404861 -0.328911 0.081349 0.500000 0.500000 0.000000
0.213678 0.616561 0.073529 0.500000 0.500000 0.000000
-0.332523 0.027002 -0.054661 0.600000 0.300000 0.000000
0.304492 -0.526162 0.044890 0.500000 0.500000 0.000000
-0.296500 0.722352 0.018788 0.500000 0.500000 0.000000
0.111307 0.544841 0.073529 0.500000 0.500000 0.000000
-0.333200 -0.090194 -0.147465 0.600000 0.300000 0.000000
-0.335830 -0.735368 -0.000427 0.600000 0.300000 0.000000
-0.396359 0.349397 0.069996 0.500000 0.500000 0.000000
0.304492 -0.293422 -0.163331 0.600000 0.000000 0.300000
-0.326121 -0.839714 0.022426 0.500000 0.500000 0.000000
-0.007177 0.771968 0.018788 0.500000 0.500000 0.000000
0.292495 0.493785 0.073529 0.500000 0.500000 0.000000
-0.498164 -0.475921 0.073056 0.500000 0.500000 0.000000
0.307918 -0.819217 -0.115933 0.600000 0.000000 0.300000
-0.335427 0.078272 0.022497 0.600000 0.300000 0.000000
-0.416991 0.158281 0.081349 0.500000 0.500000 0.000000
-0.335832 -0.316512 -0.074805 0.600000 0.300000 0.000000
-0.474331 0.250019 0.081349 0.500000 0.500000 0.000000
0.097992 0.522267 0.018788 0.500000 0.500000 0.000000
-0.163210 0.651480 0.018788 0.500000 0.500000 0.000000
0.307124 0.267190 -0.164667 0.600000 0.000000 0.300000
-0.498164 0.300510 0.060818 0.500000 0.500000 0.000000
0.299377 0.672112 0.073529 0.500000 0.500000 0.000000
-0.431568 -0.120866 0.018788 0.500000 0.500000 0.000000
0.405747 -0.758217 0.016972 0.500000 0.500000 0.000000
0.343519 -0.275317 0.083040 0.500000 0.500000 0.000000
0.447100 0.332399 0.061675 0.500000 0.500000 0.000000
0.412016 0.186292 0.082623 0.500000 0.500000 0.000000
-0.498164 0.097474 0.021051 0.500000 0.500000 0.000000
0.354092 -0.539002 0.083165 0.500000 0.500000 0.000000
0.304492 -0.440394 -0.223879 0.600000 0.000000 0.300000
-0.475875 -0.086497 0.081349 0.500000 0.500000 0.000000
-0.367835 -0.648955 0.018788 0.500000 0.500000 0.000000
0.481576 -0.395802 0.082165 0.500000 0.500000 0.000000
0.458352 -0.004136 0.016972 0.500000 0.500000 0.000000
-0.493848 -0.429815 0.018788 0.500000 0.500000 0.000000
-0.332710 0.549910 0.018788 0.500000 0.500000 0.000000
-0.333200 -0.485095 -0.118882 0.600000 0.300000 0.000000
0.304492 -0.256683 -0.202053 0.600000 0.000000 0.300000
0.217218 0.645423 0.018788 0.500000 0.500000 0.000000
0.304492 -0.781512 -0.143227 0.600000 0.000000 0.300000
0.420412 0.295367 0.016972 0.500000 0.500000 0.000000
0.308124 -0.263655 -0.037582 0.600000 0.000000 0.300000
0.486956 0.192491 0.016975 0.500000 0.500000 0.000000
0.304510 -0.054848 -0.254257 0.600000 0.000000 0.300000
0.455968 0.340250 0.018788 0.500000 0.500000 0.000000
-0.335832 -0.481019 -0.201477 0.600000 0.300000 0.000000
-0.358969 0.035701 0.081349 0.500000 0.500000 0.000000
0.412441 -0.867154 0.037710 0.500000 0.500000 0.000000
0.374392 0.683398 0.034276 0.500000 0.500000 0.000000
-0.349892 -0.275010 0.081349 0.500000 0.500000 0.000000
0.306858 -0.826819 -0.268488 0.600000 0.000000 0.300000
-0.483714 -0.723900 0.018788 0.500000 0.500000 0.000000
0.323845 -0.570319 0.014665 0.500000 0.500000 0.000000
0.510779 0.130406 0.052382 0.500000 0.500000 0.000000
-0.418966 -0.784826 0.081349 0.500000 0.500000 0.000000
-0.335341 -0.108655 0.081349 0.500000 0.500000 0.000000
0.198840 0.577026 0.018788 0.500000 0.500000 0.000000
-0.473681 0.434677 0.018788 0.500000 0.500000 0.000000
0.381680 -0.593267 0.083165 0.500000 0.500000 0.000000
0.316220 -0.380124 0.082795 0.500000 0.500000 0.000000
0.371197 0.414106 0.073529 0.500000 0.500000 0.000000
0.246261 0.445296 0.018788 0.500000 0.500000 0.000000
0.306189 0.454603 0.018788 0.500000 0.500000 0.000000
-0.416242 0.326829 0.081349 0.500000 0.500000 0.000000
-0.342930 0.665096 0.018788 0.500000 0.500000 0.000000
-0.326121 0.218824 0.065026 0.500000 0.500000 0.000000
0.272439 0.703316 0.018788 0.500000 0.500000 0.000000
-0.071989 0.495269 0.018788 0.500000 0.500000 0.000000
-0.216910 0.790776 0.031786 0.500000 0.500000 0.000000
-0.483643 -0.532423 0.081349 0.500000 0.500000 0.000000
-0.333200 -0.380320 -0.128211 0.600000 0.300000 0.000000
-0.498164 -0.455633 0.057663 0.500000 0.500000 0.000000
-0.335832 -0.611295 -0.169682 0.600000 0.300000 0.000000
0.308124 -0.333537 -0.225539 0.600000 0.000000 0.300000
0.411565 -0.483244 0.016972 0.500000 0.500000 0.000000
0.304492 0.147368 -0.011089 0.600000 0.000000 0.300000
0.481434 0.320836 0.017058 0.500000 0.500000 0.000000
-0.335832 -0.516946 -0.032499 0.600000 0.300000 0.000000
-0.402698 -0.127121 0.018788 0.500000 0.500000 0.000000
-0.448225 -0.730700 0.081349 0.500000 0.500000 0.000000
0.360684 -0.241054 0.082173 0.500000 0.500000 0.000000
-0.204357 0.433993 0.018788 0.500000 0.500000 0.000000
-0.439719 -0.538277 0.018788 0.500000 0.500000 0.000000
-0.425249 0.283350 0.018788 0.500000 0.500000 0.000000
0.308033 -0.000695 -0.019202 0.600000 0.000000 0.300000
-0.112409 0.780848 0.018788 0.500000 0.500000 0.000000
0.483546 0.456272 0.018788 0.500000 0.500000 0.000000
-0.032515 0.468151 0.073529 0.500000 0.500000 0.000000
0.511129 -0.412031 0.066337 0.500000 0.500000 0.000000
0.304492 -0.700654 -0.179051 0.600000 0.000000 0.300000
0.178405 0.429759 0.018788 0.500000 0.500000 0.000000
0.346607 -0.614159 0.016975 0.500000 0.500000 0.000000
-0.262877 0.532532 0.018788 0.500000 0.500000 0.000000
-0.333200 -0.633874 -0.162582 0.600000 0.300000 0.000000
0.235158 0.556559 0.018788 0.500000 0.500000 0.000000
-0.033978 0.732625 0.018788 0.500000 0.500000 0.000000
0.325829 0.725132 0.060072 0.500000 0.500000 0.000000
0.062018 0.484934 0.073529 0.500000 0.500000 0.000000
0.008757 0.648819 0.073529 0.500000 0.500000 0.000000
0.317201 -0.792035 0.082837 0.500000 0.500000 0.000000
-0.335832 -0.354518 -0.042704 0.600000 0.300000 0.000000
-0.147106 0.369642 0.073529 0.500000 0.500000 0.000000
0.484976 0.487784 0.049601 0.500000 0.500000 0.000000
-0.326121 -0.783957 0.060204 0.500000 0.500000 0.000000
0.307124 -0.192174 -0.112974 0.600000 0.000000 0.300000
0.453887 0.100553 0.082165 0.500000 0.500000 0.000000
0.304493 0.020026 -0.248152 0.600000 0.000000 0.300000
0.304492 0.164190 -0.212150 0.600000 0.000000 0.300000
-0.375041 0.489693 0.018788 0.500000 0.500000 0.000000
-0.002539 0.737189 0.018788 0.500000 0.500000 0.000000
0.307123 -0.239399 -0.214562 0.600000 0.000000 0.300000
0.511121 -0.267868 0.065255 0.500000 0.500000 0.000000
0.510857 -0.272108 0.044850 0.500000 0.500000 0.000000
-0.335822 -0.438283 0.007197 0.600000 0.300000 0.000000
-0.335832 0.190644 -0.163514 0.600000 0.300000 0.000000
0.064212 0.462587 0.018788 0.500000 0.500000 0.000000
-0.426920 -0.159112 0.018788 0.500000 0.500000 0.000000
0.304492 -0.510768 -0.037743 0.600000 0.000000 0.300000
0.459831 -0.839404 0.016972 0.500000 0.500000 0.000000
0.346619 0.692843 0.018788 0.500000 0.500000 0.000000
-0.476167 0.486541 0.034773 0.500000 0.500000 0.000000
-0.494490 -0.631869 0.081349 0.500000 0.500000 0.000000
-0.334640 0.232124 -0.260254 0.600000 0.300000 0.000000
0.469349 -0.603959 0.016972 0.500000 0.500000 0.000000
-0.191866 0.523358 0.018788 0.500000 0.500000 0.000000
-0.376688 -0.256404 0.018788 0.500000 0.500000 0.000000
0.304492 -0.682619 0.034545 0.500000 0.500000 0.000000
0.304492 -0.277748 -0.070553 0.600000 0.000000 0.300000
0.307124 0.176648 -0.043754 0.600000 0.000000 0.300000
-0.364416 -0.581635 0.018788 0.500000 0.500000 0.000000
