-0.501665 0.023652 -0.257429 0.300000 0.000000 0.600000
-0.508776 -0.201396 -0.200172 0.600000 0.000000 0.300000
0.137954 0.000950 -0.280729 0.600000 0.000000 0.300000
-0.168201 0.211680 -0.327060 0.600000 0.000000 0.300000
-0.163147 0.114195 -0.277416 0.300000 0.000000 0.600000
-0.263672 -0.170475 -0.206955 0.600000 0.000000 0.300000
0.682399 -0.199531 0.729725 0.600000 0.000000 0.300000
0.284544 0.398557 -0.368088 0.600000 0.000000 0.300000
-0.120130 0.459672 -0.353385 0.300000 0.000000 0.600000
0.058713 0.523844 -0.395601 0.600000 0.000000 0.300000
-0.203381 -0.238547 0.554731 0.600000 0.000000 0.300000
0.169437 -0.191894 0.470988 0.600000 0.000000 0.300000
0.227538 -0.197433 0.629503 0.600000 0.000000 0.300000
0.126304 -0.191930 -0.190956 0.600000 0.000000 0.300000
0.566345 -0.006483 -0.279087 0.600000 0.000000 0.300000
0.180499 0.181758 -0.320388 0.600000 0.000000 0.300000
-0.093855 -0.238547 0.092744 0.600000 0.000000 0.300000
0.304656 0.011951 -0.253833 0.300000 0.000000 0.600000
-0.411116 -0.192742 0.540683 0.600000 0.000000 0.300000
0.043077 0.345569 -0.356497 0.600000 0.000000 0.300000
0.537498 -0.238547 0.036227 0.600000 0.000000 0.300000
0.557302 -0.194245 0.561771 0.600000 0.000000 0.300000
-0.228053 0.108320 -0.304306 0.600000 0.000000 0.300000
0.559749 -0.187726 0.222016 0.000000 0.500000 0.500000
0.185822 0.434361 -0.375928 0.600000 0.000000 0.300000
0.394752 -0.194256 0.594926 0.600000 0.000000 0.300000
-0.304917 -0.238547 0.042396 0.600000 0.000000 0.300000
0.618490 -0.017031 -0.275261 0.600000 0.000000 0.300000
0.102592 0.428375 -0.374646 0.600000 0.000000 0.300000
-0.117161 -0.238547 0.098907 0.600000 0.000000 0.300000
-0.282005 0.182587 -0.320571 0.600000 0.000000 0.300000
-0.503089 -0.238547 0.085721 0.600000 0.000000 0.300000
-0.500970 -0.188865 0.271563 0.000000 0.500000 0.500000
-0.151269 -0.196387 0.431345 0.000000 0.500000 0.500000
-0.274640 0.327184 -0.352425 0.600000 0.000000 0.300000
0.607304 -0.178049 -0.044283 0.000000 0.500000 0.500000
-0.434652 0.281122 -0.314039 0.300000 0.000000 0.600000
0.542456 -0.220674 -0.179874 0.500000 0.000000 0.500000
-0.137939 0.182619 -0.292468 0.300000 0.000000 0.600000
0.130125 -0.202079 0.726503 0.600000 0.300000 0.000000
0.441205 -0.178230 -0.070882 0.600000 0.000000 0.300000
-0.019783 0.226465 -0.330294 0.600000 0.000000 0.300000
-0.626674 -0.030729 -0.240604 0.600000 0.000000 0.300000
-0.566003 -0.191478 0.234424 0.000000 0.500000 0.500000
-0.053152 -0.189699 0.295482 0.000000 0.500000 0.500000
0.504470 -0.238547 0.084892 0.600000 0.000000 0.300000
-0.105990 -0.183712 0.086751 0.000000 0.500000 0.500000
-0.479316 -0.191177 0.484649 0.600000 0.000000 0.300000
-0.243874 -0.188398 -0.203020 0.600000 0.000000 0.300000
0.071306 0.154698 -0.314494 0.600000 0.000000 0.300000
-0.209148 -0.238547 0.369477 0.600000 0.000000 0.300000
-0.453078 0.098270 -0.273913 0.300000 0.000000 0.600000
-0.573810 0.100062 -0.274307 0.300000 0.000000 0.600000
0.409870 -0.238547 0.117581 0.600000 0.000000 0.300000
0.478394 -0.238547 0.170358 0.600000 0.000000 0.300000
-0.246423 -0.198741 0.728046 0.600000 0.000000 0.300000
0.305111 0.269361 -0.339737 0.600000 0.000000 0.300000
0.587537 0.370798 -0.361968 0.600000 0.000000 0.300000
0.054578 0.216112 -0.298721 0.300000 0.000000 0.600000
-0.669195 -0.199345 0.665078 0.600000 0.000000 0.300000
0.171439 -0.184917 0.126330 0.000000 0.500000 0.500000
-0.007394 0.588853 -0.409915 0.600000 0.000000 0.300000
0.116013 -0.194772 0.444049 0.000000 0.500000 0.500000
0.367802 -0.079898 -0.233729 0.300000 0.000000 0.600000
-0.491970 -0.236553 -0.090000 0.600000 0.000000 0.300000
-0.119422 0.407755 -0.341882 0.300000 0.000000 0.600000
0.082719 -0.182419 -0.030327 0.000000 0.500000 0.500000
0.616577 0.249069 -0.333772 0.600000 0.000000 0.300000
-0.085584 0.322592 -0.351376 0.600000 0.000000 0.300000
-0.489895 0.334618 -0.354088 0.600000 0.000000 0.300000
-0.638914 -0.202019 -0.211806 0.600000 0.000000 0.300000
0.117128 -0.238547 0.139077 0.600000 0.000000 0.300000
0.065683 -0.238547 0.635061 0.600000 0.000000 0.300000
0.378441 0.198884 -0.294979 0.300000 0.000000 0.600000
-0.484514 -0.238547 0.522207 0.600000 0.000000 0.300000
0.402507 -0.238547 0.649081 0.600000 0.000000 0.300000
0.538860 -0.238547 0.143691 0.600000 0.000000 0.300000
0.044406 0.435939 -0.376275 0.600000 0.000000 0.300000
0.439800 0.310581 -0.348710 0.600000 0.000000 0.300000
0.294932 0.506809 -0.391867 0.600000 0.000000 0.300000
-0.616379 0.650265 -0.387407 0.600000 0.000000 0.300000
0.214582 -0.199572 0.757166 0.600000 0.000000 0.300000
0.064073 -0.179245 -0.065834 0.600000 0.000000 0.300000
0.148060 -0.238547 0.016235 0.600000 0.000000 0.300000
0.525663 0.053155 -0.262972 0.300000 0.000000 0.600000
0.462485 0.103877 -0.274123 0.300000 0.000000 0.600000
0.674531 -0.174017 -0.131052 0.600000 0.000000 0.300000
0.394111 -0.238547 -0.060522 0.600000 0.000000 0.300000
-0.563559 0.437692 -0.348521 0.300000 0.000000 0.600000
0.343516 0.434108 -0.347704 0.300000 0.000000 0.600000
0.371961 -0.238547 0.035769 0.600000 0.000000 0.300000
0.597023 -0.025392 -0.245702 0.300000 0.000000 0.600000
-0.067584 -0.190469 -0.190984 0.600000 0.000000 0.300000
-0.134530 -0.181751 0.011717 0.000000 0.500000 0.500000
0.551882 -0.188773 0.250132 0.000000 0.500000 0.500000
0.033711 0.383338 -0.336592 0.300000 0.000000 0.600000
-0.357256 -0.181067 -0.204626 0.600000 0.000000 0.300000
-0.099417 -0.174255 -0.125854 0.600000 0.000000 0.300000
-0.158820 -0.238547 0.048652 0.600000 0.000000 0.300000
0.178096 -0.170766 -0.242545 0.600000 0.000000 0.300000
0.694480 0.638339 -0.388907 0.600000 0.000000 0.300000
0.641484 -0.233743 0.261232 0.600000 0.000000 0.300000
-0.263093 -0.232995 -0.151928 0.600000 0.000000 0.300000
-0.192683 -0.238547 0.240611 0.600000 0.000000 0.300000
0.218891 -0.238547 0.019806 0.600000 0.000000 0.300000
0.191988 -0.157189 -0.209873 0.600000 0.000000 0.300000
0.685118 0.380101 -0.325375 0.600000 0.000000 0.300000
0.019146 -0.238547 0.110020 0.600000 0.000000 0.300000
-0.385957 0.490995 -0.359749 0.300000 0.000000 0.600000
-0.649447 -0.224675 -0.116631 0.600000 0.000000 0.300000
0.062823 -0.237345 0.731081 0.600000 0.000000 0.300000
-0.475138 -0.238547 -0.085986 0.600000 0.000000 0.300000
0.192203 0.431191 -0.347039 0.300000 0.000000 0.600000
0.548414 -0.192380 0.499899 0.600000 0.000000 0.300000
-0.107653 0.075250 -0.268371 0.300000 0.000000 0.600000
0.099948 -0.088260 -0.231894 0.300000 0.000000 0.600000
-0.658329 -0.223961 -0.022578 0.600000 0.000000 0.300000
-0.512664 -0.238547 0.234558 0.600000 0.000000 0.300000
-0.610213 -0.235125 0.307230 0.600000 0.000000 0.300000
-0.422352 0.441385 -0.377472 0.600000 0.000000 0.300000
0.318728 -0.196653 0.432544 0.000000 0.500000 0.500000
-0.602336 0.506044 -0.388929 0.600000 0.000000 0.300000
0.559762 0.548841 -0.401189 0.600000 0.000000 0.300000
0.649155 -0.231882 0.181343 0.600000 0.000000 0.300000
0.027610 0.491575 -0.360315 0.300000 0.000000 0.600000
0.542601 0.025599 -0.256839 0.300000 0.000000 0.600000
0.510848 -0.182605 0.047493 0.000000 0.500000 0.500000
0.627621 -0.234547 0.697439 0.600000 0.000000 0.300000
0.553527 -0.243640 -0.077272 0.600000 0.000000 0.300000
0.373448 -0.238547 0.428182 0.600000 0.000000 0.300000
0.579284 -0.213140 -0.180200 0.500000 0.000000 0.500000
0.589088 -0.170325 -0.203838 0.500000 0.000000 0.500000
0.260342 -0.197947 0.727016 0.600000 0.000000 0.300000
0.169366 -0.200402 0.634710 0.300000 0.000000 0.600000
-0.333943 0.138771 -0.282740 0.300000 0.000000 0.600000
-0.570198 -0.191109 0.285012 0.000000 0.500000 0.500000
-0.178689 -0.238547 0.583431 0.600000 0.000000 0.300000
0.662737 -0.097930 -0.223500 0.600000 0.000000 0.300000
-0.280073 -0.238547 0.101157 0.600000 0.000000 0.300000
0.424071 0.056747 -0.263762 0.300000 0.000000 0.600000
0.549494 -0.212963 -0.159595 0.500000 0.000000 0.500000
-0.158547 -0.238547 0.443751 0.600000 0.000000 0.300000
-0.173776 -0.238547 0.192469 0.600000 0.000000 0.300000
-0.556182 0.285508 -0.315002 0.300000 0.000000 0.600000
0.320706 -0.157798 -0.245733 0.600000 0.000000 0.300000
0.053478 0.123621 -0.307685 0.600000 0.000000 0.300000
0.292552 -0.238547 0.463486 0.600000 0.000000 0.300000
-0.391743 -0.192117 0.518295 0.600000 0.000000 0.300000
0.271153 -0.122107 -0.217903 0.600000 0.000000 0.300000
-0.314652 0.632474 -0.419560 0.600000 0.000000 0.300000
-0.042752 -0.193399 0.449827 0.600000 0.000000 0.300000
-0.496827 -0.190007 0.306934 0.000000 0.500000 0.500000
-0.651317 -0.197848 0.722175 0.600000 0.000000 0.300000
-0.162717 -0.238547 0.661267 0.600000 0.000000 0.300000
-0.608216 -0.235581 0.084964 0.600000 0.000000 0.300000
0.076400 -0.238547 0.357237 0.600000 0.000000 0.300000
0.576720 0.394334 -0.338973 0.300000 0.000000 0.600000
0.444349 -0.234460 0.743804 0.600000 0.000000 0.300000
-0.059516 -0.192978 0.393758 0.000000 0.500000 0.500000
-0.635115 0.001338 -0.271130 0.600000 0.000000 0.300000
-0.453308 -0.238547 0.598430 0.600000 0.000000 0.300000
0.550182 -0.238547 0.526120 0.600000 0.000000 0.300000
-0.259766 0.388106 -0.337632 0.300000 0.000000 0.600000
0.040409 -0.066938 -0.265802 0.600000 0.000000 0.300000
-0.013979 0.332842 -0.325457 0.300000 0.000000 0.600000
0.484497 0.258278 -0.337211 0.600000 0.000000 0.300000
-0.457761 -0.181835 -0.043140 0.000000 0.500000 0.500000
0.482003 0.383812 -0.364812 0.600000 0.000000 0.300000
0.477161 -0.197614 0.705276 0.600000 0.000000 0.300000
0.588684 -0.172965 -0.169291 0.600000 0.000000 0.300000
-0.422243 -0.185372 0.143905 0.000000 0.500000 0.500000
0.379864 -0.194470 0.602585 0.600000 0.000000 0.300000
0.460042 -0.194123 0.400378 0.000000 0.500000 0.500000
-0.349760 0.497238 -0.389825 0.600000 0.000000 0.300000
-0.386694 0.642911 -0.386322 0.600000 0.000000 0.300000
-0.277215 0.684648 -0.427408 0.600000 0.000000 0.300000
-0.633614 0.528949 -0.362105 0.600000 0.000000 0.300000
0.094004 -0.238547 0.498081 0.600000 0.000000 0.300000
0.605618 -0.193325 0.561542 0.600000 0.000000 0.300000
-0.361269 -0.192514 0.390723 0.000000 0.500000 0.500000
-0.387956 0.641490 -0.421485 0.600000 0.000000 0.300000
-0.025119 0.551775 -0.373547 0.300000 0.000000 0.600000
-0.015425 -0.174017 -0.130220 0.600000 0.000000 0.300000
-0.126570 0.235310 -0.304044 0.300000 0.000000 0.600000
-0.492837 -0.203474 -0.185134 0.500000 0.000000 0.500000
-0.275858 -0.177439 -0.190093 0.600000 0.000000 0.300000
-0.448349 -0.190997 0.475488 0.600000 0.000000 0.300000
-0.062632 -0.207170 -0.190567 0.600000 0.000000 0.300000
0.642446 -0.233519 0.555797 0.600000 0.000000 0.300000
-0.034919 0.307114 -0.347948 0.600000 0.000000 0.300000
0.144565 0.222917 -0.300234 0.300000 0.000000 0.600000
0.692198 0.236521 -0.312966 0.600000 0.000000 0.300000
-0.472957 -0.238547 0.679743 0.600000 0.000000 0.300000
-0.516268 -0.238547 0.132706 0.600000 0.000000 0.300000
-0.245396 0.034819 -0.288099 0.600000 0.000000 0.300000
0.657021 -0.197693 0.717937 0.600000 0.000000 0.300000
0.278503 -0.191304 0.351871 0.000000 0.500000 0.500000
0.352954 -0.050016 -0.269513 0.600000 0.000000 0.300000
-0.516420 0.080753 -0.298268 0.600000 0.000000 0.300000
0.513090 -0.173673 -0.136895 0.600000 0.000000 0.300000
-0.037850 0.271771 -0.340272 0.600000 0.000000 0.300000
-0.175567 0.320169 -0.322702 0.300000 0.000000 0.600000
0.081919 0.083597 -0.298890 0.600000 0.000000 0.300000
0.087233 0.287864 -0.343787 0.600000 0.000000 0.300000
0.025236 -0.238547 0.216737 0.600000 0.000000 0.300000
0.306027 0.182580 -0.291437 0.300000 0.000000 0.600000
-0.173259 -0.238547 0.473462 0.600000 0.000000 0.300000
0.676026 0.676299 -0.393395 0.600000 0.000000 0.300000
-0.521804 -0.238547 0.370785 0.600000 0.000000 0.300000
-0.091013 0.242005 -0.333633 0.600000 0.000000 0.300000
0.418630 -0.108288 -0.256624 0.600000 0.000000 0.300000
0.359990 0.279485 -0.313649 0.300000 0.000000 0.600000
0.308002 -0.210894 -0.190359 0.600000 0.000000 0.300000
0.576816 0.347272 -0.328582 0.300000 0.000000 0.600000
0.214412 0.306339 -0.347779 0.600000 0.000000 0.300000
0.300539 -0.190836 0.336180 0.000000 0.500000 0.500000
-0.184624 0.188202 -0.321838 0.600000 0.000000 0.300000
-0.129879 -0.075403 -0.263941 0.600000 0.000000 0.300000
-0.040159 0.492451 -0.360514 0.300000 0.000000 0.600000
-0.495541 -0.113728 -0.255463 0.600000 0.000000 0.300000
-0.465511 0.021332 -0.285169 0.600000 0.000000 0.300000
0.674005 -0.225672 0.443022 0.600000 0.000000 0.300000
-0.088201 -0.184597 0.118807 0.000000 0.500000 0.500000
-0.506455 0.534701 -0.369727 0.300000 0.000000 0.600000
0.118080 -0.188926 0.267098 0.000000 0.500000 0.500000
-0.263565 -0.184063 0.096714 0.000000 0.500000 0.500000
0.119517 -0.184504 0.115072 0.000000 0.500000 0.500000
0.136748 -0.184634 0.113543 0.000000 0.500000 0.500000
-0.516877 -0.233804 -0.149334 0.600000 0.000000 0.300000
0.693636 0.281324 -0.323255 0.600000 0.000000 0.300000
-0.520742 -0.181573 -0.008660 0.000000 0.500000 0.500000
-0.041047 -0.238547 0.371703 0.600000 0.000000 0.300000
-0.075441 0.228123 -0.330646 0.600000 0.000000 0.300000
0.428545 -0.182573 0.042213 0.000000 0.500000 0.500000
-0.189113 -0.146708 -0.212248 0.600000 0.000000 0.300000
-0.479717 0.423791 -0.373668 0.600000 0.000000 0.300000
-0.344462 -0.238547 0.049488 0.600000 0.000000 0.300000
-0.256486 -0.173849 -0.136584 0.600000 0.000000 0.300000
0.531742 -0.188116 0.229732 0.000000 0.500000 0.500000
0.644570 -0.113205 -0.219916 0.600000 0.000000 0.300000
0.566063 0.052280 -0.262780 0.300000 0.000000 0.600000
0.146037 -0.189019 0.272015 0.000000 0.500000 0.500000
-0.538400 -0.238547 0.163870 0.600000 0.000000 0.300000
0.094249 -0.025848 -0.245601 0.300000 0.000000 0.600000
0.538540 0.715838 -0.402068 0.600000 0.000000 0.300000
-0.229834 0.445618 -0.378403 0.600000 0.000000 0.300000
0.581943 -0.187301 -0.234203 0.600000 0.000000 0.300000
0.575654 -0.194814 0.418855 0.000000 0.500000 0.500000
-0.230622 -0.238547 0.090832 0.600000 0.000000 0.300000
-0.453045 0.357201 -0.359054 0.600000 0.000000 0.300000
-0.554975 -0.195572 0.417558 0.000000 0.500000 0.500000
-0.532058 -0.238547 0.280767 0.600000 0.000000 0.300000
-0.286423 -0.176794 -0.205566 0.600000 0.000000 0.300000
0.252493 -0.180549 -0.056661 0.600000 0.000000 0.300000
-0.655517 0.321212 -0.312760 0.600000 0.000000 0.300000
0.303685 0.546876 -0.400757 0.600000 0.000000 0.300000
-0.015294 0.313758 -0.321201 0.300000 0.000000 0.600000
-0.271359 0.426813 -0.374313 0.600000 0.000000 0.300000
0.309579 0.228607 -0.330750 0.600000 0.000000 0.300000
-0.453734 0.693614 -0.426716 0.600000 0.000000 0.300000
0.218677 0.476504 -0.385285 0.600000 0.000000 0.300000
0.365103 0.015242 -0.283863 0.600000 0.000000 0.300000
0.226644 -0.217969 -0.188279 0.600000 0.000000 0.300000
-0.658005 0.270454 -0.301151 0.600000 0.000000 0.300000
0.573389 -0.046217 -0.241071 0.300000 0.000000 0.600000
0.638121 -0.186628 0.303401 0.000000 0.500000 0.500000
-0.091938 -0.200102 0.623977 0.300000 0.000000 0.600000
0.483281 -0.191071 0.338503 0.000000 0.500000 0.500000
0.259674 -0.173952 -0.142770 0.600000 0.000000 0.300000
0.697635 -0.194423 -0.010418 0.600000 0.000000 0.300000
-0.041696 0.691526 -0.396844 0.600000 0.000000 0.300000
0.369554 0.243731 -0.304929 0.300000 0.000000 0.600000
-0.283994 0.307736 -0.348085 0.600000 0.000000 0.300000
-0.515113 -0.193462 0.566473 0.600000 0.000000 0.300000
-0.295778 0.508844 -0.392304 0.600000 0.000000 0.300000
-0.389200 -0.185864 0.155633 0.000000 0.500000 0.500000
0.145653 -0.043748 -0.270884 0.600000 0.000000 0.300000
0.492237 -0.097444 -0.228056 0.600000 0.000000 0.300000
-0.203253 -0.195811 0.436369 0.000000 0.500000 0.500000
-0.437689 0.235290 -0.304039 0.300000 0.000000 0.600000
0.477119 0.724722 -0.405101 0.600000 0.000000 0.300000
-0.584841 -0.226936 0.756986 0.600000 0.000000 0.300000
-0.234064 -0.129062 -0.216314 0.600000 0.000000 0.300000
0.519750 -0.238547 0.139465 0.600000 0.000000 0.300000
-0.320878 -0.238547 0.153385 0.600000 0.000000 0.300000
0.180089 -0.238547 0.041338 0.600000 0.000000 0.300000
0.433130 -0.238547 0.190214 0.600000 0.000000 0.300000
0.151040 0.388981 -0.337826 0.300000 0.000000 0.600000
0.268585 0.023324 -0.285596 0.600000 0.000000 0.300000
0.509308 -0.238547 0.163193 0.600000 0.000000 0.300000
0.611874 -0.232386 -0.135142 0.600000 0.000000 0.300000
-0.310145 0.717165 -0.402382 0.600000 0.000000 0.300000
0.226649 -0.238547 0.098985 0.600000 0.000000 0.300000
0.000450 0.158489 -0.315303 0.600000 0.000000 0.300000
-0.485167 -0.176445 -0.077787 0.600000 0.000000 0.300000
0.258170 0.258774 -0.308639 0.300000 0.000000 0.600000
0.499074 -0.222644 0.773650 0.600000 0.000000 0.300000
0.056219 0.533511 -0.369550 0.300000 0.000000 0.600000
0.033605 0.205030 -0.296292 0.300000 0.000000 0.600000
0.633998 -0.190168 0.442690 0.600000 0.000000 0.300000
0.502344 -0.195045 0.587327 0.600000 0.000000 0.300000
0.563949 0.171512 -0.318136 0.600000 0.000000 0.300000
0.459695 0.183946 -0.320870 0.600000 0.000000 0.300000
0.572867 0.573586 -0.378398 0.300000 0.000000 0.600000
0.253340 0.615568 -0.415857 0.600000 0.000000 0.300000
0.535238 0.084903 -0.299176 0.600000 0.000000 0.300000
0.634267 0.578156 -0.377426 0.600000 0.000000 0.300000
-0.670782 0.604053 -0.380937 0.600000 0.000000 0.300000
0.373190 0.397282 -0.367797 0.600000 0.000000 0.300000
-0.454184 0.612385 -0.415154 0.600000 0.000000 0.300000
-0.138389 0.424254 -0.345507 0.300000 0.000000 0.600000
0.075799 0.592251 -0.410661 0.600000 0.000000 0.300000
0.643051 -0.187907 0.354008 0.000000 0.500000 0.500000
0.226252 -0.173738 -0.206237 0.600000 0.000000 0.300000
-0.442039 -0.238547 0.147379 0.600000 0.000000 0.300000
0.535868 -0.238547 0.506633 0.600000 0.000000 0.300000
0.505254 -0.128583 -0.216242 0.600000 0.000000 0.300000
0.559588 0.179254 -0.290705 0.300000 0.000000 0.600000
0.678689 0.520962 -0.381470 0.600000 0.000000 0.300000
0.383971 0.279509 -0.341973 0.600000 0.000000 0.300000
-0.417822 -0.238547 0.624831 0.600000 0.000000 0.300000
0.145751 0.132015 -0.309541 0.600000 0.000000 0.300000
-0.288274 -0.183369 0.074414 0.000000 0.500000 0.500000
0.048090 -0.238547 0.191918 0.600000 0.000000 0.300000
0.658924 0.591928 -0.401308 0.600000 0.000000 0.300000
-0.381608 0.534699 -0.369688 0.300000 0.000000 0.600000
-0.328037 -0.192319 0.525536 0.600000 0.000000 0.300000
-0.670692 -0.218493 0.400666 0.600000 0.000000 0.300000
0.181568 -0.198807 0.577620 0.300000 0.000000 0.600000
-0.204888 -0.185659 0.148891 0.000000 0.500000 0.500000
-0.026731 0.039340 -0.289093 0.600000 0.000000 0.300000
-0.406742 -0.238547 -0.063163 0.600000 0.000000 0.300000
0.415394 -0.009889 -0.249065 0.300000 0.000000 0.600000
0.226523 0.036298 -0.288424 0.600000 0.000000 0.300000
-0.600914 -0.149966 -0.242632 0.600000 0.000000 0.300000
0.288025 0.208475 -0.326355 0.600000 0.000000 0.300000
0.683191 0.116250 -0.291524 0.600000 0.000000 0.300000
0.667962 -0.223869 -0.137652 0.600000 0.000000 0.300000
0.660695 -0.179001 0.048733 0.600000 0.000000 0.300000
-0.325260 -0.238547 0.481692 0.600000 0.000000 0.300000
-0.582545 -0.223539 -0.178787 0.600000 0.000000 0.300000
0.500353 -0.189347 0.276761 0.000000 0.500000 0.500000
-0.182701 0.089685 -0.300222 0.600000 0.000000 0.300000
-0.061544 -0.224589 -0.204949 0.600000 0.000000 0.300000
-0.540059 -0.190026 -0.215867 0.500000 0.000000 0.500000
0.249925 -0.064014 -0.237132 0.300000 0.000000 0.600000
-0.292638 -0.214071 -0.190181 0.600000 0.000000 0.300000
-0.424624 -0.153759 -0.246661 0.600000 0.000000 0.300000
0.114312 -0.028878 -0.244935 0.300000 0.000000 0.600000
-0.611863 -0.194309 0.596790 0.600000 0.000000 0.300000
0.583248 -0.189693 0.159426 0.000000 0.500000 0.500000
-0.559814 -0.188132 0.096040 0.000000 0.500000 0.500000
0.453890 0.065079 -0.294828 0.600000 0.000000 0.300000
0.099780 -0.238547 0.209174 0.600000 0.000000 0.300000
-0.312589 -0.189375 0.256299 0.000000 0.500000 0.500000
-0.063418 0.298826 -0.346127 0.600000 0.000000 0.300000
0.130745 0.010953 -0.253614 0.300000 0.000000 0.600000
-0.253392 -0.185411 0.141000 0.000000 0.500000 0.500000
0.082020 -0.191509 0.467652 0.600000 0.000000 0.300000
0.327884 0.088982 -0.270798 0.300000 0.000000 0.600000
-0.422404 0.165680 -0.288703 0.300000 0.000000 0.600000
0.085551 -0.173540 -0.170495 0.600000 0.000000 0.300000
0.598994 0.471577 -0.384178 0.600000 0.000000 0.300000
0.265670 0.051564 -0.262622 0.300000 0.000000 0.600000
-0.656401 -0.182179 0.156314 0.600000 0.000000 0.300000
0.154078 0.017226 -0.254992 0.300000 0.000000 0.600000
0.694077 0.063696 -0.260930 0.600000 0.000000 0.300000
0.472322 -0.194812 0.579001 0.600000 0.000000 0.300000
-0.131197 0.608637 -0.414333 0.600000 0.000000 0.300000
0.013141 -0.238547 0.493198 0.600000 0.000000 0.300000
0.019431 0.398694 -0.339907 0.300000 0.000000 0.600000
-0.436098 -0.198670 0.717087 0.600000 0.000000 0.300000
-0.560775 -0.184896 0.033852 0.000000 0.500000 0.500000
-0.271299 -0.237792 -0.129719 0.600000 0.000000 0.300000
0.643392 0.141589 -0.280368 0.600000 0.000000 0.300000
-0.053188 -0.197138 0.507896 0.300000 0.000000 0.600000
0.177465 0.354531 -0.330177 0.300000 0.000000 0.600000
-0.062197 0.018682 -0.255312 0.300000 0.000000 0.600000
-0.010900 0.196861 -0.323802 0.600000 0.000000 0.300000
-0.195312 -0.152214 -0.247012 0.600000 0.000000 0.300000
0.164681 -0.175752 -0.086971 0.600000 0.000000 0.300000
0.609479 -0.238270 0.051023 0.600000 0.000000 0.300000
0.505473 -0.191637 0.475923 0.600000 0.000000 0.300000
-0.423170 -0.238547 0.453730 0.600000 0.000000 0.300000
0.516407 -0.217839 0.779628 0.600000 0.000000 0.300000
0.492583 0.330857 -0.325032 0.300000 0.000000 0.600000
0.198693 -0.199591 0.616026 0.300000 0.000000 0.600000
0.498538 -0.238547 0.177993 0.600000 0.000000 0.300000
-0.205329 0.626131 -0.418182 0.600000 0.000000 0.300000
-0.546862 -0.174402 -0.119364 0.600000 0.000000 0.300000
-0.082598 -0.182321 0.032041 0.000000 0.500000 0.500000
0.208836 0.408636 -0.370361 0.600000 0.000000 0.300000
0.169987 -0.217332 -0.188662 0.600000 0.000000 0.300000
-0.275256 -0.238547 0.513974 0.600000 0.000000 0.300000
0.571347 -0.192901 0.530750 0.600000 0.000000 0.300000
0.604196 -0.191638 0.396001 0.000000 0.500000 0.500000
-0.496417 0.119372 -0.306746 0.600000 0.000000 0.300000
-0.012914 -0.201255 0.670661 0.300000 0.000000 0.600000
0.476783 -0.207593 0.784205 0.600000 0.000000 0.300000
-0.393720 -0.236364 -0.140516 0.600000 0.000000 0.300000
0.680327 0.581967 -0.372580 0.600000 0.000000 0.300000
0.577970 -0.192109 0.513650 0.600000 0.000000 0.300000
-0.405334 -0.189998 0.306474 0.000000 0.500000 0.500000
0.395263 -0.238547 0.033026 0.600000 0.000000 0.300000
-0.204399 -0.106210 -0.257076 0.600000 0.000000 0.300000
0.053554 -0.238547 0.123622 0.600000 0.000000 0.300000
0.216849 -0.238547 0.686707 0.600000 0.000000 0.300000
-0.227575 0.260631 -0.337742 0.600000 0.000000 0.300000
-0.629972 -0.197295 0.703705 0.600000 0.000000 0.300000
0.406943 -0.174336 -0.147056 0.600000 0.000000 0.300000
-0.065818 -0.238547 0.343454 0.600000 0.000000 0.300000
0.060113 0.653972 -0.388227 0.600000 0.000000 0.300000
0.253450 -0.226110 -0.173068 0.600000 0.000000 0.300000
0.469939 -0.238547 0.485401 0.600000 0.000000 0.300000
-0.098109 0.390214 -0.338090 0.300000 0.000000 0.600000
-0.347199 0.617363 -0.384904 0.600000 0.000000 0.300000
-0.103427 0.252687 -0.307864 0.300000 0.000000 0.600000
-0.043516 0.149106 -0.284113 0.300000 0.000000 0.600000
0.477483 0.471307 -0.384142 0.600000 0.000000 0.300000
-0.208905 0.235699 -0.304129 0.300000 0.000000 0.600000
0.577010 -0.236946 -0.072014 0.600000 0.000000 0.300000
0.614794 -0.237989 0.264026 0.600000 0.000000 0.300000
-0.406128 0.343549 -0.356053 0.600000 0.000000 0.300000
0.547208 0.051578 -0.291801 0.600000 0.000000 0.300000
-0.246882 -0.218048 0.779887 0.600000 0.000000 0.300000
0.689283 0.490667 -0.371339 0.600000 0.000000 0.300000
0.391327 0.049394 -0.291306 0.600000 0.000000 0.300000
0.606085 0.054392 -0.292148 0.600000 0.000000 0.300000
0.436919 -0.238547 0.630773 0.600000 0.000000 0.300000
0.672100 -0.189463 0.423299 0.600000 0.000000 0.300000
0.426718 -0.186077 0.158327 0.000000 0.500000 0.500000
0.565326 -0.199409 0.764242 0.600000 0.000000 0.300000
-0.496200 -0.237876 0.615582 0.600000 0.000000 0.300000
0.094491 -0.182532 0.041499 0.000000 0.500000 0.500000
0.018801 0.556528 -0.374592 0.300000 0.000000 0.600000
-0.206374 -0.173368 -0.153795 0.600000 0.000000 0.300000
-0.055286 -0.199970 0.751502 0.600000 0.000000 0.300000
0.194052 0.502040 -0.362688 0.300000 0.000000 0.600000
-0.664573 -0.222183 0.555257 0.600000 0.000000 0.300000
-0.069879 0.567304 -0.376972 0.300000 0.000000 0.600000
-0.304806 -0.182693 0.050665 0.000000 0.500000 0.500000
0.435443 0.572726 -0.378203 0.300000 0.000000 0.600000
-0.248363 -0.191980 0.513394 0.600000 0.000000 0.300000
-0.473509 0.675896 -0.393447 0.600000 0.000000 0.300000
0.664555 -0.175295 -0.083917 0.600000 0.000000 0.300000
-0.523641 0.267455 -0.311035 0.300000 0.000000 0.600000
-0.018987 -0.238547 0.297170 0.600000 0.000000 0.300000
0.374258 -0.186965 0.198130 0.000000 0.500000 0.500000
0.589787 0.592901 -0.382670 0.300000 0.000000 0.600000
0.670016 -0.195611 0.643366 0.600000 0.000000 0.300000
0.613193 0.186649 -0.320620 0.600000 0.000000 0.300000
0.411687 0.160430 -0.286483 0.300000 0.000000 0.600000
0.496285 -0.022924 -0.275452 0.600000 0.000000 0.300000
0.695507 -0.216211 0.154128 0.600000 0.000000 0.300000
-0.067316 -0.002199 -0.280034 0.600000 0.000000 0.300000
-0.346988 -0.238547 0.380318 0.600000 0.000000 0.300000
-0.279109 0.497250 -0.389828 0.600000 0.000000 0.300000
0.392403 -0.238547 0.401735 0.600000 0.000000 0.300000
-0.653508 -0.225100 0.484384 0.600000 0.000000 0.300000
-0.447516 0.326578 -0.352286 0.600000 0.000000 0.300000
0.695468 -0.205046 -0.072724 0.600000 0.000000 0.300000
0.015864 -0.174103 -0.134431 0.600000 0.000000 0.300000
-0.081632 -0.181728 0.011108 0.000000 0.500000 0.500000
-0.371605 0.054596 -0.292486 0.600000 0.000000 0.300000
0.420044 0.451845 -0.379772 0.600000 0.000000 0.300000
0.060517 -0.237365 -0.133310 0.600000 0.000000 0.300000
0.542765 0.585882 -0.381123 0.300000 0.000000 0.600000
0.628474 -0.236429 0.092807 0.600000 0.000000 0.300000
-0.183570 -0.238547 -0.005528 0.600000 0.000000 0.300000
-0.389195 0.681538 -0.394631 0.600000 0.000000 0.300000
0.110203 -0.238547 0.302866 0.600000 0.000000 0.300000
-0.182039 -0.238547 0.678244 0.600000 0.000000 0.300000
0.501539 -0.184275 0.102539 0.000000 0.500000 0.500000
-0.484488 -0.193688 0.397697 0.000000 0.500000 0.500000
0.656093 -0.230142 0.433260 0.600000 0.000000 0.300000
-0.102510 0.674623 -0.392912 0.600000 0.000000 0.300000
0.369354 -0.188046 -0.235809 0.600000 0.000000 0.300000
-0.337714 0.647287 -0.387099 0.600000 0.000000 0.300000
0.188901 -0.238547 0.443091 0.600000 0.000000 0.300000
0.309055 0.586290 -0.409352 0.600000 0.000000 0.300000
-0.235412 -0.238547 0.593562 0.600000 0.000000 0.300000
-0.389461 -0.188737 0.250312 0.000000 0.500000 0.500000
-0.455912 -0.174243 -0.121674 0.600000 0.000000 0.300000
0.532838 -0.238547 -0.040051 0.600000 0.000000 0.300000
0.036269 0.088839 -0.300037 0.600000 0.000000 0.300000
-0.186258 -0.238545 0.706298 0.600000 0.000000 0.300000
0.182872 -0.118258 -0.219711 0.600000 0.000000 0.300000
-0.413461 -0.234794 0.742916 0.600000 0.000000 0.300000
0.015494 -0.024436 -0.245912 0.300000 0.000000 0.600000
0.343400 -0.192751 0.541029 0.600000 0.000000 0.300000
0.195478 -0.210465 -0.198309 0.600000 0.000000 0.300000
0.526817 -0.238547 0.628637 0.600000 0.000000 0.300000
-0.179594 -0.005103 -0.251113 0.300000 0.000000 0.600000
0.514497 -0.238547 0.047107 0.600000 0.000000 0.300000
0.142167 0.328780 -0.352789 0.600000 0.000000 0.300000
0.328974 0.700610 -0.425952 0.600000 0.000000 0.300000
-0.104063 -0.182986 0.060395 0.000000 0.500000 0.500000
0.614230 -0.184097 0.135512 0.000000 0.500000 0.500000
-0.088489 -0.238547 -0.101232 0.600000 0.000000 0.300000
0.172376 -0.045127 -0.241319 0.300000 0.000000 0.600000
-0.322715 -0.191303 0.489167 0.600000 0.000000 0.300000
0.070384 -0.238540 0.712765 0.600000 0.000000 0.300000
0.378751 0.139156 -0.281803 0.300000 0.000000 0.600000
-0.068073 0.078350 -0.268434 0.300000 0.000000 0.600000
0.637022 0.076985 -0.266620 0.600000 0.000000 0.300000
0.421524 -0.238540 -0.117214 0.600000 0.000000 0.300000
0.494720 0.639214 -0.421000 0.600000 0.000000 0.300000
0.014197 -0.233579 -0.150133 0.600000 0.000000 0.300000
0.606058 0.599647 -0.383836 0.300000 0.000000 0.600000
0.361254 -0.234480 0.743753 0.600000 0.000000 0.300000
0.428779 -0.198952 0.762889 0.600000 0.000000 0.300000
0.334759 0.126192 -0.278980 0.300000 0.000000 0.600000
-0.373035 0.439885 -0.377142 0.600000 0.000000 0.300000
0.402364 -0.186994 0.204616 0.000000 0.500000 0.500000
0.219001 0.679210 -0.393849 0.600000 0.000000 0.300000
-0.167097 0.628984 -0.385690 0.600000 0.000000 0.300000
-0.157430 0.553301 -0.402170 0.600000 0.000000 0.300000
0.693998 -0.218210 0.344061 0.600000 0.000000 0.300000
0.096497 0.467180 -0.383235 0.600000 0.000000 0.300000
0.206530 -0.082233 -0.262383 0.600000 0.000000 0.300000
-0.670039 0.127256 -0.287344 0.600000 0.000000 0.300000
0.689850 -0.153171 -0.228537 0.600000 0.000000 0.300000
0.679667 -0.172876 -0.225674 0.600000 0.000000 0.300000
-0.362639 0.134850 -0.310168 0.600000 0.000000 0.300000
-0.655972 -0.223463 0.706953 0.600000 0.000000 0.300000
-0.041899 0.473359 -0.384594 0.600000 0.000000 0.300000
0.587163 -0.238547 0.584923 0.600000 0.000000 0.300000
-0.390695 0.179091 -0.291692 0.300000 0.000000 0.600000
0.408516 0.138815 -0.311040 0.600000 0.000000 0.300000
0.175059 0.050679 -0.262428 0.300000 0.000000 0.600000
0.209132 -0.200268 0.736365 0.600000 0.000000 0.300000
0.624042 0.097981 -0.299658 0.600000 0.000000 0.300000
-0.612731 -0.192690 0.538828 0.600000 0.000000 0.300000
0.217075 -0.186060 0.156636 0.000000 0.500000 0.500000
0.207446 -0.196584 0.518884 0.300000 0.000000 0.600000
0.560865 -0.070450 -0.265030 0.600000 0.000000 0.300000
-0.230064 -0.224400 -0.206529 0.600000 0.000000 0.300000
0.524003 -0.194181 0.556405 0.600000 0.000000 0.300000
-0.143282 -0.199499 -0.200589 0.600000 0.000000 0.300000
0.110429 -0.238547 0.428949 0.600000 0.000000 0.300000
0.657180 -0.174129 -0.125926 0.600000 0.000000 0.300000
0.564773 -0.238547 0.075860 0.600000 0.000000 0.300000
-0.147328 -0.179469 -0.190938 0.600000 0.000000 0.300000
-0.455375 -0.238547 0.623709 0.600000 0.000000 0.300000
-0.117278 -0.238547 0.435749 0.600000 0.000000 0.300000
-0.455210 -0.187047 0.206527 0.000000 0.500000 0.500000
-0.141183 -0.036443 -0.272481 0.600000 0.000000 0.300000
-0.279698 0.367183 -0.333037 0.300000 0.000000 0.600000
0.664645 0.158960 -0.281058 0.600000 0.000000 0.300000
-0.396335 -0.238547 0.232839 0.600000 0.000000 0.300000
0.239587 0.200672 -0.295361 0.300000 0.000000 0.600000
-0.054611 -0.174226 -0.122193 0.600000 0.000000 0.300000
0.680920 -0.191722 0.500916 0.600000 0.000000 0.300000
-0.362047 -0.238547 -0.005523 0.600000 0.000000 0.300000
0.491659 -0.238547 0.058352 0.600000 0.000000 0.300000
-0.380617 0.614849 -0.415695 0.600000 0.000000 0.300000
-0.083821 -0.224558 -0.177870 0.600000 0.000000 0.300000
0.417253 -0.074347 -0.234922 0.300000 0.000000 0.600000
0.608192 0.666010 -0.390864 0.600000 0.000000 0.300000
-0.180526 0.612450 -0.415171 0.600000 0.000000 0.300000
0.479159 -0.002548 -0.279957 0.600000 0.000000 0.300000
-0.375625 -0.126191 -0.217031 0.600000 0.000000 0.300000
-0.646378 -0.150347 -0.211488 0.600000 0.000000 0.300000
-0.399946 -0.238547 0.486560 0.600000 0.000000 0.300000
-0.377335 -0.238547 0.128008 0.600000 0.000000 0.300000
-0.213755 -0.178688 -0.068214 0.600000 0.000000 0.300000
0.694599 -0.184818 0.170408 0.600000 0.000000 0.300000
-0.239382 -0.238547 0.429719 0.600000 0.000000 0.300000
-0.436598 0.695767 -0.426473 0.600000 0.000000 0.300000
-0.253665 -0.238547 0.197020 0.600000 0.000000 0.300000
0.214868 -0.238547 0.531990 0.600000 0.000000 0.300000
0.531143 -0.213635 -0.190194 0.600000 0.000000 0.300000
0.560035 0.444952 -0.350146 0.300000 0.000000 0.600000
0.428690 0.160873 -0.286584 0.300000 0.000000 0.600000
-0.042021 0.108849 -0.304422 0.600000 0.000000 0.300000
-0.153759 0.136901 -0.310619 0.600000 0.000000 0.300000
-0.458968 -0.238547 0.027604 0.600000 0.000000 0.300000
-0.187997 -0.238547 -0.061936 0.600000 0.000000 0.300000
0.126648 0.488664 -0.387958 0.600000 0.000000 0.300000
0.230831 -0.095987 -0.228925 0.600000 0.000000 0.300000
-0.513918 -0.227428 0.762298 0.600000 0.000000 0.300000
0.438773 -0.216974 -0.218619 0.600000 0.000000 0.300000
0.007934 0.358115 -0.330984 0.300000 0.000000 0.600000
0.529692 -0.193712 0.539584 0.600000 0.000000 0.300000
0.218463 -0.229291 -0.163256 0.600000 0.000000 0.300000
0.248882 -0.238547 0.689697 0.600000 0.000000 0.300000
-0.265558 -0.052092 -0.269058 0.600000 0.000000 0.300000
-0.490947 0.188830 -0.321982 0.600000 0.000000 0.300000
-0.159155 0.685269 -0.395328 0.600000 0.000000 0.300000
0.120684 0.398864 -0.368158 0.600000 0.000000 0.300000
0.400988 0.246434 -0.334607 0.600000 0.000000 0.300000
0.188503 -0.191772 0.375672 0.000000 0.500000 0.500000
0.002052 0.144243 -0.282921 0.300000 0.000000 0.600000
-0.559881 -0.099706 -0.228127 0.600000 0.000000 0.300000
-0.128728 -0.190327 0.262323 0.000000 0.500000 0.500000
-0.188248 -0.132976 -0.251279 0.600000 0.000000 0.300000
-0.028510 -0.238547 0.251602 0.600000 0.000000 0.300000
0.616789 0.721467 -0.404107 0.600000 0.000000 0.300000
0.477614 -0.040044 -0.242474 0.300000 0.000000 0.600000
0.626340 0.294365 -0.342556 0.600000 0.000000 0.300000
0.329393 -0.206622 -0.190597 0.600000 0.000000 0.300000
0.323620 -0.238547 0.487481 0.600000 0.000000 0.300000
-0.261898 0.310308 -0.348651 0.600000 0.000000 0.300000
0.075532 0.419536 -0.372759 0.600000 0.000000 0.300000
0.108765 -0.178730 -0.068037 0.600000 0.000000 0.300000
-0.616384 0.464575 -0.376853 0.600000 0.000000 0.300000
-0.632166 -0.230090 0.430357 0.600000 0.000000 0.300000
-0.070083 0.518134 -0.394345 0.600000 0.000000 0.300000
0.447385 0.419332 -0.344426 0.300000 0.000000 0.600000
-0.604361 0.477740 -0.382305 0.600000 0.000000 0.300000
-0.672645 -0.193570 0.318615 0.600000 0.000000 0.300000
-0.667384 -0.221324 0.003795 0.600000 0.000000 0.300000
0.008186 -0.014532 -0.277307 0.600000 0.000000 0.300000
0.395851 -0.229756 0.756200 0.600000 0.000000 0.300000
-0.121044 -0.238547 0.131292 0.600000 0.000000 0.300000
-0.647876 -0.000586 -0.244788 0.600000 0.000000 0.300000
0.370768 0.688985 -0.395989 0.600000 0.000000 0.300000
-0.428292 -0.238541 -0.115984 0.600000 0.000000 0.300000
0.155951 0.559590 -0.403529 0.600000 0.000000 0.300000
0.384621 0.574493 -0.406758 0.600000 0.000000 0.300000
0.601733 -0.182774 0.008966 0.000000 0.500000 0.500000
0.218452 -0.108031 -0.223714 0.600000 0.000000 0.300000
0.285799 0.530734 -0.368955 0.300000 0.000000 0.600000
0.347207 0.335479 -0.354278 0.600000 0.000000 0.300000
-0.290091 0.427081 -0.345719 0.300000 0.000000 0.600000
0.324080 -0.175366 -0.095114 0.600000 0.000000 0.300000
-0.227228 -0.174642 -0.107269 0.600000 0.000000 0.300000
0.281882 -0.192642 0.390471 0.000000 0.500000 0.500000
-0.476769 -0.194966 -0.201584 0.600000 0.000000 0.300000
-0.355280 0.265347 -0.310577 0.300000 0.000000 0.600000
0.379810 0.304494 -0.319244 0.300000 0.000000 0.600000
-0.547421 0.092771 -0.272682 0.300000 0.000000 0.600000
0.559477 -0.238547 0.557315 0.600000 0.000000 0.300000
-0.100274 -0.085095 -0.232589 0.300000 0.000000 0.600000
-0.317218 0.184038 -0.320890 0.600000 0.000000 0.300000
0.528512 0.537788 -0.370472 0.300000 0.000000 0.600000
-0.426639 -0.180348 -0.058512 0.600000 0.000000 0.300000
-0.044594 -0.202851 0.784282 0.600000 0.000000 0.300000
-0.188414 0.488749 -0.359688 0.300000 0.000000 0.600000
0.166802 0.656276 -0.388735 0.600000 0.000000 0.300000
0.672340 -0.226091 0.564029 0.600000 0.000000 0.300000
-0.313988 0.247406 -0.334820 0.600000 0.000000 0.300000
-0.459100 -0.198514 0.720809 0.600000 0.000000 0.300000
-0.530959 -0.183992 0.079521 0.000000 0.500000 0.500000
-0.620851 -0.161036 -0.209027 0.600000 0.000000 0.300000
0.132111 -0.181070 -0.052052 0.600000 0.000000 0.300000
0.381744 -0.238547 0.112717 0.600000 0.000000 0.300000
0.488851 0.214644 -0.298398 0.300000 0.000000 0.600000
0.281985 -0.208394 0.784352 0.600000 0.000000 0.300000
0.296445 0.341007 -0.355494 0.600000 0.000000 0.300000
0.382167 -0.173656 -0.163100 0.600000 0.000000 0.300000
0.202513 -0.231165 0.752509 0.600000 0.000000 0.300000
0.545425 -0.199394 0.773148 0.600000 0.000000 0.300000
-0.137882 0.689826 -0.396284 0.600000 0.000000 0.300000
-0.306889 -0.238547 0.006241 0.600000 0.000000 0.300000
0.558575 0.030489 -0.257950 0.300000 0.000000 0.600000
0.488236 -0.181535 0.000185 0.000000 0.500000 0.500000
-0.289815 -0.238547 0.444398 0.600000 0.000000 0.300000
-0.345784 -0.193741 -0.190921 0.600000 0.000000 0.300000
0.285980 -0.183582 -0.190959 0.600000 0.000000 0.300000
0.393259 -0.174710 -0.131700 0.600000 0.000000 0.300000
0.419593 -0.189496 -0.235163 0.600000 0.000000 0.300000
0.605198 0.410031 -0.370265 0.600000 0.000000 0.300000
-0.627526 -0.074162 -0.256138 0.600000 0.000000 0.300000
0.618211 -0.237683 0.174019 0.600000 0.000000 0.300000
0.293868 -0.094677 -0.229269 0.600000 0.000000 0.300000
-0.531170 -0.195629 0.644053 0.600000 0.000000 0.300000
-0.056660 0.025228 -0.286004 0.600000 0.000000 0.300000
-0.545681 -0.087360 -0.233115 0.300000 0.000000 0.600000
-0.266481 -0.191564 0.498539 0.600000 0.000000 0.300000
-0.030923 0.502563 -0.390961 0.600000 0.000000 0.300000
0.268445 -0.176033 -0.082474 0.600000 0.000000 0.300000
-0.487755 -0.238547 0.015689 0.600000 0.000000 0.300000
-0.629987 -0.180391 0.098516 0.600000 0.000000 0.300000
-0.030062 0.724396 -0.404984 0.600000 0.000000 0.300000
0.363220 0.108794 -0.275204 0.300000 0.000000 0.600000
0.167181 -0.147293 -0.248131 0.600000 0.000000 0.300000
0.121414 -0.192432 0.475630 0.600000 0.000000 0.300000
-0.598398 0.639606 -0.385797 0.600000 0.000000 0.300000
-0.094469 0.065533 -0.265813 0.300000 0.000000 0.600000
0.148667 -0.182737 -0.015949 0.000000 0.500000 0.500000
-0.313204 0.528370 -0.396596 0.600000 0.000000 0.300000
-0.576693 -0.172851 -0.165521 0.600000 0.000000 0.300000
-0.001704 0.506166 -0.363595 0.300000 0.000000 0.600000
-0.134975 0.668689 -0.426971 0.600000 0.000000 0.300000
-0.336144 -0.237418 -0.134875 0.600000 0.000000 0.300000
0.641799 -0.193638 0.572762 0.600000 0.000000 0.300000
-0.109013 -0.238547 0.648403 0.600000 0.000000 0.300000
0.111778 -0.071857 -0.264721 0.600000 0.000000 0.300000
-0.024484 -0.238547 -0.045837 0.600000 0.000000 0.300000
-0.646215 0.190335 -0.286338 0.600000 0.000000 0.300000
0.602524 -0.174160 -0.127317 0.600000 0.000000 0.300000
-0.661830 0.618034 -0.381943 0.600000 0.000000 0.300000
-0.311960 -0.099981 -0.227995 0.600000 0.000000 0.300000
0.573531 -0.174694 -0.105437 0.600000 0.000000 0.300000
0.213968 -0.191301 0.290622 0.000000 0.500000 0.500000
0.194317 -0.238547 0.311278 0.600000 0.000000 0.300000
-0.208214 0.716799 -0.402292 0.600000 0.000000 0.300000
0.261543 -0.191949 0.376042 0.000000 0.500000 0.500000
-0.357332 -0.191278 0.357990 0.000000 0.500000 0.500000
0.460760 -0.238547 0.605888 0.600000 0.000000 0.300000
0.677655 -0.224754 0.301915 0.600000 0.000000 0.300000
0.556944 -0.106434 -0.257027 0.600000 0.000000 0.300000
-0.313336 0.114350 -0.277450 0.300000 0.000000 0.600000
-0.229452 0.341934 -0.355697 0.600000 0.000000 0.300000
-0.238100 -0.193935 0.583379 0.600000 0.000000 0.300000
0.066541 -0.238547 0.524050 0.600000 0.000000 0.300000
0.487651 0.144013 -0.312183 0.600000 0.000000 0.300000
-0.382060 -0.238547 0.425061 0.600000 0.000000 0.300000
-0.593662 -0.237709 0.094462 0.600000 0.000000 0.300000
-0.056427 0.711182 -0.424025 0.600000 0.000000 0.300000
-0.331647 -0.238547 -0.046460 0.600000 0.000000 0.300000
0.240133 -0.195027 0.566755 0.600000 0.000000 0.300000
-0.668972 -0.183642 -0.110603 0.600000 0.000000 0.300000
-0.191595 -0.197004 0.569466 0.300000 0.000000 0.600000
-0.284623 -0.197703 0.686940 0.600000 0.000000 0.300000
-0.101566 0.477017 -0.357110 0.300000 0.000000 0.600000
-0.382266 -0.238547 0.275820 0.600000 0.000000 0.300000
0.524383 0.446328 -0.350449 0.300000 0.000000 0.600000
-0.094673 -0.238547 0.191728 0.600000 0.000000 0.300000
-0.592481 0.720888 -0.403706 0.600000 0.000000 0.300000
0.616692 0.138273 -0.309550 0.600000 0.000000 0.300000
-0.493571 -0.043092 -0.242809 0.300000 0.000000 0.600000
-0.308687 -0.190258 0.315096 0.000000 0.500000 0.500000
0.048175 -0.190464 0.328829 0.000000 0.500000 0.500000
-0.128652 -0.238547 0.663959 0.600000 0.000000 0.300000
0.258777 -0.212956 -0.197855 0.600000 0.000000 0.300000
-0.669435 -0.185562 0.185619 0.600000 0.000000 0.300000
-0.341857 -0.191721 0.371047 0.000000 0.500000 0.500000
0.667419 0.161675 -0.304889 0.600000 0.000000 0.300000
-0.118345 0.223065 -0.329563 0.600000 0.000000 0.300000
0.303145 -0.182247 0.033335 0.000000 0.500000 0.500000
0.538483 -0.176482 -0.169032 0.500000 0.000000 0.500000
0.224318 -0.020774 -0.275927 0.600000 0.000000 0.300000
-0.236533 -0.035695 -0.272645 0.600000 0.000000 0.300000
0.390495 -0.191575 0.496984 0.600000 0.000000 0.300000
-0.173482 0.249848 -0.335357 0.600000 0.000000 0.300000
-0.516791 0.498703 -0.361933 0.300000 0.000000 0.600000
0.230050 -0.192866 0.454957 0.600000 0.000000 0.300000
0.361354 -0.238547 0.415858 0.600000 0.000000 0.300000
-0.612077 -0.186891 0.319257 0.600000 0.000000 0.300000
0.128098 0.098598 -0.302170 0.600000 0.000000 0.300000
0.217061 -0.220930 0.776784 0.600000 0.000000 0.300000
0.567952 -0.184222 0.068146 0.000000 0.500000 0.500000
0.088692 0.209878 -0.297351 0.300000 0.000000 0.600000
0.400885 0.535664 -0.370012 0.300000 0.000000 0.600000
0.499667 0.437785 -0.376680 0.600000 0.000000 0.300000
-0.297101 -0.238547 0.571615 0.600000 0.000000 0.300000
0.078267 -0.195577 0.498704 0.300000 0.000000 0.600000
-0.239735 -0.182347 0.027111 0.000000 0.500000 0.500000
0.095101 -0.174217 -0.139894 0.600000 0.000000 0.300000
0.284307 0.277154 -0.313080 0.300000 0.000000 0.600000
0.402822 -0.192033 0.382442 0.000000 0.500000 0.500000
0.314385 0.662943 -0.390201 0.600000 0.000000 0.300000
-0.001281 -0.238547 0.041245 0.600000 0.000000 0.300000
0.634782 -0.182609 0.161578 0.000000 0.500000 0.500000
0.558878 -0.198991 0.730731 0.600000 0.000000 0.300000
-0.502609 -0.181699 -0.042448 0.000000 0.500000 0.500000
-0.289742 -0.180909 -0.053495 0.600000 0.000000 0.300000
0.664197 0.565517 -0.370197 0.600000 0.000000 0.300000
-0.234946 0.248081 -0.306853 0.300000 0.000000 0.600000
0.609898 -0.182536 0.051709 0.000000 0.500000 0.500000
0.567108 0.602744 -0.413031 0.600000 0.000000 0.300000
-0.661163 0.186739 -0.306302 0.600000 0.000000 0.300000
-0.195901 0.443313 -0.349786 0.300000 0.000000 0.600000
0.125125 -0.236432 0.735938 0.600000 0.000000 0.300000
0.346194 -0.238547 -0.107147 0.600000 0.000000 0.300000
0.606247 -0.104352 -0.257036 0.600000 0.000000 0.300000
-0.289888 -0.194663 0.606378 0.600000 0.000000 0.300000
-0.370409 -0.196591 0.424908 0.000000 0.500000 0.500000
0.409433 0.591866 -0.382442 0.300000 0.000000 0.600000
0.076963 -0.229029 0.758107 0.600000 0.000000 0.300000
-0.338057 -0.134121 -0.215047 0.600000 0.000000 0.300000
-0.341817 -0.238547 0.652996 0.600000 0.000000 0.300000
0.530573 -0.238547 0.593556 0.600000 0.000000 0.300000
0.290071 -0.238547 0.147691 0.600000 0.000000 0.300000
0.280934 -0.238547 0.292069 0.600000 0.000000 0.300000
-0.305529 -0.172896 -0.173228 0.600000 0.000000 0.300000
0.110376 0.056247 -0.292861 0.600000 0.000000 0.300000
0.219505 -0.193510 0.499156 0.600000 0.000000 0.300000
0.411268 0.178507 -0.319674 0.600000 0.000000 0.300000
-0.618958 -0.176677 -0.034967 0.600000 0.000000 0.300000
0.322646 -0.195531 0.628652 0.600000 0.000000 0.300000
-0.652877 -0.182730 0.178924 0.600000 0.000000 0.300000
0.320575 -0.238547 -0.022733 0.600000 0.000000 0.300000
0.348786 0.299692 -0.346317 0.600000 0.000000 0.300000
-0.343604 -0.238547 0.236173 0.600000 0.000000 0.300000
-0.526865 0.151706 -0.285584 0.300000 0.000000 0.600000
-0.416058 0.465956 -0.354745 0.300000 0.000000 0.600000
0.603709 -0.238416 0.439197 0.600000 0.000000 0.300000
-0.563226 -0.197731 0.719284 0.600000 0.000000 0.300000
0.540995 -0.238547 0.343341 0.600000 0.000000 0.300000
0.463184 -0.238547 0.362231 0.600000 0.000000 0.300000
0.629199 -0.185145 -0.186590 0.600000 0.000000 0.300000
0.512003 -0.004552 -0.279514 0.600000 0.000000 0.300000
-0.103436 0.669799 -0.427069 0.600000 0.000000 0.300000
0.240713 -0.183615 0.079150 0.000000 0.500000 0.500000
0.577773 -0.048473 -0.269853 0.600000 0.000000 0.300000
0.309186 0.157269 -0.285784 0.300000 0.000000 0.600000
0.593287 -0.192395 0.269358 0.000000 0.500000 0.500000
0.160711 -0.238547 0.672373 0.600000 0.000000 0.300000
0.523512 0.176527 -0.290106 0.300000 0.000000 0.600000
0.672548 0.012861 -0.247840 0.600000 0.000000 0.300000
-0.187447 0.661876 -0.425948 0.600000 0.000000 0.300000
0.143932 -0.238547 0.627889 0.600000 0.000000 0.300000
0.112867 -0.198861 0.579552 0.300000 0.000000 0.600000
-0.125857 0.170814 -0.317982 0.600000 0.000000 0.300000
0.497485 0.421578 -0.344920 0.300000 0.000000 0.600000
-0.420054 0.100924 -0.274496 0.300000 0.000000 0.600000
-0.210644 -0.238150 -0.125743 0.600000 0.000000 0.300000
-0.666822 -0.221515 0.310819 0.600000 0.000000 0.300000
-0.092838 -0.238547 0.438703 0.600000 0.000000 0.300000
0.557626 0.262424 -0.309510 0.300000 0.000000 0.600000
0.486245 -0.198699 -0.200599 0.600000 0.000000 0.300000
0.552028 -0.018633 -0.247189 0.300000 0.000000 0.600000
0.140278 0.117515 -0.306335 0.600000 0.000000 0.300000
-0.420466 0.614847 -0.415695 0.600000 0.000000 0.300000
0.232841 -0.192242 -0.202180 0.600000 0.000000 0.300000
-0.546186 -0.238547 0.250506 0.600000 0.000000 0.300000
0.377579 0.189603 -0.322159 0.600000 0.000000 0.300000
-0.371398 0.280245 -0.342135 0.600000 0.000000 0.300000
-0.359332 -0.194401 0.596613 0.600000 0.000000 0.300000
0.629392 -0.236266 -0.034957 0.600000 0.000000 0.300000
0.252313 -0.195880 0.652086 0.600000 0.000000 0.300000
0.348735 -0.238547 0.153121 0.600000 0.000000 0.300000
-0.017946 -0.182643 -0.019335 0.000000 0.500000 0.500000
0.127093 0.288505 -0.343923 0.600000 0.000000 0.300000
0.545791 -0.109110 -0.222884 0.600000 0.000000 0.300000
0.269574 0.531152 -0.397220 0.600000 0.000000 0.300000
0.301338 -0.166294 -0.243829 0.600000 0.000000 0.300000
-0.591322 -0.196814 0.686484 0.600000 0.000000 0.300000
-0.193581 -0.215855 -0.189551 0.600000 0.000000 0.300000
0.037521 0.458699 -0.353171 0.300000 0.000000 0.600000
0.074525 -0.174362 -0.124735 0.600000 0.000000 0.300000
0.265258 -0.177218 -0.205472 0.600000 0.000000 0.300000
-0.193255 0.167228 -0.289056 0.300000 0.000000 0.600000
0.364138 -0.168968 -0.207285 0.600000 0.000000 0.300000
0.671301 0.255466 -0.299452 0.600000 0.000000 0.300000
-0.051387 -0.238547 0.386108 0.600000 0.000000 0.300000
0.520461 0.644774 -0.386206 0.600000 0.000000 0.300000
0.561325 0.655040 -0.424442 0.600000 0.000000 0.300000
0.557058 0.614707 -0.384714 0.600000 0.000000 0.300000
0.152549 0.621318 -0.385013 0.600000 0.000000 0.300000
-0.102441 -0.182870 -0.011212 0.000000 0.500000 0.500000
-0.164377 0.715406 -0.401967 0.600000 0.000000 0.300000
-0.508048 -0.229771 -0.161787 0.600000 0.000000 0.300000
-0.521691 -0.188965 0.207012 0.000000 0.500000 0.500000
0.644506 0.333613 -0.322244 0.600000 0.000000 0.300000
0.072067 -0.186932 0.196664 0.000000 0.500000 0.500000
-0.052834 -0.238547 0.096306 0.600000 0.000000 0.300000
0.322542 0.348479 -0.357137 0.600000 0.000000 0.300000
-0.303931 -0.238547 0.263552 0.600000 0.000000 0.300000
0.271692 -0.192658 0.537701 0.600000 0.000000 0.300000
0.607320 0.421512 -0.344905 0.300000 0.000000 0.600000
-0.413730 -0.238547 0.076860 0.600000 0.000000 0.300000
-0.376642 0.580085 -0.379848 0.300000 0.000000 0.600000
-0.145346 0.072229 -0.268111 0.300000 0.000000 0.600000
0.061925 -0.191122 0.464316 0.600000 0.000000 0.300000
0.440064 -0.120493 -0.218516 0.600000 0.000000 0.300000
-0.669650 -0.124768 -0.222326 0.600000 0.000000 0.300000
-0.331079 0.247065 -0.306630 0.300000 0.000000 0.600000
