0.399254 0.516722 -0.380467 0.000000 0.500000 0.500000
-0.526531 -0.236304 0.450709 0.500000 0.000000 0.500000
-0.632518 0.526771 -0.407685 0.300000 0.600000 0.000000
-0.348227 0.376745 -0.357242 0.300000 0.600000 0.000000
-0.227812 0.191124 -0.277388 0.000000 0.500000 0.500000
0.073983 0.004513 -0.238682 0.300000 0.600000 0.000000
0.622997 -0.211945 0.506260 0.500000 0.000000 0.500000
-0.417872 -0.163948 -0.166116 0.000000 0.500000 0.500000
0.414650 -0.178891 -0.185888 0.300000 0.600000 0.000000
-0.554412 -0.236304 -0.099807 0.500000 0.000000 0.500000
-0.282794 -0.211945 0.712308 0.500000 0.000000 0.500000
-0.386123 -0.212944 0.550875 0.500000 0.000000 0.500000
-0.152361 -0.118747 -0.203207 0.300000 0.600000 0.000000
-0.158672 -0.236304 0.650158 0.500000 0.000000 0.500000
-0.113418 0.583148 -0.424625 0.300000 0.600000 0.000000
0.221976 -0.211266 -0.029055 0.500000 0.500000 0.000000
0.030445 0.603346 -0.407532 0.000000 0.500000 0.500000
0.248563 -0.087762 -0.212163 0.300000 0.600000 0.000000
0.624319 0.275762 -0.328986 0.300000 0.600000 0.000000
-0.661749 -0.071767 -0.220325 0.300000 0.600000 0.000000
-0.483794 -0.211266 0.121707 0.500000 0.500000 0.000000
-0.563971 -0.236304 0.078665 0.500000 0.000000 0.500000
0.228143 -0.212944 0.626880 0.500000 0.000000 0.500000
-0.191879 -0.211945 0.269695 0.500000 0.000000 0.500000
0.223110 -0.236304 0.469121 0.500000 0.000000 0.500000
0.137403 0.510683 -0.378549 0.000000 0.500000 0.500000
0.666519 0.118066 -0.277171 0.300000 0.600000 0.000000
0.440664 -0.211266 0.130808 0.500000 0.500000 0.000000
-0.411367 0.450276 -0.358624 0.000000 0.500000 0.500000
-0.167930 -0.236304 0.110822 0.500000 0.000000 0.500000
-0.541881 -0.211266 0.030663 0.500000 0.500000 0.000000
-0.150471 -0.007050 -0.215865 0.000000 0.500000 0.500000
-0.447731 -0.025205 -0.232804 0.300000 0.600000 0.000000
-0.398827 0.479174 -0.390020 0.300000 0.600000 0.000000
0.455804 0.540051 -0.410160 0.300000 0.600000 0.000000
-0.039139 0.204805 -0.299751 0.300000 0.600000 0.000000
-0.425898 0.278068 -0.327395 0.300000 0.600000 0.000000
-0.101387 -0.236304 -0.074193 0.500000 0.000000 0.500000
-0.082356 -0.236304 0.096193 0.500000 0.000000 0.500000
-0.071866 0.562885 -0.417885 0.300000 0.600000 0.000000
0.189580 -0.236304 0.330849 0.500000 0.000000 0.500000
-0.230154 -0.049547 -0.201952 0.000000 0.500000 0.500000
-0.301479 0.181566 -0.295627 0.300000 0.600000 0.000000
0.548511 0.168822 -0.271425 0.000000 0.500000 0.500000
-0.445528 0.327640 -0.320185 0.000000 0.500000 0.500000
0.542319 -0.212944 0.615589 0.500000 0.000000 0.500000
-0.145258 0.171009 -0.271051 0.000000 0.500000 0.500000
0.302404 -0.181448 -0.185152 0.300000 0.600000 0.000000
-0.473203 -0.212944 0.603927 0.500000 0.000000 0.500000
0.105446 -0.236304 0.409408 0.500000 0.000000 0.500000
0.126705 0.289899 -0.327292 0.300000 0.600000 0.000000
-0.570609 0.190556 -0.301853 0.300000 0.600000 0.000000
0.281202 -0.236304 -0.038778 0.500000 0.000000 0.500000
-0.000442 -0.236304 0.152116 0.500000 0.000000 0.500000
0.044536 0.412718 -0.347849 0.000000 0.500000 0.500000
0.453932 0.623217 -0.437516 0.300000 0.600000 0.000000
-0.329251 -0.236304 0.083467 0.500000 0.000000 0.500000
0.221535 0.169653 -0.271682 0.000000 0.500000 0.500000
-0.095151 -0.211266 0.417693 0.500000 0.500000 0.000000
-0.552463 -0.236304 0.502171 0.500000 0.000000 0.500000
-0.138032 -0.071777 -0.216710 0.300000 0.600000 0.000000
-0.596602 0.401634 -0.343327 0.000000 0.500000 0.500000
0.044639 0.535172 -0.386285 0.000000 0.500000 0.500000
-0.548501 -0.128178 -0.201880 0.300000 0.600000 0.000000
0.354785 -0.211266 0.014405 0.500000 0.500000 0.000000
-0.571302 -0.236304 0.700196 0.500000 0.000000 0.500000
-0.587390 -0.212464 0.731004 0.500000 0.000000 0.500000
-0.194488 -0.236304 0.453301 0.500000 0.000000 0.500000
-0.278258 -0.236304 0.039044 0.500000 0.000000 0.500000
0.177036 0.069712 -0.258695 0.300000 0.600000 0.000000
-0.111783 -0.236304 0.345421 0.500000 0.000000 0.500000
0.601739 0.327706 -0.344985 0.300000 0.600000 0.000000
-0.637381 -0.211945 0.709110 0.500000 0.000000 0.500000
-0.221414 0.376002 -0.355449 0.300000 0.600000 0.000000
-0.216013 -0.236304 -0.005589 0.500000 0.000000 0.500000
0.575580 -0.211945 0.214485 0.500000 0.000000 0.500000
-0.602446 0.572979 -0.397074 0.000000 0.500000 0.500000
0.451231 0.144590 -0.285696 0.300000 0.600000 0.000000
0.313924 -0.064076 -0.218935 0.300000 0.600000 0.000000
0.175622 -0.236304 0.645529 0.500000 0.000000 0.500000
-0.027261 -0.180979 -0.185287 0.300000 0.600000 0.000000
-0.575268 -0.002355 -0.241604 0.300000 0.600000 0.000000
0.507456 0.437456 -0.355652 0.000000 0.500000 0.500000
-0.310829 0.524291 -0.404901 0.300000 0.600000 0.000000
-0.447407 -0.211266 0.121353 0.500000 0.500000 0.000000
-0.319723 -0.212944 0.584468 0.500000 0.000000 0.500000
0.275813 0.172746 -0.272647 0.000000 0.500000 0.500000
0.643592 -0.236303 0.056045 0.500000 0.000000 0.500000
0.292753 -0.211443 0.109262 0.500000 0.500000 0.000000
-0.060276 -0.236304 0.243048 0.500000 0.000000 0.500000
-0.012142 0.336161 -0.341742 0.300000 0.600000 0.000000
0.583314 -0.236304 0.595955 0.500000 0.000000 0.500000
0.226869 -0.236304 0.195201 0.500000 0.000000 0.500000
0.537112 -0.236304 0.359847 0.500000 0.000000 0.500000
-0.657070 0.490565 -0.371277 0.000000 0.500000 0.500000
-0.339471 -0.209294 -0.140132 0.500000 0.000000 0.500000
0.389151 -0.236304 0.532740 0.500000 0.000000 0.500000
0.264908 0.235989 -0.292503 0.000000 0.500000 0.500000
-0.159558 0.030751 -0.227122 0.000000 0.500000 0.500000
0.534824 0.637177 -0.419131 0.300000 0.600000 0.000000
-0.425391 -0.210560 0.156296 0.500000 0.500000 0.000000
0.247818 -0.211945 0.562955 0.500000 0.000000 0.500000
-0.582239 -0.106344 -0.184135 0.000000 0.500000 0.500000
-0.600740 -0.226295 -0.162808 0.500000 0.000000 0.500000
0.529682 -0.211945 0.230184 0.500000 0.000000 0.500000
0.602252 0.493187 -0.373119 0.000000 0.500000 0.500000
0.569881 -0.236304 -0.035120 0.500000 0.000000 0.500000
0.584609 -0.236304 0.013259 0.500000 0.000000 0.500000
0.399583 -0.236304 -0.094587 0.500000 0.000000 0.500000
0.295170 -0.236304 0.484829 0.500000 0.000000 0.500000
-0.116273 -0.236304 0.679369 0.500000 0.000000 0.500000
-0.027608 0.138194 -0.261466 0.000000 0.500000 0.500000
0.466810 -0.093936 -0.211141 0.300000 0.600000 0.000000
0.437525 -0.236304 0.061790 0.500000 0.000000 0.500000
-0.624359 0.613723 -0.434922 0.300000 0.600000 0.000000
0.553274 0.047706 -0.256616 0.300000 0.600000 0.000000
-0.188221 -0.110408 -0.205608 0.300000 0.600000 0.000000
-0.182511 -0.189432 -0.158887 0.000000 0.500000 0.500000
0.208875 -0.191566 -0.157927 0.000000 0.500000 0.500000
0.670788 -0.221681 0.000769 0.500000 0.000000 0.500000
-0.652175 -0.211945 -0.000466 0.500000 0.000000 0.500000
0.311799 0.187626 -0.277323 0.000000 0.500000 0.500000
-0.200708 -0.236304 0.306341 0.500000 0.000000 0.500000
0.544577 -0.236304 -0.119972 0.500000 0.000000 0.500000
-0.428324 -0.236304 0.501119 0.500000 0.000000 0.500000
-0.064549 -0.213439 0.292487 0.500000 0.500000 0.000000
-0.353576 0.276879 -0.326114 0.300000 0.600000 0.000000
0.435905 0.040215 -0.231130 0.000000 0.500000 0.500000
0.547013 -0.021917 -0.234672 0.300000 0.600000 0.000000
-0.609193 -0.212048 -0.126056 0.500000 0.000000 0.500000
0.505244 -0.236304 -0.061043 0.500000 0.000000 0.500000
0.363066 -0.212701 0.257253 0.500000 0.500000 0.000000
0.486446 -0.035903 -0.207311 0.000000 0.500000 0.500000
-0.482625 -0.211945 0.467871 0.500000 0.000000 0.500000
-0.470324 0.482363 -0.391782 0.300000 0.600000 0.000000
-0.001176 -0.236303 -0.129119 0.500000 0.000000 0.500000
-0.471515 -0.236304 0.015416 0.500000 0.000000 0.500000
0.432218 0.185878 -0.276766 0.000000 0.500000 0.500000
0.154834 -0.236304 0.432859 0.500000 0.000000 0.500000
-0.036045 -0.236304 0.393563 0.500000 0.000000 0.500000
-0.536741 -0.236304 0.135498 0.500000 0.000000 0.500000
-0.382824 -0.236304 -0.107910 0.500000 0.000000 0.500000
-0.031303 0.259712 -0.316814 0.300000 0.600000 0.000000
0.030465 -0.212944 0.063159 0.500000 0.000000 0.500000
-0.598986 -0.211266 0.294247 0.500000 0.500000 0.000000
-0.348737 -0.211945 0.166215 0.500000 0.000000 0.500000
0.244011 -0.236304 0.421957 0.500000 0.000000 0.500000
0.549908 -0.197780 -0.154346 0.000000 0.500000 0.500000
-0.648306 -0.236304 0.547090 0.500000 0.000000 0.500000
0.390883 -0.212775 0.456613 0.500000 0.000000 0.500000
-0.563519 0.602583 -0.431182 0.300000 0.600000 0.000000
0.273605 -0.236304 0.192615 0.500000 0.000000 0.500000
-0.598789 -0.061594 -0.198195 0.000000 0.500000 0.500000
0.074750 -0.180463 -0.162006 0.000000 0.500000 0.500000
-0.224633 -0.211945 0.446334 0.500000 0.000000 0.500000
0.040489 -0.236304 0.470743 0.500000 0.000000 0.500000
-0.636480 -0.212111 0.317493 0.500000 0.000000 0.500000
0.530684 -0.236304 0.048093 0.500000 0.000000 0.500000
0.228841 0.038668 -0.230637 0.000000 0.500000 0.500000
-0.175250 -0.236304 0.539286 0.500000 0.000000 0.500000
0.070796 -0.211266 0.372134 0.500000 0.500000 0.000000
-0.333948 0.615291 -0.410335 0.000000 0.500000 0.500000
0.499718 -0.236304 0.396754 0.500000 0.000000 0.500000
-0.235558 -0.236304 0.062062 0.500000 0.000000 0.500000
0.236866 0.460994 -0.363002 0.000000 0.500000 0.500000
0.594342 -0.236304 0.356006 0.500000 0.000000 0.500000
0.070719 -0.212944 0.629847 0.500000 0.000000 0.500000
-0.524470 -0.236304 -0.071974 0.500000 0.000000 0.500000
0.340272 -0.236304 0.105304 0.500000 0.000000 0.500000
-0.555631 -0.236304 0.173567 0.500000 0.000000 0.500000
-0.643643 0.366245 -0.357622 0.300000 0.600000 0.000000
0.611481 -0.236304 0.078950 0.500000 0.000000 0.500000
-0.157503 -0.236304 0.073090 0.500000 0.000000 0.500000
-0.470937 -0.211266 0.285612 0.500000 0.500000 0.000000
-0.127636 -0.211029 0.001949 0.500000 0.500000 0.000000
0.297462 0.551057 -0.413855 0.300000 0.600000 0.000000
-0.669284 0.055091 -0.234893 0.000000 0.500000 0.500000
0.277226 -0.020450 -0.231790 0.300000 0.600000 0.000000
0.017908 0.092695 -0.264638 0.300000 0.600000 0.000000
0.351022 0.544744 -0.411734 0.300000 0.600000 0.000000
0.209252 -0.236304 0.160116 0.500000 0.000000 0.500000
0.416680 -0.211945 0.106661 0.500000 0.000000 0.500000
-0.022820 0.035539 -0.247602 0.300000 0.600000 0.000000
-0.275622 -0.211945 0.258905 0.500000 0.000000 0.500000
-0.386785 -0.211266 0.152505 0.500000 0.500000 0.000000
0.399984 0.089683 -0.246657 0.000000 0.500000 0.500000
0.093298 -0.211266 -0.020250 0.500000 0.500000 0.000000
-0.552321 0.259498 -0.323123 0.300000 0.600000 0.000000
0.216512 0.240883 -0.294059 0.000000 0.500000 0.500000
-0.202750 -0.236304 0.377239 0.500000 0.000000 0.500000
-0.093982 -0.211266 0.074782 0.500000 0.500000 0.000000
-0.389412 -0.211945 0.252316 0.500000 0.000000 0.500000
0.575827 -0.236304 0.543064 0.500000 0.000000 0.500000
0.060606 0.333951 -0.340987 0.300000 0.600000 0.000000
0.137349 0.115226 -0.272448 0.300000 0.600000 0.000000
0.541526 0.580311 -0.400420 0.000000 0.500000 0.500000
0.408084 -0.236304 0.281155 0.500000 0.000000 0.500000
-0.283981 -0.212944 0.576310 0.500000 0.000000 0.500000
-0.037558 -0.211266 0.332445 0.500000 0.500000 0.000000
0.204798 0.495374 -0.373805 0.000000 0.500000 0.500000
-0.389256 -0.142966 -0.196298 0.300000 0.600000 0.000000
-0.533398 -0.211029 -0.025838 0.500000 0.500000 0.000000
0.089295 -0.150167 -0.171487 0.000000 0.500000 0.500000
-0.184299 -0.211945 0.707250 0.500000 0.000000 0.500000
0.274064 0.140098 -0.262467 0.000000 0.500000 0.500000
0.425887 -0.236304 -0.037907 0.500000 0.000000 0.500000
-0.222294 -0.212599 0.522852 0.500000 0.000000 0.500000
0.585633 -0.119501 -0.180851 0.000000 0.500000 0.500000
-0.004515 -0.026562 -0.229758 0.300000 0.600000 0.000000
0.150431 -0.213113 0.106745 0.500000 0.500000 0.000000
0.049175 -0.236304 0.129318 0.500000 0.000000 0.500000
0.494340 -0.158680 -0.191735 0.300000 0.600000 0.000000
0.074683 -0.133676 -0.198957 0.300000 0.600000 0.000000
-0.607056 0.452044 -0.383986 0.300000 0.600000 0.000000
0.564663 -0.236304 0.430927 0.500000 0.000000 0.500000
0.064104 0.059565 -0.237230 0.000000 0.500000 0.500000
0.079479 -0.211266 -0.113352 0.500000 0.500000 0.000000
-0.039278 0.294150 -0.327799 0.300000 0.600000 0.000000
-0.204464 -0.236304 -0.070682 0.500000 0.000000 0.500000
0.198121 -0.071406 -0.196187 0.000000 0.500000 0.500000
0.565743 0.531034 -0.384987 0.000000 0.500000 0.500000
0.122735 0.214216 -0.285698 0.000000 0.500000 0.500000
-0.049670 0.506835 -0.376316 0.000000 0.500000 0.500000
-0.149707 -0.210560 -0.090614 0.500000 0.500000 0.000000
-0.615515 -0.236304 -0.023770 0.500000 0.000000 0.500000
0.664425 -0.214141 0.218889 0.500000 0.000000 0.500000
0.426988 -0.211266 0.034556 0.500000 0.500000 0.000000
0.288832 -0.236304 0.043505 0.500000 0.000000 0.500000
-0.102946 0.499346 -0.374002 0.000000 0.500000 0.500000
0.205048 0.597293 -0.429376 0.300000 0.600000 0.000000
0.112710 -0.211266 0.388124 0.500000 0.500000 0.000000
-0.165812 0.328101 -0.320332 0.000000 0.500000 0.500000
0.150291 -0.195914 -0.155421 0.000000 0.500000 0.500000
0.100061 0.155838 -0.284754 0.300000 0.600000 0.000000
-0.263789 0.361999 -0.351557 0.300000 0.600000 0.000000
0.593746 -0.236304 0.258939 0.500000 0.000000 0.500000
0.333856 0.063848 -0.258870 0.300000 0.600000 0.000000
-0.292700 0.305144 -0.334157 0.300000 0.600000 0.000000
0.231998 0.080344 -0.262712 0.300000 0.600000 0.000000
-0.263048 0.496849 -0.373222 0.000000 0.500000 0.500000
0.639620 0.406449 -0.345416 0.000000 0.500000 0.500000
0.197611 0.294712 -0.310920 0.000000 0.500000 0.500000
-0.321857 -0.236304 0.409951 0.500000 0.000000 0.500000
0.596795 -0.236304 0.442046 0.500000 0.000000 0.500000
0.330093 -0.211266 0.366495 0.500000 0.500000 0.000000
0.352023 -0.236304 0.555677 0.500000 0.000000 0.500000
-0.027508 -0.236304 0.673601 0.500000 0.000000 0.500000
0.583501 -0.054626 -0.201393 0.000000 0.500000 0.500000
0.643426 -0.211945 0.150305 0.500000 0.000000 0.500000
-0.637586 -0.210991 0.242298 0.500000 0.500000 0.000000
0.119501 -0.236304 0.214951 0.500000 0.000000 0.500000
0.103542 0.601817 -0.430920 0.300000 0.600000 0.000000
0.404096 -0.236304 0.004045 0.500000 0.000000 0.500000
-0.572708 -0.236304 -0.043314 0.500000 0.000000 0.500000
0.257826 -0.236304 0.064462 0.500000 0.000000 0.500000
-0.338319 -0.236304 -0.038889 0.500000 0.000000 0.500000
-0.640216 -0.236304 0.484056 0.500000 0.000000 0.500000
0.358715 0.010167 -0.221325 0.000000 0.500000 0.500000
0.175505 -0.211266 -0.100082 0.500000 0.500000 0.000000
0.425933 -0.211266 0.170550 0.500000 0.500000 0.000000
0.032079 0.351518 -0.346869 0.300000 0.600000 0.000000
0.349537 0.604292 -0.431765 0.300000 0.600000 0.000000
-0.007602 -0.236304 0.000009 0.500000 0.000000 0.500000
0.546129 -0.211945 0.540007 0.500000 0.000000 0.500000
0.668344 -0.160710 -0.190383 0.300000 0.600000 0.000000
0.472028 -0.236304 0.194523 0.500000 0.000000 0.500000
-0.637085 -0.236304 0.102002 0.500000 0.000000 0.500000
0.118661 0.044889 -0.250369 0.300000 0.600000 0.000000
-0.175623 0.216139 -0.285251 0.000000 0.500000 0.500000
0.246679 -0.212301 0.477749 0.500000 0.000000 0.500000
-0.516675 -0.211945 0.705730 0.500000 0.000000 0.500000
-0.561325 -0.211266 0.134814 0.500000 0.500000 0.000000
-0.655958 -0.212278 0.372308 0.500000 0.000000 0.500000
-0.609780 -0.211266 0.391806 0.500000 0.500000 0.000000
0.457257 -0.165495 -0.189743 0.300000 0.600000 0.000000
0.079357 -0.236304 0.561561 0.500000 0.000000 0.500000
0.318263 -0.236304 0.312586 0.500000 0.000000 0.500000
0.074055 -0.211266 0.274715 0.500000 0.500000 0.000000
0.531968 -0.211945 0.493724 0.500000 0.000000 0.500000
-0.514996 0.194582 -0.278489 0.000000 0.500000 0.500000
-0.367962 -0.236304 0.417079 0.500000 0.000000 0.500000
0.041986 -0.035965 -0.227087 0.300000 0.600000 0.000000
-0.596674 -0.211263 0.336346 0.500000 0.500000 0.000000
0.102983 0.557657 -0.393274 0.000000 0.500000 0.500000
0.381975 -0.211266 0.173714 0.500000 0.500000 0.000000
0.559534 -0.211266 0.299218 0.500000 0.500000 0.000000
-0.278859 -0.212679 0.526406 0.500000 0.000000 0.500000
0.590493 0.069082 -0.240210 0.000000 0.500000 0.500000
0.567137 0.416523 -0.372393 0.300000 0.600000 0.000000
0.054348 -0.236304 0.397239 0.500000 0.000000 0.500000
-0.604043 -0.236304 0.125366 0.500000 0.000000 0.500000
-0.642772 -0.078814 -0.192816 0.000000 0.500000 0.500000
-0.135572 0.580361 -0.399389 0.000000 0.500000 0.500000
0.641722 0.636951 -0.419030 0.300000 0.600000 0.000000
-0.651987 -0.211945 0.034042 0.500000 0.000000 0.500000
-0.618666 -0.236304 0.164927 0.500000 0.000000 0.500000
0.101759 -0.211452 -0.088802 0.500000 0.500000 0.000000
-0.605865 -0.212798 0.590577 0.500000 0.000000 0.500000
0.148015 -0.211945 0.702716 0.500000 0.000000 0.500000
-0.175319 -0.236304 0.219268 0.500000 0.000000 0.500000
0.472742 0.055860 -0.236068 0.000000 0.500000 0.500000
0.266739 0.346031 -0.346510 0.300000 0.600000 0.000000
0.220274 -0.211945 -0.062137 0.500000 0.000000 0.500000
-0.241809 0.554684 -0.391297 0.000000 0.500000 0.500000
-0.245876 0.601033 -0.405815 0.000000 0.500000 0.500000
-0.326150 -0.236304 0.455913 0.500000 0.000000 0.500000
0.075165 -0.211266 0.055662 0.500000 0.500000 0.000000
-0.445194 -0.120592 -0.203141 0.300000 0.600000 0.000000
0.134520 -0.211945 0.561056 0.500000 0.000000 0.500000
0.613113 -0.236304 0.289294 0.500000 0.000000 0.500000
0.526787 -0.211266 0.395195 0.500000 0.500000 0.000000
0.182889 0.313900 -0.335425 0.300000 0.600000 0.000000
-0.519823 -0.211266 0.223624 0.500000 0.500000 0.000000
0.468356 -0.211945 0.532790 0.500000 0.000000 0.500000
-0.037327 0.549550 -0.413349 0.300000 0.600000 0.000000
0.285871 -0.236304 0.334028 0.500000 0.000000 0.500000
-0.660591 -0.212218 0.592445 0.500000 0.000000 0.500000
0.300522 -0.211266 -0.024273 0.500000 0.500000 0.000000
0.268632 0.490559 -0.393539 0.300000 0.600000 0.000000
-0.487297 -0.211029 -0.025845 0.500000 0.500000 0.000000
0.641275 -0.211945 0.472351 0.500000 0.000000 0.500000
-0.202310 -0.236304 0.083109 0.500000 0.000000 0.500000
-0.281561 -0.236304 0.150372 0.500000 0.000000 0.500000
0.389932 -0.212600 0.597197 0.500000 0.000000 0.500000
-0.018783 -0.236304 0.225638 0.500000 0.000000 0.500000
-0.366998 -0.236304 0.675116 0.500000 0.000000 0.500000
-0.143766 -0.236304 0.193381 0.500000 0.000000 0.500000
0.613548 0.558239 -0.393459 0.000000 0.500000 0.500000
-0.611939 -0.156502 -0.193796 0.300000 0.600000 0.000000
-0.369285 -0.236304 0.335979 0.500000 0.000000 0.500000
0.066576 0.167369 -0.270199 0.000000 0.500000 0.500000
0.638471 0.213490 -0.285006 0.000000 0.500000 0.500000
0.283419 -0.211266 0.151160 0.500000 0.500000 0.000000
-0.291744 -0.076182 -0.215512 0.300000 0.600000 0.000000
-0.101550 0.625744 -0.413655 0.000000 0.500000 0.500000
0.487659 -0.211266 0.260073 0.500000 0.500000 0.000000
-0.664698 -0.212617 0.416438 0.500000 0.000000 0.500000
0.106458 -0.033717 -0.227734 0.300000 0.600000 0.000000
0.126728 -0.236304 0.660359 0.500000 0.000000 0.500000
-0.450594 -0.212131 0.501976 0.500000 0.000000 0.500000
-0.233584 -0.211029 0.152004 0.500000 0.500000 0.000000
0.117254 -0.236304 0.260010 0.500000 0.000000 0.500000
0.216653 -0.212375 0.587200 0.500000 0.000000 0.500000
0.183699 -0.236304 0.180790 0.500000 0.000000 0.500000
-0.503556 -0.236304 0.104322 0.500000 0.000000 0.500000
0.479520 -0.212060 0.350203 0.500000 0.000000 0.500000
0.158329 0.142140 -0.262599 0.000000 0.500000 0.500000
0.303216 -0.236304 0.133864 0.500000 0.000000 0.500000
-0.313164 0.339127 -0.345087 0.300000 0.600000 0.000000
0.383528 0.314472 -0.338040 0.300000 0.600000 0.000000
-0.080501 -0.211266 -0.083057 0.500000 0.500000 0.000000
0.458347 0.297861 -0.311908 0.000000 0.500000 0.500000
-0.165955 0.455845 -0.381889 0.300000 0.600000 0.000000
-0.046903 -0.236304 0.154278 0.500000 0.000000 0.500000
-0.376693 0.421054 -0.349411 0.000000 0.500000 0.500000
-0.520930 0.450427 -0.358671 0.000000 0.500000 0.500000
0.339329 -0.232486 -0.152599 0.500000 0.000000 0.500000
-0.156674 -0.211945 0.457315 0.500000 0.000000 0.500000
-0.271097 -0.236304 -0.120513 0.500000 0.000000 0.500000
-0.113389 -0.236304 -0.043731 0.500000 0.000000 0.500000
0.382933 0.583616 -0.424783 0.300000 0.600000 0.000000
-0.609572 -0.211266 -0.092338 0.500000 0.500000 0.000000
-0.441609 -0.211945 0.224533 0.500000 0.000000 0.500000
0.328673 -0.236234 0.719130 0.500000 0.000000 0.500000
0.589196 0.201492 -0.281706 0.000000 0.500000 0.500000
0.240639 -0.236304 0.245302 0.500000 0.000000 0.500000
-0.288342 -0.211266 0.368585 0.500000 0.500000 0.000000
0.091130 -0.236304 0.484759 0.500000 0.000000 0.500000
0.429283 -0.212532 -0.121762 0.500000 0.000000 0.500000
0.512274 -0.055284 -0.201167 0.000000 0.500000 0.500000
0.299531 -0.210560 0.061618 0.500000 0.500000 0.000000
0.430297 -0.212177 0.578349 0.500000 0.000000 0.500000
0.626282 -0.130791 -0.201572 0.300000 0.600000 0.000000
0.301830 -0.211945 0.691786 0.500000 0.000000 0.500000
-0.248413 0.389621 -0.339560 0.000000 0.500000 0.500000
-0.595232 -0.236304 0.656453 0.500000 0.000000 0.500000
-0.433126 -0.236304 0.653588 0.500000 0.000000 0.500000
-0.548990 -0.211266 0.260315 0.500000 0.500000 0.000000
-0.247946 0.326173 -0.340159 0.300000 0.600000 0.000000
0.153934 -0.236304 0.140633 0.500000 0.000000 0.500000
-0.659766 0.546417 -0.388760 0.000000 0.500000 0.500000
-0.266109 0.438491 -0.376096 0.300000 0.600000 0.000000
-0.258299 -0.040938 -0.225993 0.300000 0.600000 0.000000
-0.409243 -0.236304 0.463689 0.500000 0.000000 0.500000
0.124408 -0.102706 -0.207821 0.300000 0.600000 0.000000
0.549473 -0.171456 -0.188069 0.300000 0.600000 0.000000
0.587762 -0.211945 0.035575 0.500000 0.000000 0.500000
-0.272035 0.172980 -0.271669 0.000000 0.500000 0.500000
-0.559704 -0.236304 0.331936 0.500000 0.000000 0.500000
-0.131462 0.109060 -0.271015 0.300000 0.600000 0.000000
-0.350876 -0.236304 0.035574 0.500000 0.000000 0.500000
-0.530169 0.132835 -0.283305 0.300000 0.600000 0.000000
-0.045998 -0.236304 0.701910 0.500000 0.000000 0.500000
0.349792 -0.138463 -0.175179 0.000000 0.500000 0.500000
-0.396610 0.562915 -0.417895 0.300000 0.600000 0.000000
0.566796 -0.211266 0.259221 0.500000 0.500000 0.000000
0.345472 -0.236304 0.210998 0.500000 0.000000 0.500000
0.240737 -0.185478 -0.160262 0.000000 0.500000 0.500000
0.404750 0.165873 -0.291712 0.300000 0.600000 0.000000
0.419138 -0.211266 0.423133 0.500000 0.500000 0.000000
-0.559800 -0.236304 0.563161 0.500000 0.000000 0.500000
0.108567 -0.212944 0.628944 0.500000 0.000000 0.500000
0.632942 -0.236304 0.653042 0.500000 0.000000 0.500000
0.647316 0.515827 -0.404487 0.300000 0.600000 0.000000
0.494602 -0.084033 -0.191772 0.000000 0.500000 0.500000
0.421732 -0.212013 0.348079 0.500000 0.000000 0.500000
0.643486 -0.236303 -0.038944 0.500000 0.000000 0.500000
0.026239 0.069877 -0.240456 0.000000 0.500000 0.500000
0.531854 -0.211266 0.003446 0.500000 0.500000 0.000000
0.595226 0.119380 -0.279565 0.300000 0.600000 0.000000
0.172711 -0.212184 0.482973 0.500000 0.000000 0.500000
-0.219269 0.633467 -0.416771 0.300000 0.600000 0.000000
0.066467 -0.236304 0.241490 0.500000 0.000000 0.500000
-0.283382 -0.205635 -0.146468 0.300000 0.600000 0.000000
-0.296697 0.456105 -0.381976 0.300000 0.600000 0.000000
0.034494 0.223628 -0.288354 0.000000 0.500000 0.500000
-0.502795 -0.012810 -0.213464 0.000000 0.500000 0.500000
-0.624077 -0.185756 -0.184685 0.300000 0.600000 0.000000
-0.253763 -0.174578 -0.187129 0.300000 0.600000 0.000000
-0.046495 -0.211945 0.211021 0.500000 0.000000 0.500000
-0.276888 -0.162908 -0.166623 0.000000 0.500000 0.500000
-0.161683 -0.211266 0.341418 0.500000 0.500000 0.000000
-0.246817 0.275413 -0.303775 0.000000 0.500000 0.500000
0.631200 -0.176261 -0.187375 0.300000 0.600000 0.000000
-0.620224 0.183585 -0.300267 0.300000 0.600000 0.000000
-0.125704 -0.236304 0.415961 0.500000 0.000000 0.500000
-0.291404 0.258546 -0.319603 0.300000 0.600000 0.000000
-0.152161 0.397070 -0.362159 0.300000 0.600000 0.000000
0.120244 -0.211945 0.027599 0.500000 0.000000 0.500000
0.438901 -0.236304 0.228505 0.500000 0.000000 0.500000
0.464207 -0.060628 -0.199192 0.000000 0.500000 0.500000
-0.099463 -0.236304 0.030697 0.500000 0.000000 0.500000
-0.333916 -0.236304 0.306732 0.500000 0.000000 0.500000
0.108312 -0.211945 0.281914 0.500000 0.000000 0.500000
-0.419228 0.215036 -0.307553 0.300000 0.600000 0.000000
0.168455 -0.211266 -0.022038 0.500000 0.500000 0.000000
0.104991 -0.192699 -0.157275 0.000000 0.500000 0.500000
-0.244511 -0.236304 0.377794 0.500000 0.000000 0.500000
0.089358 -0.212080 0.085004 0.500000 0.500000 0.000000
-0.126697 -0.212773 0.634661 0.500000 0.000000 0.500000
0.269912 0.074868 -0.261476 0.300000 0.600000 0.000000
-0.672553 -0.196705 -0.154374 0.300000 0.600000 0.000000
0.038546 -0.075438 -0.215656 0.300000 0.600000 0.000000
0.375688 -0.210752 -0.052011 0.500000 0.500000 0.000000
-0.410217 -0.211945 0.697041 0.500000 0.000000 0.500000
-0.450670 -0.236304 0.043853 0.500000 0.000000 0.500000
-0.144643 -0.233088 -0.150833 0.500000 0.000000 0.500000
0.166525 -0.109316 -0.205922 0.300000 0.600000 0.000000
-0.583521 -0.211945 0.092414 0.500000 0.000000 0.500000
0.428208 -0.236304 0.503689 0.500000 0.000000 0.500000
0.070692 -0.212412 0.665990 0.500000 0.000000 0.500000
-0.031056 -0.211945 0.458970 0.500000 0.000000 0.500000
0.391326 -0.211266 0.384630 0.500000 0.500000 0.000000
-0.489824 0.386011 -0.361937 0.300000 0.600000 0.000000
0.387127 -0.106263 -0.185212 0.000000 0.500000 0.500000
0.506452 -0.236180 -0.133586 0.500000 0.000000 0.500000
-0.398963 0.342793 -0.324948 0.000000 0.500000 0.500000
-0.223104 0.073682 -0.260947 0.300000 0.600000 0.000000
-0.392971 0.609327 -0.433436 0.300000 0.600000 0.000000
-0.102188 -0.236304 0.541605 0.500000 0.000000 0.500000
0.659164 -0.235827 0.554894 0.500000 0.000000 0.500000
0.264507 -0.236304 0.019187 0.500000 0.000000 0.500000
-0.320276 -0.211945 0.687885 0.500000 0.000000 0.500000
0.046738 -0.236304 0.285744 0.500000 0.000000 0.500000
-0.166591 -0.211543 -0.020160 0.500000 0.500000 0.000000
-0.338795 0.301549 -0.312015 0.000000 0.500000 0.500000
0.128135 0.088705 -0.246345 0.000000 0.500000 0.500000
-0.651669 0.329395 -0.346131 0.300000 0.600000 0.000000
0.550040 -0.095208 -0.188463 0.000000 0.500000 0.500000
-0.581503 -0.236304 0.193026 0.500000 0.000000 0.500000
0.437914 -0.210875 -0.053095 0.500000 0.500000 0.000000
0.257161 0.433666 -0.354465 0.000000 0.500000 0.500000
-0.643051 -0.236304 0.265472 0.500000 0.000000 0.500000
0.163376 -0.236304 0.607067 0.500000 0.000000 0.500000
-0.493032 -0.211266 0.244301 0.500000 0.500000 0.000000
0.502152 -0.212514 0.593386 0.500000 0.000000 0.500000
0.233312 -0.211266 0.059584 0.500000 0.500000 0.000000
0.507854 0.606313 -0.432455 0.300000 0.600000 0.000000
-0.155229 0.271746 -0.322001 0.300000 0.600000 0.000000
-0.514323 -0.105213 -0.208690 0.300000 0.600000 0.000000
0.185378 -0.211266 0.288683 0.500000 0.500000 0.000000
0.364841 -0.236304 0.456840 0.500000 0.000000 0.500000
-0.664815 -0.212107 0.148173 0.500000 0.000000 0.500000
-0.050324 -0.210762 -0.051564 0.500000 0.500000 0.000000
0.091144 -0.236304 0.611897 0.500000 0.000000 0.500000
-0.541911 -0.202679 -0.179072 0.300000 0.600000 0.000000
0.152657 -0.211266 0.343359 0.500000 0.500000 0.000000
0.589755 -0.236304 0.499784 0.500000 0.000000 0.500000
0.269271 -0.236304 0.587108 0.500000 0.000000 0.500000
0.397097 -0.236304 0.659653 0.500000 0.000000 0.500000
-0.460416 -0.210858 -0.176389 0.300000 0.600000 0.000000
0.193797 0.433659 -0.354463 0.000000 0.500000 0.500000
-0.182070 -0.211945 0.398470 0.500000 0.000000 0.500000
0.068880 0.312415 -0.316441 0.000000 0.500000 0.500000
0.020372 -0.236304 0.395591 0.500000 0.000000 0.500000
0.030306 -0.190684 -0.158436 0.000000 0.500000 0.500000
0.159312 -0.211945 -0.062856 0.500000 0.000000 0.500000
0.512222 0.504938 -0.399338 0.300000 0.600000 0.000000
0.118493 -0.211945 0.101325 0.500000 0.000000 0.500000
0.002210 -0.205655 -0.146505 0.300000 0.600000 0.000000
0.468713 -0.211266 0.085226 0.500000 0.500000 0.000000
-0.422084 0.036551 -0.228915 0.000000 0.500000 0.500000
0.098680 -0.211945 0.552076 0.500000 0.000000 0.500000
0.392811 0.633322 -0.437097 0.300000 0.600000 0.000000
-0.099924 -0.236304 0.247704 0.500000 0.000000 0.500000
0.163861 0.472824 -0.366713 0.000000 0.500000 0.500000
-0.151818 -0.236304 0.297511 0.500000 0.000000 0.500000
0.492342 0.019395 -0.224642 0.000000 0.500000 0.500000
0.496325 0.062904 -0.260620 0.300000 0.600000 0.000000
-0.391652 0.165645 -0.291766 0.300000 0.600000 0.000000
-0.486528 -0.139440 -0.173825 0.000000 0.500000 0.500000
-0.666328 0.277476 -0.304493 0.000000 0.500000 0.500000
-0.306806 -0.211945 -0.054540 0.500000 0.000000 0.500000
0.116767 -0.236304 0.323260 0.500000 0.000000 0.500000
-0.211820 -0.236304 0.643460 0.500000 0.000000 0.500000
0.426298 -0.212315 0.670334 0.500000 0.000000 0.500000
-0.577768 0.385116 -0.362699 0.300000 0.600000 0.000000
-0.176353 0.554802 -0.391333 0.000000 0.500000 0.500000
0.048392 0.568962 -0.396863 0.000000 0.500000 0.500000
0.313952 -0.236304 0.377121 0.500000 0.000000 0.500000
-0.044714 0.478538 -0.389545 0.300000 0.600000 0.000000
-0.567690 0.048642 -0.257427 0.300000 0.600000 0.000000
-0.323661 0.099641 -0.248739 0.000000 0.500000 0.500000
0.527593 0.400354 -0.366794 0.300000 0.600000 0.000000
0.298789 0.378667 -0.357158 0.300000 0.600000 0.000000
0.172480 -0.236304 0.025850 0.500000 0.000000 0.500000
0.608026 -0.236304 -0.007943 0.500000 0.000000 0.500000
-0.158428 0.512933 -0.378210 0.000000 0.500000 0.500000
-0.535367 -0.236304 0.299004 0.500000 0.000000 0.500000
-0.092295 -0.212445 -0.128477 0.500000 0.000000 0.500000
-0.117192 -0.212321 0.510472 0.500000 0.000000 0.500000
0.627921 0.043284 -0.256195 0.300000 0.600000 0.000000
-0.656846 0.388223 -0.339192 0.000000 0.500000 0.500000
0.276962 0.280805 -0.306541 0.000000 0.500000 0.500000
-0.261095 -0.212475 0.661421 0.500000 0.000000 0.500000
0.423418 -0.211266 0.295064 0.500000 0.500000 0.000000
0.054956 -0.211266 -0.093511 0.500000 0.500000 0.000000
-0.491117 -0.211029 -0.100580 0.500000 0.500000 0.000000
0.419233 -0.111001 -0.205454 0.300000 0.600000 0.000000
-0.626721 0.424988 -0.375798 0.300000 0.600000 0.000000
-0.542389 -0.236304 0.604962 0.500000 0.000000 0.500000
0.441152 0.379266 -0.359109 0.300000 0.600000 0.000000
-0.666625 -0.212163 -0.046784 0.500000 0.000000 0.500000
0.026909 0.289189 -0.326133 0.300000 0.600000 0.000000
-0.654954 -0.212278 0.214638 0.500000 0.000000 0.500000
-0.351481 -0.082304 -0.191722 0.000000 0.500000 0.500000
0.006814 -0.211266 -0.063797 0.500000 0.500000 0.000000
-0.043777 -0.211266 0.370532 0.500000 0.500000 0.000000
-0.139713 -0.236304 0.513524 0.500000 0.000000 0.500000
0.633398 -0.236303 -0.125142 0.500000 0.000000 0.500000
0.665549 -0.042916 -0.226877 0.300000 0.600000 0.000000
-0.259709 -0.211029 0.080906 0.500000 0.500000 0.000000
0.028400 -0.236304 0.225740 0.500000 0.000000 0.500000
0.204064 -0.211016 0.342650 0.500000 0.500000 0.000000
0.118432 -0.212344 0.475830 0.500000 0.000000 0.500000
-0.323512 -0.236304 -0.003335 0.500000 0.000000 0.500000
-0.137209 -0.211945 0.481975 0.500000 0.000000 0.500000
-0.535266 -0.211029 -0.090672 0.500000 0.500000 0.000000
-0.072509 -0.236304 0.415543 0.500000 0.000000 0.500000
0.593932 -0.236304 0.387980 0.500000 0.000000 0.500000
-0.300217 -0.236304 0.317633 0.500000 0.000000 0.500000
-0.563367 -0.236304 0.222710 0.500000 0.000000 0.500000
-0.485939 -0.236304 0.188310 0.500000 0.000000 0.500000
0.073890 0.115742 -0.254394 0.000000 0.500000 0.500000
0.016612 -0.212198 0.585915 0.500000 0.000000 0.500000
-0.193401 -0.211945 -0.089867 0.500000 0.000000 0.500000
-0.649472 0.256983 -0.323427 0.300000 0.600000 0.000000
-0.043913 -0.236304 -0.117256 0.500000 0.000000 0.500000
0.340793 -0.236304 0.072447 0.500000 0.000000 0.500000
0.385809 -0.211266 0.112130 0.500000 0.500000 0.000000
-0.234713 -0.211029 -0.079584 0.500000 0.500000 0.000000
-0.088067 -0.211945 0.140241 0.500000 0.000000 0.500000
0.552269 -0.212613 0.413671 0.500000 0.500000 0.000000
-0.229012 -0.236304 0.275181 0.500000 0.000000 0.500000
-0.392978 -0.236304 0.113679 0.500000 0.000000 0.500000
0.399322 0.274458 -0.304520 0.000000 0.500000 0.500000
-0.185319 -0.077696 -0.215007 0.300000 0.600000 0.000000
0.250921 0.638736 -0.421825 0.300000 0.600000 0.000000
-0.085192 -0.169501 -0.165446 0.000000 0.500000 0.500000
-0.440900 0.121835 -0.278713 0.300000 0.600000 0.000000
0.010073 -0.206626 -0.177893 0.300000 0.600000 0.000000
-0.178235 -0.210560 0.153472 0.500000 0.500000 0.000000
0.541048 0.129881 -0.259232 0.000000 0.500000 0.500000
-0.602305 -0.212082 0.679259 0.500000 0.000000 0.500000
-0.437120 -0.236304 0.286329 0.500000 0.000000 0.500000
-0.377110 -0.212588 -0.005862 0.500000 0.500000 0.000000
-0.135884 -0.236304 0.261328 0.500000 0.000000 0.500000
0.362588 -0.236304 0.330117 0.500000 0.000000 0.500000
0.511674 -0.211945 0.120531 0.500000 0.000000 0.500000
0.431358 0.468981 -0.365490 0.000000 0.500000 0.500000
0.668393 -0.216965 0.611092 0.500000 0.000000 0.500000
-0.369435 -0.026383 -0.209248 0.000000 0.500000 0.500000
0.406081 0.131782 -0.281046 0.300000 0.600000 0.000000
0.342703 -0.236304 0.252024 0.500000 0.000000 0.500000
0.356711 0.090880 -0.267599 0.300000 0.600000 0.000000
0.451689 -0.211266 0.255007 0.500000 0.500000 0.000000
0.488037 -0.212944 0.638783 0.500000 0.000000 0.500000
0.147398 0.609875 -0.433607 0.300000 0.600000 0.000000
-0.327431 -0.236304 0.651126 0.500000 0.000000 0.500000
0.642439 -0.211945 0.244041 0.500000 0.000000 0.500000
-0.003531 -0.098951 -0.187500 0.000000 0.500000 0.500000
-0.517706 -0.236304 0.411129 0.500000 0.000000 0.500000
0.142354 0.358844 -0.349380 0.300000 0.600000 0.000000
0.526337 -0.211945 0.565631 0.500000 0.000000 0.500000
0.398067 -0.230261 -0.156555 0.500000 0.000000 0.500000
-0.447694 0.608150 -0.408075 0.000000 0.500000 0.500000
-0.099088 -0.211266 0.199135 0.500000 0.500000 0.000000
-0.435981 -0.236304 -0.055981 0.500000 0.000000 0.500000
0.521745 0.357727 -0.353323 0.300000 0.600000 0.000000
0.454252 -0.211945 -0.021608 0.500000 0.000000 0.500000
-0.088999 -0.110331 -0.205629 0.300000 0.600000 0.000000
-0.603122 -0.236304 0.570350 0.500000 0.000000 0.500000
0.463803 0.005972 -0.220434 0.000000 0.500000 0.500000
0.464828 0.343853 -0.326328 0.000000 0.500000 0.500000
-0.669643 -0.133868 -0.176272 0.000000 0.500000 0.500000
0.457060 -0.211266 0.171663 0.500000 0.500000 0.000000
-0.463985 -0.144324 -0.196066 0.300000 0.600000 0.000000
-0.441033 -0.211945 0.708998 0.500000 0.000000 0.500000
-0.133081 0.382504 -0.337330 0.000000 0.500000 0.500000
-0.091324 -0.211945 0.486520 0.500000 0.000000 0.500000
-0.179704 -0.212611 0.640146 0.500000 0.000000 0.500000
0.538219 0.036819 -0.230049 0.000000 0.500000 0.500000
-0.069135 0.036413 -0.229919 0.000000 0.500000 0.500000
-0.187062 -0.152244 -0.193617 0.300000 0.600000 0.000000
0.405978 -0.003448 -0.217327 0.000000 0.500000 0.500000
-0.607498 -0.211266 0.234118 0.500000 0.500000 0.000000
-0.000631 -0.211266 0.176990 0.500000 0.500000 0.000000
0.194220 0.586511 -0.402366 0.000000 0.500000 0.500000
0.012106 -0.211266 -0.004252 0.500000 0.500000 0.000000
-0.569701 -0.210559 -0.135646 0.500000 0.000000 0.500000
-0.453342 -0.211029 -0.032873 0.500000 0.500000 0.000000
0.644763 0.604532 -0.407340 0.000000 0.500000 0.500000
-0.438632 -0.236304 0.167443 0.500000 0.000000 0.500000
-0.584074 0.445522 -0.357132 0.000000 0.500000 0.500000
0.502096 -0.236304 0.440331 0.500000 0.000000 0.500000
0.586926 -0.236250 0.718567 0.500000 0.000000 0.500000
0.060828 -0.211945 0.716347 0.500000 0.000000 0.500000
0.494937 -0.236304 0.363041 0.500000 0.000000 0.500000
-0.287716 -0.236304 -0.074480 0.500000 0.000000 0.500000
-0.680602 -0.220383 0.048383 0.500000 0.000000 0.500000
-0.453284 -0.236304 0.195159 0.500000 0.000000 0.500000
0.173414 0.019285 -0.243110 0.300000 0.600000 0.000000
-0.157243 -0.205027 -0.147261 0.300000 0.600000 0.000000
0.360894 -0.236304 0.631485 0.500000 0.000000 0.500000
-0.075475 -0.236304 0.216075 0.500000 0.000000 0.500000
0.330577 -0.176619 -0.163215 0.000000 0.500000 0.500000
-0.265031 0.542701 -0.411047 0.300000 0.600000 0.000000
0.453470 -0.212944 0.636825 0.500000 0.000000 0.500000
0.295429 0.594303 -0.404782 0.000000 0.500000 0.500000
0.127428 -0.211945 0.525942 0.500000 0.000000 0.500000
-0.464116 -0.211029 -0.003153 0.500000 0.500000 0.000000
-0.496924 0.576687 -0.422456 0.300000 0.600000 0.000000
-0.523402 -0.212581 0.376060 0.500000 0.500000 0.000000
-0.410835 -0.236304 0.557410 0.500000 0.000000 0.500000
-0.123547 -0.211029 -0.029145 0.500000 0.500000 0.000000
-0.360008 0.031288 -0.227288 0.000000 0.500000 0.500000
-0.320516 0.398757 -0.363755 0.300000 0.600000 0.000000
-0.642170 -0.211266 0.119337 0.500000 0.500000 0.000000
0.554062 0.349848 -0.351265 0.300000 0.600000 0.000000
0.504892 -0.211266 0.077361 0.500000 0.500000 0.000000
-0.526464 -0.236304 0.639808 0.500000 0.000000 0.500000
0.364135 -0.211945 0.214247 0.500000 0.000000 0.500000
0.176169 -0.154536 -0.192942 0.300000 0.600000 0.000000
0.367378 -0.236304 0.399319 0.500000 0.000000 0.500000
0.055139 -0.211266 -0.002739 0.500000 0.500000 0.000000
0.323343 -0.211266 0.161462 0.500000 0.500000 0.000000
0.355523 0.444602 -0.357893 0.000000 0.500000 0.500000
0.165852 -0.236304 0.080239 0.500000 0.000000 0.500000
0.135814 -0.073947 -0.216086 0.300000 0.600000 0.000000
0.004143 -0.236304 0.624221 0.500000 0.000000 0.500000
0.152653 -0.021382 -0.231220 0.300000 0.600000 0.000000
0.531468 -0.236304 0.248966 0.500000 0.000000 0.500000
-0.607077 0.498700 -0.373802 0.000000 0.500000 0.500000
-0.199704 -0.211029 0.062852 0.500000 0.500000 0.000000
0.302511 -0.203219 -0.149439 0.300000 0.600000 0.000000
0.280856 -0.236304 0.282182 0.500000 0.000000 0.500000
-0.638241 -0.236304 0.297379 0.500000 0.000000 0.500000
0.600916 0.461880 -0.363276 0.000000 0.500000 0.500000
0.101231 0.454042 -0.360855 0.000000 0.500000 0.500000
0.595171 -0.220444 -0.169077 0.500000 0.000000 0.500000
-0.039299 -0.212610 0.657184 0.500000 0.000000 0.500000
0.002043 -0.236304 0.685507 0.500000 0.000000 0.500000
-0.648235 0.095327 -0.247388 0.000000 0.500000 0.500000
-0.123428 -0.142194 -0.174010 0.000000 0.500000 0.500000
0.018933 -0.236304 0.045116 0.500000 0.000000 0.500000
-0.353019 -0.212605 0.404477 0.500000 0.500000 0.000000
0.645348 0.224024 -0.313031 0.300000 0.600000 0.000000
0.253945 -0.211945 0.532854 0.500000 0.000000 0.500000
-0.034011 0.608023 -0.408076 0.000000 0.500000 0.500000
-0.080368 -0.236304 -0.029780 0.500000 0.000000 0.500000
-0.312739 0.136947 -0.281820 0.300000 0.600000 0.000000
-0.263246 -0.012006 -0.234897 0.300000 0.600000 0.000000
0.260780 0.584230 -0.424989 0.300000 0.600000 0.000000
0.618044 0.099749 -0.273705 0.300000 0.600000 0.000000
-0.619621 0.125855 -0.256902 0.000000 0.500000 0.500000
-0.658278 0.433159 -0.378608 0.300000 0.600000 0.000000
0.381355 -0.236304 0.716341 0.500000 0.000000 0.500000
0.238076 0.515662 -0.380129 0.000000 0.500000 0.500000
-0.659084 -0.212611 0.454578 0.500000 0.000000 0.500000
0.316556 -0.236304 0.542675 0.500000 0.000000 0.500000
-0.198629 0.023891 -0.245379 0.300000 0.600000 0.000000
0.106481 0.013025 -0.241182 0.300000 0.600000 0.000000
0.210739 -0.211266 0.255403 0.500000 0.500000 0.000000
-0.027305 -0.212017 0.093215 0.500000 0.000000 0.500000
-0.129006 0.209431 -0.283146 0.000000 0.500000 0.500000
-0.211606 -0.236304 0.141500 0.500000 0.000000 0.500000
-0.404589 -0.211029 0.091168 0.500000 0.500000 0.000000
-0.176036 -0.211029 -0.060733 0.500000 0.500000 0.000000
0.611520 0.398223 -0.367157 0.300000 0.600000 0.000000
-0.382251 -0.236304 0.570205 0.500000 0.000000 0.500000
0.067195 -0.212944 0.446550 0.500000 0.000000 0.500000
0.315272 -0.236304 0.409024 0.500000 0.000000 0.500000
0.320426 -0.236304 0.465410 0.500000 0.000000 0.500000
-0.553007 -0.180793 -0.160858 0.000000 0.500000 0.500000
-0.287330 -0.212610 0.633099 0.500000 0.000000 0.500000
-0.105238 0.457003 -0.382278 0.300000 0.600000 0.000000
-0.387166 -0.211246 -0.090984 0.500000 0.500000 0.000000
-0.492516 0.083405 -0.267363 0.300000 0.600000 0.000000
0.617360 -0.211990 0.436455 0.500000 0.000000 0.500000
-0.300700 -0.211266 0.335812 0.500000 0.500000 0.000000
0.054037 -0.236304 0.177817 0.500000 0.000000 0.500000
0.565548 -0.210927 0.009786 0.500000 0.500000 0.000000
0.250163 -0.211945 0.151391 0.500000 0.000000 0.500000
-0.580406 0.147739 -0.288523 0.300000 0.600000 0.000000
0.125238 -0.236304 0.118572 0.500000 0.000000 0.500000
0.463051 0.270912 -0.325389 0.300000 0.600000 0.000000
-0.679433 0.093047 -0.268283 0.300000 0.600000 0.000000
-0.557060 0.288229 -0.332179 0.300000 0.600000 0.000000
-0.386538 -0.236304 0.042774 0.500000 0.000000 0.500000
0.209503 -0.212640 0.376083 0.500000 0.000000 0.500000
-0.056425 -0.212007 0.496463 0.500000 0.000000 0.500000
-0.041927 -0.230678 -0.155837 0.500000 0.000000 0.500000
-0.400862 -0.236304 -0.046834 0.500000 0.000000 0.500000
0.323297 0.473932 -0.367066 0.000000 0.500000 0.500000
0.311406 -0.211945 0.500710 0.500000 0.000000 0.500000
-0.201773 -0.211266 0.223688 0.500000 0.500000 0.000000
-0.373954 -0.212164 0.726088 0.500000 0.000000 0.500000
-0.355571 -0.236304 -0.089879 0.500000 0.000000 0.500000
0.552648 0.202957 -0.305219 0.300000 0.600000 0.000000
-0.544617 -0.009933 -0.214353 0.000000 0.500000 0.500000
0.183736 -0.236304 0.519194 0.500000 0.000000 0.500000
0.433890 -0.236304 0.617701 0.500000 0.000000 0.500000
0.363915 -0.236304 -0.109838 0.500000 0.000000 0.500000
-0.037497 -0.236304 0.596581 0.500000 0.000000 0.500000
-0.127068 -0.236304 0.463989 0.500000 0.000000 0.500000
-0.080348 -0.211945 0.389053 0.500000 0.000000 0.500000
-0.225785 0.478548 -0.389548 0.300000 0.600000 0.000000
0.266646 -0.210806 -0.051656 0.500000 0.500000 0.000000
-0.067133 -0.211945 0.262250 0.500000 0.000000 0.500000
0.306049 -0.236304 0.200613 0.500000 0.000000 0.500000
0.565068 -0.052358 -0.225424 0.300000 0.600000 0.000000
0.539529 -0.211266 0.342837 0.500000 0.500000 0.000000
-0.524087 0.483511 -0.392801 0.300000 0.600000 0.000000
-0.463880 -0.211266 0.254498 0.500000 0.500000 0.000000
-0.491179 -0.236304 0.058787 0.500000 0.000000 0.500000
0.151006 -0.225461 -0.163701 0.500000 0.000000 0.500000
0.602923 -0.211266 0.311767 0.500000 0.500000 0.000000
0.355492 -0.211266 0.113267 0.500000 0.500000 0.000000
0.030489 -0.212944 0.337828 0.500000 0.000000 0.500000
0.580518 0.009385 -0.244912 0.300000 0.600000 0.000000
-0.598422 -0.211266 -0.022796 0.500000 0.500000 0.000000
0.527695 -0.212944 0.441774 0.500000 0.000000 0.500000
0.587508 0.509369 -0.401694 0.300000 0.600000 0.000000
0.624860 -0.211266 -0.061872 0.500000 0.500000 0.000000
-0.419367 -0.211945 0.448781 0.500000 0.000000 0.500000
-0.129044 -0.210060 -0.137415 0.500000 0.000000 0.500000
0.190767 -0.211945 0.130487 0.500000 0.000000 0.500000
0.627149 -0.211266 0.046540 0.500000 0.500000 0.000000
-0.292343 0.560002 -0.416901 0.300000 0.600000 0.000000
-0.083188 -0.236304 0.061222 0.500000 0.000000 0.500000
0.567819 0.245564 -0.318783 0.300000 0.600000 0.000000
-0.436824 0.349020 -0.349691 0.300000 0.600000 0.000000
-0.048756 -0.211958 0.048228 0.500000 0.000000 0.500000
0.548452 -0.236304 0.091413 0.500000 0.000000 0.500000
-0.418175 -0.212125 0.663947 0.500000 0.000000 0.500000
0.004901 -0.070848 -0.216977 0.300000 0.600000 0.000000
-0.602389 0.157177 -0.266718 0.000000 0.500000 0.500000
0.346320 -0.211266 0.052145 0.500000 0.500000 0.000000
0.535819 -0.122313 -0.179776 0.000000 0.500000 0.500000
0.279888 -0.122634 -0.202088 0.300000 0.600000 0.000000
-0.076793 0.081607 -0.262051 0.300000 0.600000 0.000000
0.333893 -0.236304 -0.006560 0.500000 0.000000 0.500000
-0.511265 -0.212944 0.585529 0.500000 0.000000 0.500000
0.214835 0.551775 -0.414096 0.300000 0.600000 0.000000
0.224244 -0.211266 0.088812 0.500000 0.500000 0.000000
-0.414892 -0.211029 -0.078547 0.500000 0.500000 0.000000
-0.058727 -0.208775 -0.142069 0.500000 0.000000 0.500000
0.321174 0.341089 -0.325461 0.000000 0.500000 0.500000
0.365647 -0.236304 0.497628 0.500000 0.000000 0.500000
-0.223612 -0.075662 -0.215592 0.300000 0.600000 0.000000
0.294575 -0.212364 0.586674 0.500000 0.000000 0.500000
-0.496530 -0.201073 -0.151654 0.300000 0.600000 0.000000
-0.104066 -0.211945 0.280373 0.500000 0.000000 0.500000
-0.657421 0.226548 -0.313966 0.300000 0.600000 0.000000
-0.057293 0.178730 -0.273471 0.000000 0.500000 0.500000
0.421488 0.610962 -0.409711 0.000000 0.500000 0.500000
0.519105 -0.211945 0.703527 0.500000 0.000000 0.500000
-0.505317 -0.211945 0.039111 0.500000 0.000000 0.500000
0.324545 -0.104377 -0.207343 0.300000 0.600000 0.000000
-0.593501 -0.047561 -0.227698 0.300000 0.600000 0.000000
-0.233026 -0.236304 0.229142 0.500000 0.000000 0.500000
0.420075 0.340748 -0.346771 0.300000 0.600000 0.000000
0.643422 -0.191187 -0.157431 0.000000 0.500000 0.500000
0.246831 -0.212173 0.676707 0.500000 0.000000 0.500000
-0.207700 -0.013017 -0.213400 0.000000 0.500000 0.500000
0.077213 0.616427 -0.435652 0.300000 0.600000 0.000000
0.115381 -0.210770 -0.135586 0.500000 0.000000 0.500000
0.145840 -0.236304 0.309349 0.500000 0.000000 0.500000
-0.431006 -0.236304 0.400976 0.500000 0.000000 0.500000
0.030038 -0.236304 -0.120473 0.500000 0.000000 0.500000
0.498345 0.189603 -0.300398 0.300000 0.600000 0.000000
-0.215364 -0.211945 0.330160 0.500000 0.000000 0.500000
-0.100320 0.543514 -0.387852 0.000000 0.500000 0.500000
0.512777 -0.211266 0.159029 0.500000 0.500000 0.000000
-0.131993 -0.211266 0.205068 0.500000 0.500000 0.000000
-0.243855 -0.209382 -0.139819 0.500000 0.000000 0.500000
0.470623 0.528974 -0.384341 0.000000 0.500000 0.500000
-0.448236 0.110157 -0.252038 0.000000 0.500000 0.500000
0.113836 -0.212944 0.445081 0.500000 0.000000 0.500000
-0.035858 -0.211945 0.302476 0.500000 0.000000 0.500000
-0.085224 0.417189 -0.348200 0.000000 0.500000 0.500000
-0.348090 -0.212611 0.634595 0.500000 0.000000 0.500000
-0.303520 -0.236304 0.376178 0.500000 0.000000 0.500000
-0.502555 -0.211945 0.399040 0.500000 0.000000 0.500000
-0.262105 -0.236304 0.592287 0.500000 0.000000 0.500000
0.434729 0.219371 -0.287299 0.000000 0.500000 0.500000
0.174285 0.184609 -0.276361 0.000000 0.500000 0.500000
0.085931 0.335937 -0.323846 0.000000 0.500000 0.500000
0.449689 0.574385 -0.398562 0.000000 0.500000 0.500000
0.262281 -0.236109 0.723709 0.500000 0.000000 0.500000
-0.174587 0.583581 -0.400400 0.000000 0.500000 0.500000
-0.332497 -0.211266 0.141047 0.500000 0.500000 0.000000
0.518059 -0.236304 -0.025632 0.500000 0.000000 0.500000
0.417957 -0.039447 -0.227568 0.300000 0.600000 0.000000
-0.669599 0.498025 -0.398522 0.300000 0.600000 0.000000
0.119149 -0.152456 -0.170756 0.000000 0.500000 0.500000
-0.281940 -0.211945 0.456190 0.500000 0.000000 0.500000
-0.108230 -0.236304 0.177427 0.500000 0.000000 0.500000
0.639211 -0.211945 0.534880 0.500000 0.000000 0.500000
0.199239 -0.236304 0.391297 0.500000 0.000000 0.500000
-0.413006 0.516058 -0.379207 0.000000 0.500000 0.500000
-0.423935 -0.079155 -0.192709 0.000000 0.500000 0.500000
0.516097 -0.211266 0.199352 0.500000 0.500000 0.000000
-0.653439 -0.212432 0.529791 0.500000 0.000000 0.500000
0.552581 0.465276 -0.364325 0.000000 0.500000 0.500000
-0.260514 -0.211029 -0.097510 0.500000 0.500000 0.000000
-0.322005 0.209104 -0.283044 0.000000 0.500000 0.500000
-0.298566 -0.236304 0.074910 0.500000 0.000000 0.500000
-0.037811 -0.212104 0.723479 0.500000 0.000000 0.500000
0.108303 -0.211945 0.702938 0.500000 0.000000 0.500000
-0.598397 -0.128834 -0.202297 0.300000 0.600000 0.000000
0.184170 0.222252 -0.306575 0.300000 0.600000 0.000000
0.282210 -0.236304 -0.094793 0.500000 0.000000 0.500000
0.670857 -0.221887 0.383818 0.500000 0.000000 0.500000
0.294595 0.510101 -0.400116 0.300000 0.600000 0.000000
-0.608764 0.218577 -0.286004 0.000000 0.500000 0.500000
0.439753 -0.236304 0.184656 0.500000 0.000000 0.500000
-0.282172 -0.118127 -0.180475 0.000000 0.500000 0.500000
-0.543301 -0.236304 -0.038280 0.500000 0.000000 0.500000
0.006613 -0.236304 0.368206 0.500000 0.000000 0.500000
0.267767 -0.164215 -0.167079 0.000000 0.500000 0.500000
