-0.566013 -0.244379 0.149345 0.000000 0.500000 0.500000
0.374872 -0.244379 -0.168061 0.000000 0.500000 0.500000
0.081747 -0.244379 -0.030059 0.000000 0.500000 0.500000
0.608338 -0.178028 -0.240965 0.300000 0.000000 0.600000
-0.525412 0.081829 -0.261926 0.600000 0.000000 0.300000
0.051905 -0.244379 0.048648 0.000000 0.500000 0.500000
-0.011036 0.383410 -0.322735 0.600000 0.000000 0.300000
0.161153 0.649875 -0.376464 0.600000 0.000000 0.300000
0.574922 -0.213564 0.117361 0.500000 0.500000 0.000000
0.648989 0.393681 -0.324823 0.300000 0.000000 0.600000
0.434487 -0.244379 0.036548 0.000000 0.500000 0.500000
0.563810 -0.244379 0.743838 0.000000 0.500000 0.500000
-0.301727 0.040906 -0.253674 0.600000 0.000000 0.300000
-0.063105 0.633368 -0.373136 0.600000 0.000000 0.300000
-0.520269 0.597590 -0.397357 0.300000 0.000000 0.600000
-0.145276 0.692409 -0.385040 0.300000 0.000000 0.600000
-0.143247 -0.213564 0.616109 0.000000 0.500000 0.500000
-0.208744 -0.149647 -0.215252 0.600000 0.000000 0.300000
-0.426980 0.512360 -0.348736 0.600000 0.000000 0.300000
0.258227 -0.213564 0.034163 0.000000 0.500000 0.500000
0.483887 -0.213564 0.138443 0.500000 0.500000 0.000000
-0.155314 -0.244379 0.434904 0.000000 0.500000 0.500000
0.457908 -0.207240 -0.235075 0.300000 0.000000 0.600000
0.395486 -0.244379 0.056687 0.000000 0.500000 0.500000
-0.400320 -0.213564 -0.157478 0.000000 0.500000 0.500000
0.399965 -0.213564 -0.120536 0.000000 0.500000 0.500000
0.175469 -0.213564 0.653395 0.300000 0.600000 0.000000
0.163053 0.679720 -0.413917 0.300000 0.000000 0.600000
0.069296 -0.244379 0.372202 0.000000 0.500000 0.500000
0.018397 -0.213564 0.036334 0.000000 0.500000 0.500000
0.234521 -0.213564 0.090652 0.500000 0.500000 0.000000
0.388790 0.319967 -0.341378 0.300000 0.000000 0.600000
-0.344063 -0.069401 -0.231433 0.600000 0.000000 0.300000
-0.039030 -0.213564 0.488546 0.500000 0.500000 0.000000
-0.455029 -0.232588 -0.229907 0.300000 0.000000 0.600000
0.555601 -0.244379 0.674855 0.000000 0.500000 0.500000
-0.582375 -0.163682 -0.243858 0.300000 0.000000 0.600000
0.049812 -0.244379 0.261360 0.000000 0.500000 0.500000
0.464068 -0.241673 0.747747 0.000000 0.500000 0.500000
0.224812 -0.244379 0.615805 0.000000 0.500000 0.500000
0.322530 -0.213564 0.573840 0.000000 0.500000 0.500000
-0.127123 -0.189350 -0.238682 0.300000 0.000000 0.600000
0.166233 -0.243205 -0.209421 0.000000 0.500000 0.500000
0.346513 -0.244379 0.386334 0.000000 0.500000 0.500000
-0.256733 0.408094 -0.359148 0.300000 0.000000 0.600000
0.062187 -0.244379 0.174993 0.000000 0.500000 0.500000
-0.081573 0.366787 -0.350819 0.300000 0.000000 0.600000
-0.073449 -0.244379 0.343574 0.000000 0.500000 0.500000
-0.120797 0.470922 -0.340381 0.600000 0.000000 0.300000
0.416621 -0.177311 -0.241110 0.300000 0.000000 0.600000
-0.366925 0.199674 -0.328220 0.300000 0.000000 0.600000
0.103721 -0.244379 -0.189278 0.000000 0.500000 0.500000
-0.516419 -0.244379 0.111217 0.000000 0.500000 0.500000
-0.128408 0.174338 -0.280579 0.600000 0.000000 0.300000
0.477798 0.532950 -0.352888 0.600000 0.000000 0.300000
0.424297 -0.152848 -0.214608 0.300000 0.000000 0.600000
-0.369356 -0.244379 -0.153130 0.000000 0.500000 0.500000
-0.533233 -0.213564 0.398697 0.500000 0.500000 0.000000
-0.121262 -0.213564 0.684181 0.300000 0.600000 0.000000
-0.366079 0.066386 -0.293256 0.300000 0.000000 0.600000
-0.433191 0.400959 -0.326274 0.600000 0.000000 0.300000
-0.555485 0.418065 -0.361158 0.300000 0.000000 0.600000
-0.563866 0.294510 -0.304810 0.300000 0.000000 0.600000
0.313961 -0.232503 -0.229918 0.300000 0.000000 0.600000
0.645687 -0.244379 0.475455 0.000000 0.500000 0.500000
0.546469 0.172513 -0.320540 0.300000 0.000000 0.600000
-0.209197 -0.213564 0.100580 0.500000 0.500000 0.000000
0.406997 -0.244379 0.214377 0.000000 0.500000 0.500000
0.125888 -0.213564 0.602311 0.300000 0.600000 0.000000
0.588829 -0.213564 -0.205318 0.300000 0.000000 0.600000
-0.609966 -0.243218 0.039237 0.000000 0.500000 0.500000
0.628775 -0.213564 0.553260 0.000000 0.500000 0.500000
0.258966 -0.244379 -0.116821 0.000000 0.500000 0.500000
0.466310 -0.213564 0.668124 0.000000 0.500000 0.500000
0.481653 0.224615 -0.290717 0.600000 0.000000 0.300000
-0.475011 0.216078 -0.288995 0.600000 0.000000 0.300000
-0.364926 0.007667 -0.246972 0.600000 0.000000 0.300000
-0.373689 -0.244379 0.140984 0.000000 0.500000 0.500000
0.121881 0.280300 -0.333380 0.300000 0.000000 0.600000
0.474863 0.658710 -0.409681 0.300000 0.000000 0.600000
0.635431 0.423705 -0.330860 0.300000 0.000000 0.600000
0.476677 -0.088239 -0.227634 0.600000 0.000000 0.300000
-0.409607 -0.213564 0.626187 0.000000 0.500000 0.500000
0.090520 0.423420 -0.362238 0.300000 0.000000 0.600000
-0.358132 0.619286 -0.370296 0.600000 0.000000 0.300000
-0.305253 0.129824 -0.303039 0.300000 0.000000 0.600000
0.191907 -0.209859 -0.234547 0.300000 0.000000 0.600000
0.403534 0.509792 -0.348218 0.600000 0.000000 0.300000
-0.154307 -0.088807 -0.227520 0.600000 0.000000 0.300000
-0.171114 -0.210085 0.603171 0.000000 0.500000 0.500000
-0.481908 0.090174 -0.305795 0.300000 0.000000 0.600000
0.318813 0.321069 -0.341601 0.300000 0.000000 0.600000
0.574797 0.693568 -0.385274 0.300000 0.000000 0.600000
0.083450 -0.244379 0.001761 0.000000 0.500000 0.500000
-0.585671 -0.244379 0.176649 0.000000 0.500000 0.500000
0.100781 0.253536 -0.296548 0.600000 0.000000 0.300000
0.621744 -0.141263 -0.216943 0.300000 0.000000 0.600000
0.502532 -0.204177 -0.235693 0.300000 0.000000 0.600000
0.045308 -0.147493 -0.215687 0.600000 0.000000 0.300000
0.581440 -0.213564 -0.033920 0.000000 0.500000 0.500000
-0.297541 -0.108182 -0.223613 0.600000 0.000000 0.300000
-0.112173 0.108262 -0.298691 0.300000 0.000000 0.600000
-0.073003 -0.213564 0.591047 0.300000 0.600000 0.000000
0.021319 -0.213564 -0.120294 0.000000 0.500000 0.500000
0.470870 -0.213564 0.562474 0.000000 0.500000 0.500000
0.511802 0.532673 -0.384268 0.300000 0.000000 0.600000
-0.559950 -0.244379 0.024679 0.000000 0.500000 0.500000
-0.110836 -0.213564 0.598446 0.300000 0.600000 0.000000
0.635810 0.065232 -0.298244 0.300000 0.000000 0.600000
0.379695 -0.244379 0.001360 0.000000 0.500000 0.500000
0.107784 -0.244379 0.485417 0.000000 0.500000 0.500000
0.441712 0.420811 -0.361712 0.300000 0.000000 0.600000
0.430577 0.520630 -0.381839 0.300000 0.000000 0.600000
-0.146033 -0.213564 0.429126 0.500000 0.500000 0.000000
-0.341425 0.446180 -0.335392 0.600000 0.000000 0.300000
0.648989 0.106165 -0.275944 0.300000 0.000000 0.600000
0.542512 -0.213564 0.458220 0.500000 0.500000 0.000000
-0.199969 0.284465 -0.334220 0.300000 0.000000 0.600000
-0.578765 -0.244379 0.641938 0.000000 0.500000 0.500000
-0.400177 -0.152026 -0.214773 0.300000 0.000000 0.600000
0.526294 -0.213564 0.730667 0.000000 0.500000 0.500000
-0.139960 -0.213564 0.099765 0.500000 0.500000 0.000000
0.358599 0.290345 -0.335406 0.300000 0.000000 0.600000
0.105467 -0.244379 0.656072 0.000000 0.500000 0.500000
0.280996 -0.213564 0.216361 0.500000 0.500000 0.000000
-0.133156 -0.244379 0.063893 0.000000 0.500000 0.500000
-0.458060 0.239714 -0.325197 0.300000 0.000000 0.600000
-0.109810 -0.244379 -0.070668 0.000000 0.500000 0.500000
-0.091763 -0.213564 0.276851 0.500000 0.500000 0.000000
0.606090 0.570010 -0.360361 0.300000 0.000000 0.600000
-0.329108 0.566095 -0.359571 0.600000 0.000000 0.300000
0.423955 -0.244379 0.162932 0.000000 0.500000 0.500000
-0.045117 -0.213564 0.315761 0.500000 0.500000 0.000000
0.200090 -0.244379 0.102698 0.000000 0.500000 0.500000
0.214846 -0.244379 0.655471 0.000000 0.500000 0.500000
0.054673 -0.177512 -0.209634 0.300000 0.000000 0.600000
-0.385012 -0.243497 -0.210126 0.000000 0.500000 0.500000
0.352671 0.233896 -0.332599 0.300000 0.000000 0.600000
-0.567977 -0.244379 0.277833 0.000000 0.500000 0.500000
-0.045170 -0.244379 0.120710 0.000000 0.500000 0.500000
0.114768 0.464194 -0.339024 0.600000 0.000000 0.300000
-0.067465 0.339010 -0.313783 0.600000 0.000000 0.300000
0.284151 -0.213564 0.633627 0.000000 0.500000 0.500000
0.282694 0.177248 -0.281166 0.600000 0.000000 0.300000
0.621807 -0.213564 0.369028 0.000000 0.500000 0.500000
0.222990 0.060287 -0.257582 0.600000 0.000000 0.300000
-0.310136 -0.244379 0.065736 0.000000 0.500000 0.500000
0.623871 -0.213564 0.105881 0.000000 0.500000 0.500000
0.120948 0.148563 -0.306817 0.300000 0.000000 0.600000
0.237620 -0.244379 0.007524 0.000000 0.500000 0.500000
-0.033905 -0.213564 0.691338 0.300000 0.600000 0.000000
0.627287 -0.213564 0.405709 0.000000 0.500000 0.500000
-0.609966 -0.215459 0.314720 0.000000 0.500000 0.500000
-0.374740 -0.213564 0.244964 0.500000 0.500000 0.000000
-0.348953 -0.155812 -0.214009 0.300000 0.000000 0.600000
-0.173438 0.002235 -0.277312 0.300000 0.000000 0.600000
-0.353133 -0.213564 0.002011 0.000000 0.500000 0.500000
0.114187 -0.213564 -0.141223 0.000000 0.500000 0.500000
0.369274 0.408565 -0.359243 0.300000 0.000000 0.600000
-0.299901 -0.244379 0.010249 0.000000 0.500000 0.500000
-0.148042 -0.244379 0.342429 0.000000 0.500000 0.500000
0.491028 0.503461 -0.378377 0.300000 0.000000 0.600000
-0.144146 -0.213564 0.494120 0.500000 0.500000 0.000000
-0.600291 -0.213564 0.016207 0.000000 0.500000 0.500000
-0.299435 0.277345 -0.332784 0.300000 0.000000 0.600000
-0.136069 -0.022887 -0.272247 0.300000 0.000000 0.600000
-0.317338 0.385923 -0.354677 0.300000 0.000000 0.600000
-0.270078 -0.244379 0.647305 0.000000 0.500000 0.500000
0.646957 -0.214327 -0.210413 0.300000 0.000000 0.600000
0.057502 0.449910 -0.336144 0.600000 0.000000 0.300000
-0.236135 -0.213564 -0.128892 0.000000 0.500000 0.500000
0.202496 -0.244379 0.384547 0.000000 0.500000 0.500000
-0.449652 -0.213564 0.582553 0.000000 0.500000 0.500000
0.032485 0.625771 -0.403039 0.300000 0.000000 0.600000
0.456003 0.711878 -0.419547 0.300000 0.000000 0.600000
0.033660 -0.213564 0.152963 0.500000 0.500000 0.000000
-0.373494 0.132159 -0.272074 0.600000 0.000000 0.300000
0.648950 -0.244379 0.609832 0.000000 0.500000 0.500000
0.046709 0.466819 -0.370989 0.300000 0.000000 0.600000
0.133525 -0.213564 0.236156 0.500000 0.500000 0.000000
0.505942 -0.244379 -0.212050 0.000000 0.500000 0.500000
0.380227 -0.244379 0.309821 0.000000 0.500000 0.500000
0.541656 0.325064 -0.342406 0.300000 0.000000 0.600000
-0.019232 0.161887 -0.278068 0.600000 0.000000 0.300000
0.303305 0.086986 -0.303088 0.300000 0.000000 0.600000
-0.322568 0.102718 -0.266138 0.600000 0.000000 0.300000
-0.065229 -0.226060 -0.230000 0.300000 0.000000 0.600000
-0.448952 -0.244379 0.291645 0.000000 0.500000 0.500000
-0.079806 0.159315 -0.308985 0.300000 0.000000 0.600000
0.557950 0.633985 -0.404696 0.300000 0.000000 0.600000
-0.573853 -0.213564 -0.070590 0.000000 0.500000 0.500000
0.173624 -0.097026 -0.225863 0.600000 0.000000 0.300000
-0.120974 0.367063 -0.319439 0.600000 0.000000 0.300000
-0.413370 -0.213564 0.241442 0.500000 0.500000 0.000000
-0.463478 -0.244379 -0.168664 0.000000 0.500000 0.500000
0.552202 -0.213564 -0.045112 0.000000 0.500000 0.500000
0.020043 -0.214211 -0.210694 0.300000 0.000000 0.600000
0.331467 -0.244379 0.456588 0.000000 0.500000 0.500000
-0.286655 0.113255 -0.268263 0.600000 0.000000 0.300000
0.109349 -0.244379 0.310062 0.000000 0.500000 0.500000
0.258239 -0.004529 -0.275949 0.300000 0.000000 0.600000
-0.566287 -0.213564 0.719141 0.000000 0.500000 0.500000
0.293849 0.038585 -0.253206 0.600000 0.000000 0.300000
0.116369 0.524728 -0.382665 0.300000 0.000000 0.600000
0.036404 -0.213564 0.407349 0.500000 0.500000 0.000000
0.462553 -0.213564 0.339816 0.500000 0.500000 0.000000
-0.125746 0.235965 -0.293005 0.600000 0.000000 0.300000
-0.543491 -0.202332 -0.204629 0.300000 0.000000 0.600000
0.317241 -0.244379 -0.171376 0.000000 0.500000 0.500000
-0.296452 0.611329 -0.368692 0.600000 0.000000 0.300000
-0.015860 0.091822 -0.295376 0.300000 0.000000 0.600000
-0.262168 0.331988 -0.312367 0.600000 0.000000 0.300000
-0.277799 0.468908 -0.371410 0.300000 0.000000 0.600000
-0.314667 -0.157575 -0.213654 0.300000 0.000000 0.600000
-0.598541 0.399660 -0.357447 0.300000 0.000000 0.600000
-0.316990 -0.213564 0.440974 0.500000 0.500000 0.000000
0.556446 -0.244379 0.431082 0.000000 0.500000 0.500000
0.138170 -0.213564 0.491496 0.500000 0.500000 0.000000
0.140645 0.468379 -0.371304 0.300000 0.000000 0.600000
0.205630 0.225417 -0.322314 0.300000 0.000000 0.600000
0.548185 0.490996 -0.344428 0.600000 0.000000 0.300000
0.336101 -0.244379 0.729956 0.000000 0.500000 0.500000
-0.015911 -0.213564 0.188374 0.500000 0.500000 0.000000
0.170680 0.054734 -0.256463 0.600000 0.000000 0.300000
0.237352 0.712179 -0.418053 0.300000 0.000000 0.600000
0.300678 0.670191 -0.411996 0.300000 0.000000 0.600000
0.648989 -0.214623 0.619259 0.000000 0.500000 0.500000
0.576767 0.588632 -0.395551 0.300000 0.000000 0.600000
0.007153 -0.031388 -0.239097 0.600000 0.000000 0.300000
0.429102 -0.244379 -0.135914 0.000000 0.500000 0.500000
-0.050199 -0.244379 0.000237 0.000000 0.500000 0.500000
-0.188772 -0.244379 0.214657 0.000000 0.500000 0.500000
0.176658 -0.244379 -0.035233 0.000000 0.500000 0.500000
0.585369 -0.244379 0.682561 0.000000 0.500000 0.500000
-0.112596 -0.054519 -0.234433 0.600000 0.000000 0.300000
0.045256 0.613282 -0.369086 0.600000 0.000000 0.300000
-0.398549 -0.213564 0.191748 0.500000 0.500000 0.000000
-0.080165 0.453200 -0.368243 0.300000 0.000000 0.600000
-0.153209 0.158901 -0.317630 0.300000 0.000000 0.600000
-0.475117 -0.244379 0.185268 0.000000 0.500000 0.500000
0.260528 0.334488 -0.312871 0.600000 0.000000 0.300000
0.199645 -0.213564 0.331994 0.500000 0.500000 0.000000
0.282501 -0.244379 0.417117 0.000000 0.500000 0.500000
-0.118901 -0.244379 -0.020393 0.000000 0.500000 0.500000
-0.212460 -0.213564 0.518934 0.500000 0.500000 0.000000
0.560997 -0.244379 0.320741 0.000000 0.500000 0.500000
-0.523600 -0.213564 -0.104840 0.000000 0.500000 0.500000
-0.050624 -0.213564 0.023403 0.000000 0.500000 0.500000
0.205973 -0.213564 0.178799 0.500000 0.500000 0.000000
-0.594822 -0.008228 -0.243768 0.300000 0.000000 0.600000
0.205818 -0.213564 -0.140080 0.000000 0.500000 0.500000
-0.476347 0.380712 -0.353627 0.300000 0.000000 0.600000
0.538275 0.526353 -0.351558 0.600000 0.000000 0.300000
0.424873 0.373297 -0.352132 0.300000 0.000000 0.600000
0.012787 -0.244379 0.166326 0.000000 0.500000 0.500000
0.105443 0.192925 -0.284327 0.600000 0.000000 0.300000
-0.144400 -0.213564 0.383788 0.500000 0.500000 0.000000
-0.253094 -0.244379 -0.058260 0.000000 0.500000 0.500000
0.308924 -0.244379 0.019654 0.000000 0.500000 0.500000
-0.217756 0.692978 -0.416590 0.300000 0.000000 0.600000
0.355307 0.071158 -0.291210 0.300000 0.000000 0.600000
-0.056020 0.399219 -0.357358 0.300000 0.000000 0.600000
-0.531247 -0.213564 0.153484 0.500000 0.500000 0.000000
0.243871 0.662426 -0.378995 0.300000 0.000000 0.600000
-0.167913 0.701127 -0.418234 0.300000 0.000000 0.600000
-0.442641 0.199393 -0.317067 0.300000 0.000000 0.600000
-0.459449 -0.213564 0.373197 0.500000 0.500000 0.000000
-0.030865 0.251286 -0.327530 0.300000 0.000000 0.600000
-0.496551 -0.213564 0.525803 0.500000 0.500000 0.000000
0.313896 -0.213564 0.391484 0.500000 0.500000 0.000000
-0.379167 -0.244379 0.542240 0.000000 0.500000 0.500000
0.156529 0.439959 -0.334138 0.600000 0.000000 0.300000
-0.048813 0.537699 -0.385281 0.300000 0.000000 0.600000
-0.035263 -0.244379 0.620533 0.000000 0.500000 0.500000
-0.028942 0.410851 -0.328268 0.600000 0.000000 0.300000
-0.147595 -0.244379 0.385813 0.000000 0.500000 0.500000
0.648989 -0.222178 -0.113339 0.000000 0.500000 0.500000
0.034714 0.219394 -0.321099 0.300000 0.000000 0.600000
0.504209 0.117236 -0.269065 0.600000 0.000000 0.300000
0.645428 0.542136 -0.354740 0.300000 0.000000 0.600000
0.178442 -0.213564 0.300473 0.500000 0.500000 0.000000
-0.492723 -0.213564 0.034652 0.000000 0.500000 0.500000
-0.609966 0.046443 -0.279990 0.300000 0.000000 0.600000
-0.347217 -0.213564 -0.119785 0.000000 0.500000 0.500000
-0.168889 -0.213564 -0.061841 0.000000 0.500000 0.500000
0.513025 0.427173 -0.331559 0.600000 0.000000 0.300000
-0.600855 -0.122442 -0.252173 0.300000 0.000000 0.600000
0.190966 -0.244379 0.273177 0.000000 0.500000 0.500000
-0.466938 0.281869 -0.333696 0.300000 0.000000 0.600000
-0.108034 -0.213564 -0.122338 0.000000 0.500000 0.500000
-0.400601 0.578281 -0.362028 0.600000 0.000000 0.300000
-0.044006 0.650703 -0.408066 0.300000 0.000000 0.600000
-0.470382 -0.244379 0.240666 0.000000 0.500000 0.500000
-0.128183 -0.121736 -0.252316 0.300000 0.000000 0.600000
-0.585986 -0.244379 0.315701 0.000000 0.500000 0.500000
0.222638 -0.244379 0.517215 0.000000 0.500000 0.500000
-0.014490 0.305786 -0.338519 0.300000 0.000000 0.600000
-0.436987 0.563668 -0.359082 0.600000 0.000000 0.300000
-0.305677 0.165150 -0.321486 0.300000 0.000000 0.600000
0.425130 0.487534 -0.375166 0.300000 0.000000 0.600000
0.423569 -0.244379 0.433028 0.000000 0.500000 0.500000
-0.573628 -0.138306 -0.217539 0.300000 0.000000 0.600000
0.501650 -0.244379 -0.072310 0.000000 0.500000 0.500000
0.356909 -0.056347 -0.234065 0.600000 0.000000 0.300000
0.468120 0.628920 -0.403674 0.300000 0.000000 0.600000
0.312364 0.259291 -0.329144 0.300000 0.000000 0.600000
-0.329104 -0.213564 -0.204595 0.300000 0.000000 0.600000
0.087921 0.636082 -0.405118 0.300000 0.000000 0.600000
0.584221 -0.213564 0.045162 0.000000 0.500000 0.500000
-0.599307 0.273490 -0.332007 0.300000 0.000000 0.600000
0.121124 -0.244379 0.681341 0.000000 0.500000 0.500000
-0.221312 -0.046193 -0.267548 0.300000 0.000000 0.600000
0.173639 0.112040 -0.299453 0.300000 0.000000 0.600000
0.350795 -0.194735 -0.237596 0.300000 0.000000 0.600000
-0.098379 -0.213564 0.235357 0.500000 0.500000 0.000000
-0.326309 -0.244379 -0.145568 0.000000 0.500000 0.500000
0.594245 -0.213564 0.304438 0.500000 0.500000 0.000000
0.497720 -0.244379 0.222895 0.000000 0.500000 0.500000
0.232203 -0.213564 0.279605 0.500000 0.500000 0.000000
-0.470330 -0.213564 0.150487 0.500000 0.500000 0.000000
0.016742 -0.244379 0.390853 0.000000 0.500000 0.500000
0.308088 -0.213564 0.440532 0.500000 0.500000 0.000000
0.560719 -0.213564 0.398221 0.500000 0.500000 0.000000
-0.481346 -0.213564 0.628329 0.000000 0.500000 0.500000
-0.222301 -0.244379 0.475777 0.000000 0.500000 0.500000
0.476860 0.432671 -0.332668 0.600000 0.000000 0.300000
-0.609134 0.458810 -0.337939 0.300000 0.000000 0.600000
0.292108 0.236937 -0.324637 0.300000 0.000000 0.600000
0.520691 -0.244379 0.433799 0.000000 0.500000 0.500000
-0.070919 -0.244379 0.158674 0.000000 0.500000 0.500000
0.445156 -0.111769 -0.254325 0.300000 0.000000 0.600000
0.430153 -0.213564 0.338345 0.500000 0.500000 0.000000
0.128815 -0.213564 0.429058 0.500000 0.500000 0.000000
0.579990 -0.213564 0.660059 0.000000 0.500000 0.500000
0.127461 -0.244379 0.139497 0.000000 0.500000 0.500000
-0.549881 0.605876 -0.367592 0.300000 0.000000 0.600000
-0.237879 -0.213564 0.191663 0.500000 0.500000 0.000000
-0.476769 -0.173618 -0.241854 0.300000 0.000000 0.600000
0.019664 -0.244379 0.360136 0.000000 0.500000 0.500000
-0.090176 0.284395 -0.302770 0.600000 0.000000 0.300000
-0.553735 -0.244379 0.205321 0.000000 0.500000 0.500000
0.418526 -0.213564 0.109116 0.500000 0.500000 0.000000
-0.573701 0.295488 -0.336443 0.300000 0.000000 0.600000
0.439951 0.339883 -0.313959 0.600000 0.000000 0.300000
0.072765 0.176081 -0.312366 0.300000 0.000000 0.600000
0.588670 0.686860 -0.415357 0.300000 0.000000 0.600000
0.446869 -0.213564 0.738587 0.000000 0.500000 0.500000
-0.452247 0.576436 -0.393091 0.300000 0.000000 0.600000
-0.467798 -0.213564 -0.060128 0.000000 0.500000 0.500000
0.550317 -0.213564 0.503003 0.500000 0.500000 0.000000
-0.155242 0.050165 -0.255541 0.600000 0.000000 0.300000
-0.593367 0.417099 -0.329528 0.300000 0.000000 0.600000
0.240326 -0.213564 0.707400 0.000000 0.500000 0.500000
0.405752 -0.244379 0.508894 0.000000 0.500000 0.500000
-0.512852 -0.152073 -0.214763 0.300000 0.000000 0.600000
-0.557430 0.401933 -0.326470 0.300000 0.000000 0.600000
-0.243258 -0.244379 0.266013 0.000000 0.500000 0.500000
0.160649 0.504441 -0.378575 0.300000 0.000000 0.600000
-0.573758 0.508890 -0.348037 0.300000 0.000000 0.600000
0.086229 0.452660 -0.336699 0.600000 0.000000 0.300000
-0.520980 -0.213564 0.679874 0.000000 0.500000 0.500000
0.593417 0.509219 -0.348103 0.300000 0.000000 0.600000
0.414670 0.617326 -0.401337 0.300000 0.000000 0.600000
0.150842 -0.244379 0.265699 0.000000 0.500000 0.500000
0.522413 -0.244379 -0.122522 0.000000 0.500000 0.500000
-0.087444 0.695723 -0.385709 0.300000 0.000000 0.600000
0.032968 -0.213564 0.219317 0.500000 0.500000 0.000000
-0.316235 -0.058644 -0.265037 0.300000 0.000000 0.600000
-0.171183 0.067489 -0.290470 0.300000 0.000000 0.600000
0.098972 0.123726 -0.301809 0.300000 0.000000 0.600000
0.346291 -0.225034 -0.229865 0.300000 0.000000 0.600000
0.191513 0.166416 -0.310417 0.300000 0.000000 0.600000
0.459944 -0.244379 0.451531 0.000000 0.500000 0.500000
0.056612 0.225360 -0.290867 0.600000 0.000000 0.300000
-0.320353 0.214563 -0.288690 0.600000 0.000000 0.300000
0.573825 0.387199 -0.323499 0.600000 0.000000 0.300000
0.392879 -0.244379 0.141897 0.000000 0.500000 0.500000
-0.245292 -0.244379 0.555473 0.000000 0.500000 0.500000
-0.025946 -0.099787 -0.256741 0.300000 0.000000 0.600000
-0.533462 0.041300 -0.285189 0.300000 0.000000 0.600000
-0.335433 -0.123662 -0.251927 0.300000 0.000000 0.600000
-0.234712 0.066272 -0.301095 0.300000 0.000000 0.600000
0.522945 0.215459 -0.288870 0.600000 0.000000 0.300000
0.287589 -0.244379 0.090523 0.000000 0.500000 0.500000
0.211514 -0.244379 -0.167611 0.000000 0.500000 0.500000
0.143286 0.121376 -0.269900 0.600000 0.000000 0.300000
0.615701 0.157424 -0.277169 0.300000 0.000000 0.600000
0.315150 -0.213564 0.625778 0.000000 0.500000 0.500000
0.356433 -0.213564 0.021430 0.000000 0.500000 0.500000
0.407806 -0.213564 -0.152914 0.000000 0.500000 0.500000
0.355893 -0.213564 -0.117585 0.000000 0.500000 0.500000
0.085126 0.012162 -0.279314 0.300000 0.000000 0.600000
0.333917 0.090819 -0.263739 0.600000 0.000000 0.300000
0.455805 0.160662 -0.277821 0.600000 0.000000 0.300000
0.486787 -0.214256 -0.210585 0.300000 0.000000 0.600000
0.498986 0.450979 -0.367795 0.300000 0.000000 0.600000
-0.198021 -0.213564 0.323270 0.500000 0.500000 0.000000
0.600733 -0.244379 -0.212718 0.000000 0.500000 0.500000
0.623855 -0.244379 -0.161583 0.000000 0.500000 0.500000
0.619817 0.540153 -0.385776 0.300000 0.000000 0.600000
-0.609966 -0.218377 0.572001 0.000000 0.500000 0.500000
-0.045728 -0.244379 -0.068969 0.000000 0.500000 0.500000
0.168817 -0.213564 0.361618 0.500000 0.500000 0.000000
-0.136852 -0.243893 0.747747 0.000000 0.500000 0.500000
0.115456 -0.244379 0.527105 0.000000 0.500000 0.500000
-0.501855 -0.213564 0.121062 0.500000 0.500000 0.000000
0.348203 -0.213564 0.230226 0.500000 0.500000 0.000000
-0.417750 0.388900 -0.355278 0.300000 0.000000 0.600000
0.106743 -0.213564 0.081529 0.500000 0.500000 0.000000
-0.376184 -0.158723 -0.244858 0.300000 0.000000 0.600000
-0.277828 -0.213564 -0.010354 0.000000 0.500000 0.500000
0.413530 -0.002169 -0.244989 0.600000 0.000000 0.300000
0.232472 -0.244379 0.557584 0.000000 0.500000 0.500000
-0.241456 -0.244379 -0.172115 0.000000 0.500000 0.500000
-0.590325 -0.244379 0.515628 0.000000 0.500000 0.500000
-0.129231 0.525846 -0.382891 0.300000 0.000000 0.600000
0.546329 0.432793 -0.332693 0.600000 0.000000 0.300000
-0.556544 -0.213564 0.516759 0.500000 0.500000 0.000000
-0.260560 0.395771 -0.325228 0.600000 0.000000 0.300000
-0.004383 0.016516 -0.248757 0.600000 0.000000 0.300000
0.071917 -0.244379 0.484866 0.000000 0.500000 0.500000
0.253160 -0.213564 0.474749 0.500000 0.500000 0.000000
-0.314896 0.328227 -0.343044 0.300000 0.000000 0.600000
0.268905 -0.241198 -0.205816 0.300000 0.000000 0.600000
-0.106910 -0.244379 0.336887 0.000000 0.500000 0.500000
0.429948 -0.244379 0.103467 0.000000 0.500000 0.500000
0.454192 0.683720 -0.414724 0.300000 0.000000 0.600000
-0.088747 -0.161209 -0.212921 0.300000 0.000000 0.600000
-0.343334 -0.213564 0.698718 0.000000 0.500000 0.500000
-0.415331 -0.213564 0.538046 0.500000 0.500000 0.000000
0.072489 -0.042748 -0.268242 0.300000 0.000000 0.600000
-0.127250 0.523772 -0.351037 0.600000 0.000000 0.300000
-0.114238 0.383964 -0.354282 0.300000 0.000000 0.600000
0.321275 0.434082 -0.364388 0.300000 0.000000 0.600000
-0.603338 -0.244379 0.588368 0.000000 0.500000 0.500000
-0.197419 0.034556 -0.283829 0.300000 0.000000 0.600000
0.547487 -0.244379 0.554244 0.000000 0.500000 0.500000
-0.519299 -0.244379 0.616574 0.000000 0.500000 0.500000
0.097944 0.368606 -0.351186 0.300000 0.000000 0.600000
0.596142 -0.213564 0.430873 0.500000 0.500000 0.000000
-0.530950 -0.046034 -0.267580 0.300000 0.000000 0.600000
-0.280471 -0.244379 0.546452 0.000000 0.500000 0.500000
0.343725 0.117734 -0.269166 0.600000 0.000000 0.300000
0.075936 -0.244379 0.276719 0.000000 0.500000 0.500000
0.491886 -0.244379 0.458381 0.000000 0.500000 0.500000
0.411196 -0.218492 0.747747 0.000000 0.500000 0.500000
-0.173531 0.443099 -0.334771 0.600000 0.000000 0.300000
-0.375310 -0.244379 0.615538 0.000000 0.500000 0.500000
0.570055 0.073582 -0.303022 0.300000 0.000000 0.600000
-0.385738 -0.244379 0.044253 0.000000 0.500000 0.500000
-0.431829 -0.136994 -0.249239 0.300000 0.000000 0.600000
-0.069391 0.104395 -0.309236 0.300000 0.000000 0.600000
0.296187 0.139247 -0.273503 0.600000 0.000000 0.300000
-0.010798 0.348728 -0.315742 0.600000 0.000000 0.300000
-0.501538 -0.092864 -0.258137 0.300000 0.000000 0.600000
-0.061052 -0.109485 -0.223350 0.600000 0.000000 0.300000
-0.595312 -0.244379 -0.076325 0.000000 0.500000 0.500000
0.419728 0.582795 -0.394374 0.300000 0.000000 0.600000
0.614439 -0.244379 0.020932 0.000000 0.500000 0.500000
-0.609966 -0.242997 0.159249 0.000000 0.500000 0.500000
0.504690 0.709428 -0.388472 0.300000 0.000000 0.600000
0.424064 -0.213564 0.482651 0.500000 0.500000 0.000000
-0.582616 -0.213564 0.669711 0.000000 0.500000 0.500000
0.210964 -0.244379 -0.091117 0.000000 0.500000 0.500000
0.541546 0.380288 -0.322106 0.600000 0.000000 0.300000
0.130466 0.146432 -0.274952 0.600000 0.000000 0.300000
-0.592854 -0.244379 0.408410 0.000000 0.500000 0.500000
0.578587 -0.012219 -0.274398 0.300000 0.000000 0.600000
-0.089317 -0.213888 0.747747 0.000000 0.500000 0.500000
-0.298820 0.067889 -0.290551 0.300000 0.000000 0.600000
0.641023 0.121138 -0.312611 0.300000 0.000000 0.600000
-0.557878 -0.213564 0.599111 0.000000 0.500000 0.500000
0.515772 -0.213564 -0.178650 0.000000 0.500000 0.500000
-0.099465 -0.244379 0.160148 0.000000 0.500000 0.500000
-0.170643 -0.213564 0.542291 0.500000 0.500000 0.000000
0.184237 -0.244379 0.450423 0.000000 0.500000 0.500000
0.193724 0.592157 -0.364826 0.600000 0.000000 0.300000
0.486908 0.305838 -0.338530 0.300000 0.000000 0.600000
-0.003549 0.171151 -0.322697 0.300000 0.000000 0.600000
-0.554271 -0.213564 0.092459 0.500000 0.500000 0.000000
-0.000698 -0.213564 0.310641 0.500000 0.500000 0.000000
0.451065 0.254763 -0.328231 0.300000 0.000000 0.600000
-0.277632 -0.213564 0.690158 0.000000 0.500000 0.500000
0.330648 0.187151 -0.314598 0.300000 0.000000 0.600000
-0.499996 -0.213564 0.589275 0.000000 0.500000 0.500000
-0.567151 -0.044949 -0.267798 0.300000 0.000000 0.600000
-0.020926 -0.213564 0.068850 0.000000 0.500000 0.500000
-0.500752 0.052915 -0.287531 0.300000 0.000000 0.600000
0.623347 -0.213564 -0.073957 0.000000 0.500000 0.500000
0.157016 -0.244379 -0.164650 0.000000 0.500000 0.500000
0.622711 -0.006384 -0.244139 0.300000 0.000000 0.600000
0.361805 0.266228 -0.299107 0.600000 0.000000 0.300000
-0.413507 0.068132 -0.301924 0.300000 0.000000 0.600000
0.261335 -0.048438 -0.235660 0.600000 0.000000 0.300000
0.049750 0.425407 -0.362639 0.300000 0.000000 0.600000
0.637988 0.022786 -0.250021 0.300000 0.000000 0.600000
-0.172229 -0.213564 0.048292 0.000000 0.500000 0.500000
0.533309 0.291178 -0.335574 0.300000 0.000000 0.600000
-0.110882 -0.213564 0.378034 0.500000 0.500000 0.000000
-0.428392 -0.244379 0.489370 0.000000 0.500000 0.500000
0.364419 -0.213564 0.394543 0.500000 0.500000 0.000000
0.349032 -0.213564 -0.019562 0.000000 0.500000 0.500000
-0.155663 0.494850 -0.376641 0.300000 0.000000 0.600000
-0.410057 -0.244379 0.175931 0.000000 0.500000 0.500000
-0.048063 0.469315 -0.371492 0.300000 0.000000 0.600000
0.534455 0.324000 -0.310756 0.600000 0.000000 0.300000
0.294511 -0.213564 0.327766 0.500000 0.500000 0.000000
0.183905 -0.244379 0.555559 0.000000 0.500000 0.500000
-0.191264 -0.213564 0.434198 0.500000 0.500000 0.000000
0.455473 -0.244379 0.711110 0.000000 0.500000 0.500000
0.549741 -0.244379 0.482110 0.000000 0.500000 0.500000
0.624284 -0.244379 -0.067978 0.000000 0.500000 0.500000
0.465686 -0.213564 -0.054531 0.000000 0.500000 0.500000
0.185724 -0.049000 -0.235546 0.600000 0.000000 0.300000
-0.413299 0.160034 -0.309130 0.300000 0.000000 0.600000
0.420899 0.079082 -0.292808 0.300000 0.000000 0.600000
-0.044460 -0.244379 0.197374 0.000000 0.500000 0.500000
0.192131 -0.244379 0.320058 0.000000 0.500000 0.500000
-0.251102 0.323830 -0.342157 0.300000 0.000000 0.600000
0.644627 -0.213564 -0.036651 0.000000 0.500000 0.500000
-0.498183 0.571463 -0.360653 0.600000 0.000000 0.300000
-0.558897 0.349007 -0.315798 0.300000 0.000000 0.600000
-0.189000 0.105816 -0.266763 0.600000 0.000000 0.300000
0.257780 -0.213564 0.643402 0.000000 0.500000 0.500000
0.648989 -0.231396 0.102784 0.000000 0.500000 0.500000
-0.572152 0.688493 -0.384251 0.300000 0.000000 0.600000
-0.143479 -0.244379 0.484105 0.000000 0.500000 0.500000
0.397400 0.628413 -0.372137 0.600000 0.000000 0.300000
0.416437 -0.244379 0.301874 0.000000 0.500000 0.500000
0.265871 0.169241 -0.322311 0.300000 0.000000 0.600000
0.424786 0.463172 -0.338818 0.600000 0.000000 0.300000
-0.540526 -0.244379 0.283696 0.000000 0.500000 0.500000
0.524175 0.460951 -0.338370 0.600000 0.000000 0.300000
-0.496662 0.189496 -0.326395 0.300000 0.000000 0.600000
0.537520 0.547554 -0.387268 0.300000 0.000000 0.600000
-0.344793 0.321367 -0.341661 0.300000 0.000000 0.600000
0.175068 -0.180822 -0.240402 0.300000 0.000000 0.600000
-0.345946 -0.244379 -0.043511 0.000000 0.500000 0.500000
0.399027 0.702990 -0.418609 0.300000 0.000000 0.600000
0.553899 -0.223411 -0.231814 0.300000 0.000000 0.600000
-0.605857 0.611266 -0.368679 0.300000 0.000000 0.600000
-0.252743 -0.213564 0.160938 0.500000 0.500000 0.000000
-0.076509 -0.213564 0.112948 0.500000 0.500000 0.000000
0.314885 -0.213564 0.360437 0.500000 0.500000 0.000000
-0.034068 -0.182203 -0.208688 0.300000 0.000000 0.600000
-0.094102 -0.244379 0.481148 0.000000 0.500000 0.500000
-0.156689 -0.213564 -0.009785 0.000000 0.500000 0.500000
0.126262 -0.213564 0.206172 0.500000 0.500000 0.000000
0.429162 -0.213564 0.155228 0.500000 0.500000 0.000000
-0.113440 0.708388 -0.419698 0.300000 0.000000 0.600000
-0.061635 0.506190 -0.378927 0.300000 0.000000 0.600000
0.189024 0.505279 -0.378744 0.300000 0.000000 0.600000
0.023045 0.184398 -0.282608 0.600000 0.000000 0.300000
-0.330194 -0.034861 -0.269833 0.300000 0.000000 0.600000
-0.135003 -0.244379 0.579619 0.000000 0.500000 0.500000
0.220663 -0.244379 0.436684 0.000000 0.500000 0.500000
0.149549 -0.213564 0.294451 0.500000 0.500000 0.000000
0.368196 0.044109 -0.254320 0.600000 0.000000 0.300000
0.509305 0.346826 -0.346794 0.300000 0.000000 0.600000
0.263572 0.466996 -0.371025 0.300000 0.000000 0.600000
-0.558656 -0.213564 0.229153 0.500000 0.500000 0.000000
0.064720 0.006382 -0.246713 0.600000 0.000000 0.300000
0.383903 0.096996 -0.264984 0.600000 0.000000 0.300000
0.252961 -0.244379 0.065136 0.000000 0.500000 0.500000
-0.519650 0.283743 -0.334074 0.300000 0.000000 0.600000
-0.076539 0.396049 -0.325284 0.600000 0.000000 0.300000
-0.535639 -0.213564 0.274250 0.500000 0.500000 0.000000
-0.137022 -0.244379 0.250838 0.000000 0.500000 0.500000
-0.243767 -0.244379 0.140657 0.000000 0.500000 0.500000
-0.289164 -0.218153 -0.199568 0.000000 0.500000 0.500000
0.114702 -0.061894 -0.232946 0.600000 0.000000 0.300000
0.405438 -0.213564 0.456492 0.500000 0.500000 0.000000
0.142769 -0.213564 -0.079945 0.000000 0.500000 0.500000
-0.372278 -0.052733 -0.266229 0.300000 0.000000 0.600000
-0.265326 0.687358 -0.384022 0.300000 0.000000 0.600000
-0.312320 -0.244379 0.285164 0.000000 0.500000 0.500000
0.329051 -0.047695 -0.267245 0.300000 0.000000 0.600000
-0.388085 -0.244379 0.002995 0.000000 0.500000 0.500000
-0.485694 -0.244379 0.023293 0.000000 0.500000 0.500000
0.501608 -0.244379 0.034892 0.000000 0.500000 0.500000
0.305494 -0.214160 -0.210815 0.300000 0.000000 0.600000
0.218775 -0.224657 -0.229723 0.300000 0.000000 0.600000
-0.323433 -0.017808 -0.241836 0.600000 0.000000 0.300000
0.023757 0.401878 -0.357895 0.300000 0.000000 0.600000
0.204939 0.527939 -0.351877 0.600000 0.000000 0.300000
0.648989 0.203918 -0.306446 0.300000 0.000000 0.600000
-0.305251 0.671859 -0.412332 0.300000 0.000000 0.600000
0.613307 0.334884 -0.344386 0.300000 0.000000 0.600000
-0.054363 -0.213564 0.134118 0.500000 0.500000 0.000000
-0.088244 -0.213564 0.442927 0.500000 0.500000 0.000000
0.168249 0.004504 -0.277770 0.300000 0.000000 0.600000
0.340221 0.014557 -0.248362 0.600000 0.000000 0.300000
-0.521674 -0.244379 -0.185179 0.000000 0.500000 0.500000
0.401060 -0.077468 -0.261241 0.300000 0.000000 0.600000
0.601630 -0.161755 -0.212811 0.300000 0.000000 0.600000
0.227589 -0.022770 -0.272271 0.300000 0.000000 0.600000
0.479956 0.081127 -0.304544 0.300000 0.000000 0.600000
-0.565519 -0.223846 -0.229387 0.300000 0.000000 0.600000
0.577674 -0.213564 0.250628 0.500000 0.500000 0.000000
-0.562204 0.264560 -0.298771 0.300000 0.000000 0.600000
-0.137743 -0.244379 0.020621 0.000000 0.500000 0.500000
0.111479 -0.230344 -0.230203 0.300000 0.000000 0.600000
0.600539 -0.244379 0.121982 0.000000 0.500000 0.500000
0.014932 -0.213564 -0.053144 0.000000 0.500000 0.500000
-0.109236 -0.244379 0.440490 0.000000 0.500000 0.500000
-0.215870 0.647281 -0.375941 0.600000 0.000000 0.300000
0.364336 -0.213564 0.051320 0.000000 0.500000 0.500000
0.023465 -0.015743 -0.273687 0.300000 0.000000 0.600000
0.090227 -0.244379 0.543623 0.000000 0.500000 0.500000
-0.437134 0.631720 -0.404239 0.300000 0.000000 0.600000
-0.017611 -0.244379 0.163355 0.000000 0.500000 0.500000
0.153728 -0.158675 -0.213432 0.300000 0.000000 0.600000
-0.431808 0.295304 -0.336406 0.300000 0.000000 0.600000
-0.512693 -0.213564 0.722922 0.000000 0.500000 0.500000
-0.383930 0.186778 -0.283087 0.600000 0.000000 0.300000
-0.324569 -0.094999 -0.257707 0.300000 0.000000 0.600000
0.051747 0.086039 -0.262775 0.600000 0.000000 0.300000
-0.582367 -0.074295 -0.230446 0.300000 0.000000 0.600000
-0.439641 0.486664 -0.374990 0.300000 0.000000 0.600000
-0.048347 0.058044 -0.288566 0.300000 0.000000 0.600000
0.066948 -0.213564 0.231873 0.500000 0.500000 0.000000
-0.185121 -0.244379 -0.108364 0.000000 0.500000 0.500000
-0.547088 -0.244379 0.103984 0.000000 0.500000 0.500000
-0.558355 0.711816 -0.419850 0.300000 0.000000 0.600000
-0.390528 -0.213564 0.661372 0.000000 0.500000 0.500000
0.278644 0.570380 -0.391870 0.300000 0.000000 0.600000
-0.023674 -0.213564 -0.014670 0.000000 0.500000 0.500000
-0.574768 -0.244379 0.491581 0.000000 0.500000 0.500000
0.165051 -0.244379 0.364457 0.000000 0.500000 0.500000
0.438235 0.028786 -0.282666 0.300000 0.000000 0.600000
0.195254 0.403845 -0.326856 0.600000 0.000000 0.300000
0.510600 -0.244379 0.143616 0.000000 0.500000 0.500000
-0.053723 -0.244379 0.252896 0.000000 0.500000 0.500000
0.494860 -0.244379 0.003797 0.000000 0.500000 0.500000
0.488092 0.056491 -0.256817 0.600000 0.000000 0.300000
0.025817 -0.244379 0.497434 0.000000 0.500000 0.500000
0.496193 0.512843 -0.348834 0.600000 0.000000 0.300000
-0.290152 -0.244379 0.188597 0.000000 0.500000 0.500000
0.049209 -0.244379 0.015054 0.000000 0.500000 0.500000
0.187403 -0.228549 -0.199624 0.300000 0.000000 0.600000
-0.264368 -0.213564 0.626561 0.000000 0.500000 0.500000
-0.461725 0.403979 -0.326883 0.600000 0.000000 0.300000
0.525738 -0.213564 -0.052689 0.000000 0.500000 0.500000
0.269787 0.108283 -0.267260 0.600000 0.000000 0.300000
0.275441 -0.244379 0.488768 0.000000 0.500000 0.500000
-0.014880 -0.213564 -0.068168 0.000000 0.500000 0.500000
-0.583525 0.251411 -0.327555 0.300000 0.000000 0.600000
0.002390 -0.213564 0.255715 0.500000 0.500000 0.000000
0.416147 0.555638 -0.388898 0.300000 0.000000 0.600000
0.623013 0.258914 -0.329068 0.300000 0.000000 0.600000
0.517058 -0.213564 0.681066 0.000000 0.500000 0.500000
-0.585090 0.650247 -0.376539 0.300000 0.000000 0.600000
0.496980 -0.213564 0.204796 0.500000 0.500000 0.000000
-0.526237 -0.213564 0.556025 0.000000 0.500000 0.500000
0.517779 -0.110274 -0.254627 0.300000 0.000000 0.600000
-0.568758 -0.213564 0.376130 0.500000 0.500000 0.000000
-0.606235 -0.177024 -0.241168 0.300000 0.000000 0.600000
0.603463 0.182930 -0.325071 0.300000 0.000000 0.600000
0.120059 -0.244379 0.460869 0.000000 0.500000 0.500000
0.254178 -0.213564 0.391968 0.500000 0.500000 0.000000
0.069588 -0.213564 0.429397 0.500000 0.500000 0.000000
0.235975 0.640430 -0.405995 0.300000 0.000000 0.600000
0.099683 -0.213564 0.158814 0.500000 0.500000 0.000000
-0.291729 0.304902 -0.338341 0.300000 0.000000 0.600000
0.164197 0.196806 -0.285109 0.600000 0.000000 0.300000
-0.320544 0.433693 -0.364310 0.300000 0.000000 0.600000
-0.453837 -0.244379 0.690184 0.000000 0.500000 0.500000
0.148215 0.061207 -0.289203 0.300000 0.000000 0.600000
0.348813 0.211292 -0.288030 0.600000 0.000000 0.300000
-0.491992 -0.244379 0.558162 0.000000 0.500000 0.500000
0.485484 -0.244379 -0.164269 0.000000 0.500000 0.500000
0.053474 -0.213564 0.741520 0.300000 0.600000 0.000000
-0.396686 -0.213564 0.573957 0.000000 0.500000 0.500000
0.124235 -0.243348 -0.209766 0.300000 0.000000 0.600000
0.327573 -0.244379 0.549706 0.000000 0.500000 0.500000
0.385482 -0.244379 0.593973 0.000000 0.500000 0.500000
-0.418537 0.325656 -0.342525 0.300000 0.000000 0.600000
-0.382610 0.558074 -0.357954 0.600000 0.000000 0.300000
0.083312 -0.213564 -0.002212 0.000000 0.500000 0.500000
0.521582 0.396563 -0.356823 0.300000 0.000000 0.600000
0.239526 0.580290 -0.393869 0.300000 0.000000 0.600000
0.360894 0.594709 -0.396776 0.300000 0.000000 0.600000
-0.554371 -0.244379 0.559504 0.000000 0.500000 0.500000
-0.609966 -0.243933 0.467688 0.000000 0.500000 0.500000
0.642303 0.220798 -0.332706 0.300000 0.000000 0.600000
0.306273 -0.244379 0.177321 0.000000 0.500000 0.500000
-0.609966 -0.215864 0.503925 0.000000 0.500000 0.500000
0.418591 0.682883 -0.383120 0.300000 0.000000 0.600000
0.110059 -0.244379 0.597062 0.000000 0.500000 0.500000
-0.125098 -0.213564 0.290977 0.500000 0.500000 0.000000
-0.217551 0.427806 -0.331687 0.600000 0.000000 0.300000
-0.497491 -0.195338 -0.237475 0.300000 0.000000 0.600000
0.645290 0.170991 -0.322664 0.300000 0.000000 0.600000
0.507580 0.712639 -0.415770 0.300000 0.000000 0.600000
0.007504 0.324882 -0.310934 0.600000 0.000000 0.300000
0.234730 0.484271 -0.374508 0.300000 0.000000 0.600000
0.451088 0.174128 -0.311972 0.300000 0.000000 0.600000
-0.520022 -0.244379 -0.089888 0.000000 0.500000 0.500000
0.038281 0.055083 -0.287968 0.300000 0.000000 0.600000
0.450985 -0.244379 0.568119 0.000000 0.500000 0.500000
0.045910 -0.244379 -0.151026 0.000000 0.500000 0.500000
0.578413 0.508156 -0.379324 0.300000 0.000000 0.600000
0.547504 -0.244379 0.251871 0.000000 0.500000 0.500000
-0.505087 -0.213564 0.338652 0.500000 0.500000 0.000000
0.029668 0.118574 -0.300770 0.300000 0.000000 0.600000
-0.007318 0.268122 -0.330925 0.300000 0.000000 0.600000
0.050479 0.572018 -0.392201 0.300000 0.000000 0.600000
0.068453 -0.213564 0.598082 0.300000 0.600000 0.000000
0.168626 0.279136 -0.301710 0.600000 0.000000 0.300000
-0.346215 0.411848 -0.328469 0.600000 0.000000 0.300000
0.417571 0.060217 -0.257568 0.600000 0.000000 0.300000
-0.178034 -0.244379 0.510583 0.000000 0.500000 0.500000
0.373782 0.159345 -0.308992 0.300000 0.000000 0.600000
0.257848 -0.244379 0.204961 0.000000 0.500000 0.500000
0.102111 -0.213564 0.677030 0.300000 0.600000 0.000000
-0.407281 -0.125571 -0.251542 0.300000 0.000000 0.600000
-0.503669 -0.213564 -0.159658 0.000000 0.500000 0.500000
-0.067111 -0.093767 -0.257955 0.300000 0.000000 0.600000
0.134171 -0.244379 -0.106369 0.000000 0.500000 0.500000
0.416002 0.304972 -0.306919 0.600000 0.000000 0.300000
0.042457 -0.244379 0.201820 0.000000 0.500000 0.500000
-0.330432 0.166000 -0.278898 0.600000 0.000000 0.300000
-0.194143 -0.213564 0.350132 0.500000 0.500000 0.000000
0.337646 -0.213564 0.522122 0.500000 0.500000 0.000000
0.546869 0.068330 -0.259204 0.600000 0.000000 0.300000
-0.351538 0.089228 -0.294853 0.300000 0.000000 0.600000
0.616324 -0.215761 0.747747 0.000000 0.500000 0.500000
0.443511 -0.019552 -0.241484 0.600000 0.000000 0.300000
-0.468191 -0.035784 -0.238211 0.600000 0.000000 0.300000
0.069402 0.210894 -0.319386 0.300000 0.000000 0.600000
-0.406693 0.014061 -0.248261 0.600000 0.000000 0.300000
-0.183774 0.205044 -0.286770 0.600000 0.000000 0.300000
0.039260 -0.213564 0.620564 0.300000 0.600000 0.000000
0.357650 -0.244379 0.685469 0.000000 0.500000 0.500000
-0.598651 0.334947 -0.344399 0.300000 0.000000 0.600000
-0.212863 -0.086558 -0.259409 0.300000 0.000000 0.600000
-0.054714 -0.140390 -0.217119 0.600000 0.000000 0.300000
-0.558720 0.632413 -0.404379 0.300000 0.000000 0.600000
-0.006458 -0.244379 -0.167040 0.000000 0.500000 0.500000
-0.433883 -0.213564 0.144125 0.500000 0.500000 0.000000
0.626748 0.717427 -0.392026 0.300000 0.000000 0.600000
-0.015453 0.713355 -0.412219 0.300000 0.000000 0.600000
0.252986 0.004746 -0.246383 0.600000 0.000000 0.300000
0.622254 0.094059 -0.295828 0.300000 0.000000 0.600000
-0.142847 -0.244379 0.684299 0.000000 0.500000 0.500000
0.002160 -0.213564 0.582514 0.300000 0.600000 0.000000
0.028978 -0.213564 0.475114 0.500000 0.500000 0.000000
0.357703 -0.244379 -0.131563 0.000000 0.500000 0.500000
0.126900 0.564376 -0.390660 0.300000 0.000000 0.600000
-0.244717 0.546720 -0.355664 0.600000 0.000000 0.300000
-0.113830 -0.244379 0.390494 0.000000 0.500000 0.500000
0.610552 -0.213564 0.328075 0.500000 0.500000 0.000000
0.172305 -0.213564 0.174995 0.500000 0.500000 0.000000
-0.201499 0.434211 -0.364414 0.300000 0.000000 0.600000
0.425200 -0.213564 -0.041521 0.000000 0.500000 0.500000
0.287878 0.445154 -0.366620 0.300000 0.000000 0.600000
0.550238 0.504453 -0.378577 0.300000 0.000000 0.600000
0.211182 -0.213564 -0.059662 0.000000 0.500000 0.500000
-0.099823 -0.244379 -0.189406 0.000000 0.500000 0.500000
0.517525 -0.213564 0.168810 0.500000 0.500000 0.000000
0.387436 0.688851 -0.384323 0.300000 0.000000 0.600000
-0.201610 -0.038272 -0.237709 0.600000 0.000000 0.300000
0.338555 0.505832 -0.378855 0.300000 0.000000 0.600000
0.369358 -0.213564 0.511528 0.500000 0.500000 0.000000
0.130055 -0.244379 -0.163708 0.000000 0.500000 0.500000
-0.262476 -0.175887 -0.209962 0.300000 0.000000 0.600000
-0.305423 -0.244379 0.630579 0.000000 0.500000 0.500000
0.284598 -0.213564 -0.159559 0.000000 0.500000 0.500000
-0.505481 0.388161 -0.355129 0.300000 0.000000 0.600000
-0.510777 -0.213564 0.448967 0.500000 0.500000 0.000000
-0.160976 -0.224894 0.727596 0.000000 0.500000 0.500000
0.381933 0.248128 -0.295458 0.600000 0.000000 0.300000
0.328484 0.652689 -0.377031 0.600000 0.000000 0.300000
-0.311546 -0.244379 0.564380 0.000000 0.500000 0.500000
0.580852 0.130520 -0.303179 0.300000 0.000000 0.600000
-0.514477 0.432155 -0.332564 0.600000 0.000000 0.300000
-0.590267 0.101775 -0.265948 0.300000 0.000000 0.600000
0.165866 -0.007267 -0.243961 0.600000 0.000000 0.300000
0.028911 -0.169858 -0.211178 0.300000 0.000000 0.600000
0.416111 -0.213564 0.017558 0.000000 0.500000 0.500000
-0.264257 -0.244379 0.429334 0.000000 0.500000 0.500000
-0.515286 -0.213564 0.369617 0.500000 0.500000 0.000000
0.302373 0.703708 -0.387319 0.300000 0.000000 0.600000
0.033809 0.698316 -0.417667 0.300000 0.000000 0.600000
0.161742 0.140601 -0.273776 0.600000 0.000000 0.300000
0.540900 -0.213564 0.296450 0.500000 0.500000 0.000000
-0.477491 -0.214956 -0.208895 0.300000 0.000000 0.600000
0.431898 -0.213564 0.246621 0.500000 0.500000 0.000000
0.182862 -0.239707 0.747747 0.000000 0.500000 0.500000
0.250201 -0.244379 0.431624 0.000000 0.500000 0.500000
-0.392622 -0.213564 0.294628 0.500000 0.500000 0.000000
-0.072031 0.684212 -0.414823 0.300000 0.000000 0.600000
0.612347 -0.213564 0.070502 0.000000 0.500000 0.500000
-0.171083 0.114637 -0.311301 0.300000 0.000000 0.600000
-0.079909 -0.213564 0.008777 0.000000 0.500000 0.500000
0.429039 -0.061825 -0.232960 0.600000 0.000000 0.300000
-0.093220 0.430208 -0.363607 0.300000 0.000000 0.600000
0.639320 -0.213564 0.150129 0.000000 0.500000 0.500000
0.496787 -0.213564 0.114723 0.500000 0.500000 0.000000
0.002516 -0.244379 -0.106094 0.000000 0.500000 0.500000
-0.388761 -0.213564 0.521176 0.500000 0.500000 0.000000
0.018004 0.510364 -0.348334 0.600000 0.000000 0.300000
0.371661 -0.244379 0.547145 0.000000 0.500000 0.500000
0.022610 0.716801 -0.389959 0.300000 0.000000 0.600000
0.059025 0.152255 -0.307562 0.300000 0.000000 0.600000
0.534142 -0.244379 0.362781 0.000000 0.500000 0.500000
-0.605109 -0.043146 -0.236727 0.300000 0.000000 0.600000
-0.379878 0.349434 -0.315884 0.600000 0.000000 0.300000
0.157686 0.699790 -0.386529 0.300000 0.000000 0.600000
-0.207458 0.091233 -0.295258 0.300000 0.000000 0.600000
0.141233 -0.213564 0.334175 0.500000 0.500000 0.000000
-0.203875 0.524402 -0.382600 0.300000 0.000000 0.600000
0.326426 0.295889 -0.336523 0.300000 0.000000 0.600000
0.418366 -0.213564 0.692037 0.000000 0.500000 0.500000
0.165867 -0.244379 0.613156 0.000000 0.500000 0.500000
0.345242 0.622806 -0.371006 0.600000 0.000000 0.300000
0.379001 -0.151736 -0.214831 0.300000 0.000000 0.600000
-0.550027 0.103266 -0.266248 0.300000 0.000000 0.600000
-0.017528 -0.244379 0.730157 0.000000 0.500000 0.500000
-0.402464 -0.213564 0.481675 0.500000 0.500000 0.000000
-0.496189 -0.213564 -0.115220 0.000000 0.500000 0.500000
-0.121108 -0.213564 0.565108 0.300000 0.600000 0.000000
0.332092 -0.244379 0.424599 0.000000 0.500000 0.500000
-0.543408 -0.063938 -0.232534 0.600000 0.000000 0.300000
-0.282087 -0.244379 0.238548 0.000000 0.500000 0.500000
-0.288718 0.425696 -0.331262 0.600000 0.000000 0.300000
-0.431812 0.352510 -0.316505 0.600000 0.000000 0.300000
-0.483757 0.024181 -0.250302 0.600000 0.000000 0.300000
0.024785 -0.213564 0.435841 0.500000 0.500000 0.000000
0.043127 -0.244379 0.596319 0.000000 0.500000 0.500000
0.178750 -0.129143 -0.250822 0.300000 0.000000 0.600000
-0.439187 0.075337 -0.303376 0.300000 0.000000 0.600000
-0.516069 -0.244379 0.660506 0.000000 0.500000 0.500000
0.006894 -0.213564 -0.024707 0.000000 0.500000 0.500000
0.101192 -0.244379 0.048978 0.000000 0.500000 0.500000
-0.154787 -0.213564 0.124381 0.500000 0.500000 0.000000
-0.042544 -0.244379 0.450304 0.000000 0.500000 0.500000
0.499972 -0.244379 0.395126 0.000000 0.500000 0.500000
0.046397 0.559984 -0.358339 0.600000 0.000000 0.300000
-0.023028 -0.244379 0.345634 0.000000 0.500000 0.500000
-0.279362 -0.213564 -0.083611 0.000000 0.500000 0.500000
-0.340215 -0.216936 0.747747 0.000000 0.500000 0.500000
0.209773 0.396993 -0.356909 0.300000 0.000000 0.600000
0.336627 0.357381 -0.348922 0.300000 0.000000 0.600000
0.060195 0.681377 -0.414251 0.300000 0.000000 0.600000
0.090950 0.510044 -0.379705 0.300000 0.000000 0.600000
0.587091 0.298847 -0.337120 0.300000 0.000000 0.600000
-0.018516 0.658245 -0.409587 0.300000 0.000000 0.600000
0.140880 0.011501 -0.279181 0.300000 0.000000 0.600000
-0.052765 0.599073 -0.397656 0.300000 0.000000 0.600000
0.070765 -0.234823 -0.200865 0.300000 0.000000 0.600000
-0.128128 0.646410 -0.407201 0.300000 0.000000 0.600000
-0.172449 -0.244379 0.400056 0.000000 0.500000 0.500000
-0.228423 -0.213564 0.566791 0.000000 0.500000 0.500000
0.494806 0.264854 -0.298830 0.600000 0.000000 0.300000
-0.512280 0.482068 -0.374064 0.300000 0.000000 0.600000
0.281815 -0.025253 -0.271770 0.300000 0.000000 0.600000
0.105255 0.450880 -0.367775 0.300000 0.000000 0.600000
-0.514867 -0.043159 -0.236724 0.600000 0.000000 0.300000
-0.249292 0.275083 -0.332328 0.300000 0.000000 0.600000
-0.319849 0.059952 -0.257515 0.600000 0.000000 0.300000
0.075802 0.198023 -0.285355 0.600000 0.000000 0.300000
