0.488754 -0.404325 -0.243287 0.000000 1.000000 0.000000
-0.210980 -0.021406 -0.585300 0.000000 1.000000 0.000000
0.578005 -0.379668 -0.521982 0.000000 1.000000 0.000000
-0.455975 -0.464557 0.309632 0.000000 1.000000 0.000000
-0.405761 0.048964 0.627027 0.500000 0.500000 0.000000
0.691876 0.301672 0.196005 0.000000 1.000000 0.000000
0.233175 0.362515 0.517646 0.000000 1.000000 0.000000
-0.661707 -0.280510 0.014156 0.000000 1.000000 0.000000
-0.672877 -0.385533 0.522947 0.000000 1.000000 0.000000
0.578005 -0.102501 -0.295824 0.000000 1.000000 0.000000
-0.306840 -0.404325 0.486788 0.000000 1.000000 0.000000
0.450979 0.129182 -0.400713 0.000000 1.000000 0.000000
0.182819 -0.311745 -0.585300 0.000000 1.000000 0.000000
0.100124 -0.464557 -0.479682 0.000000 1.000000 0.000000
0.296732 0.129182 0.487364 0.000000 1.000000 0.000000
-0.488057 0.455474 0.204844 0.000000 1.000000 0.000000
0.691876 -0.143990 0.282320 0.000000 1.000000 0.000000
-0.373582 0.445891 -0.585300 0.000000 1.000000 0.000000
0.101974 -0.464557 0.138549 0.000000 1.000000 0.000000
0.466824 -0.404325 -0.416917 0.000000 1.000000 0.000000
-0.570229 0.455474 0.237303 0.000000 1.000000 0.000000
-0.062015 0.129182 0.137017 0.000000 1.000000 0.000000
0.504966 -0.464557 0.388011 0.000000 1.000000 0.000000
0.482334 0.129182 0.231880 0.000000 1.000000 0.000000
-0.407992 -0.464557 -0.438091 0.000000 1.000000 0.000000
0.180826 0.455474 0.424882 0.000000 1.000000 0.000000
0.600504 -0.114160 -0.585300 0.000000 1.000000 0.000000
-0.515969 -0.464557 -0.011597 0.000000 1.000000 0.000000
0.691876 0.208260 -0.412387 0.000000 1.000000 0.000000
0.371219 0.245885 -0.585300 0.000000 1.000000 0.000000
0.322828 -0.159005 0.553678 0.000000 1.000000 0.000000
0.007975 -0.404325 0.272560 0.000000 1.000000 0.000000
0.222213 -0.404325 0.238401 0.000000 1.000000 0.000000
0.160540 0.076857 0.553761 1.000000 0.000000 0.000000
0.274487 0.209321 0.517646 0.000000 1.000000 0.000000
-0.607440 -0.121070 0.517646 0.000000 1.000000 0.000000
-0.251381 0.379298 0.550874 0.000000 1.000000 0.000000
0.691876 -0.091129 -0.507116 0.000000 1.000000 0.000000
-0.661707 -0.166544 -0.001385 0.000000 1.000000 0.000000
-0.501488 0.107919 0.553761 1.000000 0.000000 0.000000
0.027168 -0.104338 -0.585300 0.000000 1.000000 0.000000
0.183276 0.455474 0.128885 0.000000 1.000000 0.000000
-0.400822 -0.464557 0.011209 0.000000 1.000000 0.000000
-0.594383 -0.464557 -0.506161 0.000000 1.000000 0.000000
0.318589 -0.404325 -0.148726 0.000000 1.000000 0.000000
-0.217287 -0.404325 -0.527340 0.000000 1.000000 0.000000
0.465524 0.177114 0.522947 0.000000 1.000000 0.000000
0.578005 -0.400933 -0.222916 0.000000 1.000000 0.000000
-0.438260 -0.099759 -0.529346 0.000000 1.000000 0.000000
-0.331193 -0.404325 0.285300 0.000000 1.000000 0.000000
0.303637 -0.464557 -0.076571 0.000000 1.000000 0.000000
0.519371 -0.464557 -0.368728 0.000000 1.000000 0.000000
0.104386 -0.404325 -0.178342 0.000000 1.000000 0.000000
0.458459 0.058945 -0.529346 0.000000 1.000000 0.000000
-0.546259 0.063534 0.196914 0.000000 1.000000 0.000000
0.691876 0.416824 -0.172384 0.000000 1.000000 0.000000
-0.099068 -0.464557 0.094080 0.000000 1.000000 0.000000
-0.386522 0.327760 0.517646 0.000000 1.000000 0.000000
-0.546259 -0.359608 0.303165 0.000000 1.000000 0.000000
-0.434465 -0.404325 0.493866 0.000000 1.000000 0.000000
0.064331 -0.404325 0.090011 0.000000 1.000000 0.000000
-0.555513 0.231995 -0.585300 0.000000 1.000000 0.000000
-0.018628 0.455474 -0.300583 0.000000 1.000000 0.000000
-0.209600 0.455474 0.089791 0.000000 1.000000 0.000000
0.286839 -0.464557 -0.280138 0.000000 1.000000 0.000000
0.374695 0.129182 -0.420967 0.000000 1.000000 0.000000
-0.469021 0.422623 -0.585300 0.000000 1.000000 0.000000
-0.051540 0.455474 -0.142034 0.000000 1.000000 0.000000
-0.122130 -0.127043 -0.529346 0.000000 1.000000 0.000000
-0.111900 -0.404325 0.380357 0.000000 1.000000 0.000000
0.578005 -0.171529 0.392451 0.000000 1.000000 0.000000
0.134878 -0.180292 -0.529346 0.000000 1.000000 0.000000
-0.544268 0.455474 -0.377228 0.000000 1.000000 0.000000
-0.661707 -0.227688 -0.298553 0.000000 1.000000 0.000000
-0.553642 -0.274510 -0.585300 0.000000 1.000000 0.000000
-0.223229 -0.083436 -0.529346 0.000000 1.000000 0.000000
-0.661707 -0.159308 -0.550835 0.000000 1.000000 0.000000
-0.191304 -0.464557 0.271046 0.000000 1.000000 0.000000
-0.003182 -0.438481 0.517646 0.000000 1.000000 0.000000
0.336155 -0.163558 -0.529346 0.000000 1.000000 0.000000
-0.661707 0.189100 0.043720 0.000000 1.000000 0.000000
0.578005 -0.028166 0.344213 0.000000 1.000000 0.000000
-0.067232 0.455474 0.141062 0.000000 1.000000 0.000000
0.030549 0.003973 -0.529346 0.000000 1.000000 0.000000
-0.330073 -0.218762 -0.529346 0.000000 1.000000 0.000000
-0.126689 0.129182 0.398296 0.000000 1.000000 0.000000
-0.654246 0.225504 -0.585300 0.000000 1.000000 0.000000
-0.484544 0.455474 0.408858 0.000000 1.000000 0.000000
-0.661707 -0.411102 -0.494615 0.000000 1.000000 0.000000
-0.443604 0.129182 0.392351 0.000000 1.000000 0.000000
0.221881 -0.404325 0.049070 0.000000 1.000000 0.000000
0.628159 -0.464557 0.364709 0.000000 1.000000 0.000000
-0.003901 0.207100 0.517646 0.000000 1.000000 0.000000
0.634427 0.455474 -0.302917 0.000000 1.000000 0.000000
-0.069189 -0.404325 -0.406337 0.000000 1.000000 0.000000
0.691876 -0.177985 -0.232938 0.000000 1.000000 0.000000
-0.661707 0.091322 -0.109093 0.000000 1.000000 0.000000
-0.261621 0.189653 0.522947 0.000000 1.000000 0.000000
-0.447789 0.025195 -0.529346 0.000000 1.000000 0.000000
-0.661707 -0.416692 -0.364142 0.000000 1.000000 0.000000
-0.062687 0.129182 -0.265215 0.000000 1.000000 0.000000
-0.046229 0.129182 -0.422541 0.000000 1.000000 0.000000
-0.661707 -0.400740 -0.049554 0.000000 1.000000 0.000000
-0.661707 -0.274406 -0.157752 0.000000 1.000000 0.000000
0.691876 0.376190 -0.342327 0.000000 1.000000 0.000000
-0.661707 -0.263047 -0.402819 0.000000 1.000000 0.000000
-0.246682 0.024917 0.639143 0.500000 0.500000 0.000000
0.554885 0.288621 0.559535 0.000000 1.000000 0.000000
-0.210680 0.286051 -0.585300 0.000000 1.000000 0.000000
0.084513 0.455474 -0.075120 0.000000 1.000000 0.000000
-0.535869 0.221030 0.553761 0.000000 1.000000 0.000000
0.492923 0.455474 -0.223880 0.000000 1.000000 0.000000
-0.012999 -0.464557 -0.260099 0.000000 1.000000 0.000000
0.190158 0.303236 -0.585300 0.000000 1.000000 0.000000
0.559251 0.129182 -0.155642 0.000000 1.000000 0.000000
-0.464149 0.372258 0.517646 0.000000 1.000000 0.000000
0.504659 -0.464557 0.295708 0.000000 1.000000 0.000000
-0.081548 -0.464557 -0.505346 0.000000 1.000000 0.000000
-0.126488 -0.404325 0.139337 0.000000 1.000000 0.000000
0.671055 -0.315894 -0.585300 0.000000 1.000000 0.000000
0.545399 -0.464557 -0.521014 0.000000 1.000000 0.000000
-0.109716 0.455474 0.381661 0.000000 1.000000 0.000000
-0.087611 0.129182 -0.149519 0.000000 1.000000 0.000000
0.177599 -0.404325 -0.354171 0.000000 1.000000 0.000000
-0.661707 0.024963 0.232397 0.000000 1.000000 0.000000
-0.456785 -0.273530 -0.585300 0.000000 1.000000 0.000000
-0.435437 -0.404325 -0.133873 0.000000 1.000000 0.000000
-0.333044 0.129182 -0.468282 0.000000 1.000000 0.000000
-0.468567 -0.464557 0.048528 0.000000 1.000000 0.000000
0.312223 -0.327320 -0.529346 0.000000 1.000000 0.000000
0.132937 0.455474 0.234196 0.000000 1.000000 0.000000
0.417993 0.260233 0.517646 0.000000 1.000000 0.000000
-0.603129 0.004726 0.517646 0.000000 1.000000 0.000000
0.253514 -0.404325 -0.523784 0.000000 1.000000 0.000000
-0.626450 0.455474 -0.170396 0.000000 1.000000 0.000000
-0.661707 0.187891 0.188053 0.000000 1.000000 0.000000
-0.257406 0.455474 -0.175533 0.000000 1.000000 0.000000
0.189868 0.129182 0.095979 0.000000 1.000000 0.000000
-0.661707 0.359220 0.169496 0.000000 1.000000 0.000000
-0.443808 0.129182 0.144201 0.000000 1.000000 0.000000
0.578005 -0.384669 0.426464 0.000000 1.000000 0.000000
0.206473 -0.464557 0.120458 0.000000 1.000000 0.000000
-0.532839 0.129182 0.029700 0.000000 1.000000 0.000000
0.691876 -0.357145 0.053834 0.000000 1.000000 0.000000
-0.661707 0.357828 -0.401097 0.000000 1.000000 0.000000
0.059544 -0.464557 -0.129911 0.000000 1.000000 0.000000
-0.135861 -0.246632 0.553678 0.000000 1.000000 0.000000
-0.018109 0.129182 0.341030 0.000000 1.000000 0.000000
0.697615 0.059441 0.500435 0.000000 1.000000 0.000000
0.233336 -0.464557 -0.040817 0.000000 1.000000 0.000000
-0.661707 -0.059112 -0.300022 0.000000 1.000000 0.000000
0.040755 -0.084926 0.553678 0.000000 1.000000 0.000000
0.240024 0.455474 0.290138 0.000000 1.000000 0.000000
-0.530550 0.129182 -0.151205 0.000000 1.000000 0.000000
0.117781 -0.442594 0.517646 0.000000 1.000000 0.000000
0.196882 0.291002 0.517646 0.000000 1.000000 0.000000
-0.045762 0.111837 -0.585300 0.000000 1.000000 0.000000
0.691876 -0.381393 -0.165237 0.000000 1.000000 0.000000
-0.626671 -0.216051 0.517646 0.000000 1.000000 0.000000
-0.074068 0.129182 -0.505905 0.000000 1.000000 0.000000
-0.163108 0.023267 -0.529346 0.000000 1.000000 0.000000
-0.546259 -0.060832 0.286635 0.000000 1.000000 0.000000
0.578005 -0.003231 0.433364 0.000000 1.000000 0.000000
-0.471022 -0.465350 0.554723 1.000000 0.000000 0.000000
-0.021058 -0.464557 -0.090280 0.000000 1.000000 0.000000
0.313120 -0.464557 0.006986 0.000000 1.000000 0.000000
0.081886 -0.464557 0.211193 0.000000 1.000000 0.000000
0.500746 -0.404325 -0.158941 0.000000 1.000000 0.000000
-0.510615 -0.464557 -0.521030 0.000000 1.000000 0.000000
-0.401450 -0.404325 -0.052794 0.000000 1.000000 0.000000
-0.262591 0.129182 -0.033268 0.000000 1.000000 0.000000
-0.661707 -0.161638 0.301238 0.000000 1.000000 0.000000
0.046693 0.298038 0.522947 0.000000 1.000000 0.000000
-0.301895 -0.003933 -0.585300 0.000000 1.000000 0.000000
-0.546259 -0.041013 0.443654 0.000000 1.000000 0.000000
0.578005 -0.243084 -0.186765 0.000000 1.000000 0.000000
0.067847 -0.404325 0.330853 0.000000 1.000000 0.000000
-0.557125 -0.059244 -0.585300 0.000000 1.000000 0.000000
0.066745 0.129182 0.316799 0.000000 1.000000 0.000000
0.310965 -0.329008 0.559535 1.000000 0.000000 0.000000
0.307594 -0.404325 0.254043 0.000000 1.000000 0.000000
-0.377737 -0.404325 0.367092 0.000000 1.000000 0.000000
0.034757 0.088032 -0.585300 0.000000 1.000000 0.000000
0.538623 0.129182 -0.514839 0.000000 1.000000 0.000000
-0.359341 -0.464557 -0.233028 0.000000 1.000000 0.000000
-0.311862 -0.464557 0.440109 0.000000 1.000000 0.000000
-0.546259 -0.152940 -0.232687 0.000000 1.000000 0.000000
0.445753 -0.464557 0.081695 0.000000 1.000000 0.000000
-0.546259 -0.320849 -0.516392 0.000000 1.000000 0.000000
0.374454 0.118485 -0.529346 0.000000 1.000000 0.000000
0.691876 0.293909 -0.584759 0.000000 1.000000 0.000000
-0.546259 -0.385620 -0.246585 0.000000 1.000000 0.000000
0.120815 -0.464557 -0.064061 0.000000 1.000000 0.000000
-0.387391 0.129182 -0.024165 0.000000 1.000000 0.000000
0.656968 -0.464557 -0.381487 0.000000 1.000000 0.000000
-0.084439 -0.464557 -0.288541 0.000000 1.000000 0.000000
-0.039059 -0.464557 0.409271 0.000000 1.000000 0.000000
0.395784 -0.464557 -0.116979 0.000000 1.000000 0.000000
0.700943 -0.438899 0.487137 0.000000 1.000000 0.000000
-0.546259 -0.070126 -0.014842 0.000000 1.000000 0.000000
0.454720 0.129182 0.162855 0.000000 1.000000 0.000000
0.388327 0.455474 -0.151010 0.000000 1.000000 0.000000
-0.341700 0.129182 0.271702 0.000000 1.000000 0.000000
-0.267898 -0.404325 -0.313872 0.000000 1.000000 0.000000
-0.671864 0.141139 0.557155 1.000000 0.000000 0.000000
0.167074 0.129182 0.221850 0.000000 1.000000 0.000000
-0.661707 -0.048320 0.093025 0.000000 1.000000 0.000000
-0.661707 -0.153232 0.080314 0.000000 1.000000 0.000000
0.411749 -0.149295 -0.529346 0.000000 1.000000 0.000000
0.226526 -0.078012 -0.585300 0.000000 1.000000 0.000000
-0.389587 -0.362445 -0.585300 0.000000 1.000000 0.000000
0.607311 -0.464557 0.037153 0.000000 1.000000 0.000000
-0.068774 0.129182 0.482311 0.000000 1.000000 0.000000
-0.491159 -0.085353 0.559535 1.000000 0.000000 0.000000
0.576641 0.129182 -0.371997 0.000000 1.000000 0.000000
0.700943 0.396963 0.507444 0.000000 1.000000 0.000000
-0.581718 -0.464557 -0.053419 0.000000 1.000000 0.000000
0.630713 0.455474 -0.157079 0.000000 1.000000 0.000000
-0.661707 -0.413271 0.094691 0.000000 1.000000 0.000000
-0.292446 -0.323848 -0.585300 0.000000 1.000000 0.000000
0.578005 -0.134667 0.487735 0.000000 1.000000 0.000000
-0.034834 -0.464557 0.273585 0.000000 1.000000 0.000000
0.306757 0.016489 -0.529346 0.000000 1.000000 0.000000
0.665486 0.186878 0.517646 0.000000 1.000000 0.000000
-0.495085 0.128696 -0.529346 0.000000 1.000000 0.000000
-0.357878 0.129182 -0.157127 0.000000 1.000000 0.000000
0.691876 -0.009263 -0.345275 0.000000 1.000000 0.000000
0.469363 0.050716 0.598911 0.500000 0.500000 0.000000
0.691876 -0.006275 0.428715 0.000000 1.000000 0.000000
0.276082 -0.219782 -0.529346 0.000000 1.000000 0.000000
-0.420667 0.455474 -0.352421 0.000000 1.000000 0.000000
0.390993 0.020468 -0.529346 0.000000 1.000000 0.000000
-0.096219 0.303908 0.550874 0.000000 1.000000 0.000000
-0.006075 0.425409 -0.585300 0.000000 1.000000 0.000000
-0.147082 0.162884 -0.585300 0.000000 1.000000 0.000000
-0.333324 0.404952 0.517646 0.000000 1.000000 0.000000
0.530867 -0.032443 0.559535 1.000000 0.000000 0.000000
-0.106589 -0.404325 -0.183797 0.000000 1.000000 0.000000
0.118249 0.129182 0.486066 0.000000 1.000000 0.000000
-0.228129 0.129182 -0.292560 0.000000 1.000000 0.000000
0.329929 0.472864 0.529450 0.000000 1.000000 0.000000
-0.493231 -0.464557 0.133518 0.000000 1.000000 0.000000
0.150679 0.455474 -0.279146 0.000000 1.000000 0.000000
-0.144147 -0.404325 0.263557 0.000000 1.000000 0.000000
0.296509 -0.464557 0.339164 0.000000 1.000000 0.000000
0.578005 0.002964 -0.172217 0.000000 1.000000 0.000000
0.529603 0.455474 -0.019985 0.000000 1.000000 0.000000
0.691876 -0.325249 0.293258 0.000000 1.000000 0.000000
-0.485496 0.455474 0.492931 0.000000 1.000000 0.000000
0.381329 -0.404325 -0.231748 0.000000 1.000000 0.000000
0.215967 -0.404325 0.165640 0.000000 1.000000 0.000000
0.448302 0.455474 0.463938 0.000000 1.000000 0.000000
-0.006445 -0.464557 0.113232 0.000000 1.000000 0.000000
0.578005 -0.088412 -0.081464 0.000000 1.000000 0.000000
0.384488 0.409672 0.522947 0.000000 1.000000 0.000000
0.126943 -0.404325 0.196508 0.000000 1.000000 0.000000
0.232523 -0.009636 -0.529346 0.000000 1.000000 0.000000
-0.331028 -0.172104 -0.585300 0.000000 1.000000 0.000000
0.691876 0.367766 -0.096927 0.000000 1.000000 0.000000
0.308206 0.338479 0.517646 0.000000 1.000000 0.000000
0.507002 -0.464557 -0.279934 0.000000 1.000000 0.000000
-0.009336 -0.226249 -0.585300 0.000000 1.000000 0.000000
0.678073 0.455474 -0.023871 0.000000 1.000000 0.000000
-0.546259 -0.305831 0.214316 0.000000 1.000000 0.000000
-0.365007 -0.146608 0.553678 0.000000 1.000000 0.000000
0.173556 -0.464557 -0.260622 0.000000 1.000000 0.000000
-0.651402 -0.290478 -0.585300 0.000000 1.000000 0.000000
-0.661707 -0.207535 -0.228665 0.000000 1.000000 0.000000
0.578005 -0.113670 0.348374 0.000000 1.000000 0.000000
-0.544570 -0.323242 0.559535 1.000000 0.000000 0.000000
0.691876 0.113148 0.201554 0.000000 1.000000 0.000000
-0.241441 0.455474 -0.564563 0.000000 1.000000 0.000000
0.578005 0.045697 -0.273353 0.000000 1.000000 0.000000
-0.661707 -0.170871 0.200115 0.000000 1.000000 0.000000
0.509785 -0.404325 0.250655 0.000000 1.000000 0.000000
-0.169581 0.455474 0.238321 0.000000 1.000000 0.000000
0.296633 -0.067688 0.553678 0.000000 1.000000 0.000000
-0.410273 0.455474 -0.224327 0.000000 1.000000 0.000000
0.262401 -0.199778 0.553678 0.000000 1.000000 0.000000
-0.108857 -0.464557 -0.414113 0.000000 1.000000 0.000000
0.231337 -0.325459 -0.529346 0.000000 1.000000 0.000000
0.137125 -0.306908 -0.529346 0.000000 1.000000 0.000000
0.578005 -0.126896 0.059371 0.000000 1.000000 0.000000
0.207764 -0.404325 -0.185858 0.000000 1.000000 0.000000
-0.002700 -0.352132 0.556565 0.000000 1.000000 0.000000
0.553239 -0.404325 -0.290798 0.000000 1.000000 0.000000
-0.546259 -0.388835 0.009826 0.000000 1.000000 0.000000
0.143486 -0.464557 0.069458 0.000000 1.000000 0.000000
0.237903 0.429645 0.553761 0.000000 1.000000 0.000000
0.167040 0.079625 -0.585300 0.000000 1.000000 0.000000
0.483295 -0.461828 0.522947 1.000000 0.000000 0.000000
-0.661707 0.233618 -0.199209 0.000000 1.000000 0.000000
-0.354277 -0.464557 -0.160975 0.000000 1.000000 0.000000
-0.546259 -0.075025 0.150048 0.000000 1.000000 0.000000
0.633175 0.455474 -0.536067 0.000000 1.000000 0.000000
0.045008 -0.404325 0.417609 0.000000 1.000000 0.000000
-0.335913 -0.464557 -0.039580 0.000000 1.000000 0.000000
-0.251417 -0.404325 -0.173880 0.000000 1.000000 0.000000
0.684345 -0.464557 -0.314562 0.000000 1.000000 0.000000
-0.354911 -0.404325 0.096035 0.000000 1.000000 0.000000
-0.463228 -0.404325 0.427882 0.000000 1.000000 0.000000
0.691876 0.185816 0.076844 0.000000 1.000000 0.000000
-0.173157 -0.037819 0.556565 0.000000 1.000000 0.000000
-0.471845 -0.464557 -0.403832 0.000000 1.000000 0.000000
-0.535208 -0.200014 -0.585300 0.000000 1.000000 0.000000
0.188411 -0.055709 0.556565 0.000000 1.000000 0.000000
-0.135449 0.455474 0.163555 0.000000 1.000000 0.000000
0.558845 0.019737 -0.585300 0.000000 1.000000 0.000000
0.459242 -0.404325 0.182463 0.000000 1.000000 0.000000
-0.454483 -0.464557 -0.048630 0.000000 1.000000 0.000000
-0.174798 0.255814 0.517646 0.000000 1.000000 0.000000
0.187792 -0.404325 0.413002 0.000000 1.000000 0.000000
-0.422875 -0.404325 0.066540 0.000000 1.000000 0.000000
-0.546259 -0.198849 -0.491034 0.000000 1.000000 0.000000
0.067172 0.129182 0.091329 0.000000 1.000000 0.000000
0.193981 0.138945 0.522947 1.000000 0.000000 0.000000
-0.405421 0.120564 -0.585300 0.000000 1.000000 0.000000
0.234996 -0.464557 -0.418399 0.000000 1.000000 0.000000
0.492971 -0.464557 -0.577580 0.000000 1.000000 0.000000
0.330135 0.129182 0.187185 0.000000 1.000000 0.000000
-0.634980 0.455474 0.490855 0.000000 1.000000 0.000000
-0.451343 0.455474 0.034730 0.000000 1.000000 0.000000
-0.669926 0.311556 0.490039 0.000000 1.000000 0.000000
0.691876 -0.296528 0.194499 0.000000 1.000000 0.000000
0.575775 -0.163818 -0.529346 0.000000 1.000000 0.000000
0.203991 0.129182 0.008333 0.000000 1.000000 0.000000
-0.661707 -0.034664 0.271566 0.000000 1.000000 0.000000
0.479591 0.455474 -0.298124 0.000000 1.000000 0.000000
0.619895 0.455474 -0.071974 0.000000 1.000000 0.000000
0.524829 -0.355532 -0.585300 0.000000 1.000000 0.000000
-0.546259 -0.025488 -0.145429 0.000000 1.000000 0.000000
-0.583180 -0.263387 0.559535 1.000000 0.000000 0.000000
0.209841 0.455474 -0.475648 0.000000 1.000000 0.000000
-0.224493 0.129182 0.426965 0.000000 1.000000 0.000000
-0.546259 -0.339614 -0.047408 0.000000 1.000000 0.000000
-0.250680 -0.404325 0.295628 0.000000 1.000000 0.000000
-0.247926 -0.464557 0.184705 0.000000 1.000000 0.000000
0.045189 -0.340447 -0.529346 0.000000 1.000000 0.000000
0.338437 -0.464557 0.281911 0.000000 1.000000 0.000000
0.032694 -0.404325 -0.207421 0.000000 1.000000 0.000000
-0.336911 -0.410897 0.559535 1.000000 0.000000 0.000000
-0.661707 -0.038969 -0.019427 0.000000 1.000000 0.000000
0.578005 0.062536 0.089404 0.000000 1.000000 0.000000
0.062215 -0.404325 -0.289941 0.000000 1.000000 0.000000
0.691876 -0.195650 0.222296 0.000000 1.000000 0.000000
-0.549709 -0.464557 -0.337293 0.000000 1.000000 0.000000
0.186568 -0.404325 -0.033305 0.000000 1.000000 0.000000
-0.481995 0.455474 -0.214476 0.000000 1.000000 0.000000
0.205270 -0.140299 -0.529346 0.000000 1.000000 0.000000
-0.546259 -0.147050 -0.367593 0.000000 1.000000 0.000000
0.013108 -0.404325 -0.076754 0.000000 1.000000 0.000000
0.455430 -0.127858 -0.585300 0.000000 1.000000 0.000000
-0.079055 -0.007232 -0.529346 0.000000 1.000000 0.000000
0.366052 0.455474 0.259283 0.000000 1.000000 0.000000
0.334168 0.455474 -0.503907 0.000000 1.000000 0.000000
0.351442 -0.464557 -0.447828 0.000000 1.000000 0.000000
0.624110 0.299659 0.553761 0.000000 1.000000 0.000000
-0.478242 -0.370532 -0.585300 0.000000 1.000000 0.000000
-0.066040 -0.464557 0.489548 0.000000 1.000000 0.000000
-0.414419 -0.236290 -0.529346 0.000000 1.000000 0.000000
-0.611314 0.080265 -0.585300 0.000000 1.000000 0.000000
0.421938 0.129182 -0.258216 0.000000 1.000000 0.000000
0.021830 -0.464557 -0.521760 0.000000 1.000000 0.000000
0.525808 -0.230240 -0.585300 0.000000 1.000000 0.000000
0.691876 -0.349197 -0.428123 0.000000 1.000000 0.000000
0.134568 -0.000706 -0.529346 0.000000 1.000000 0.000000
0.691876 0.281313 -0.342662 0.000000 1.000000 0.000000
0.578005 -0.252053 -0.269635 0.000000 1.000000 0.000000
0.578005 -0.375342 -0.123027 0.000000 1.000000 0.000000
-0.173731 -0.300614 -0.529346 0.000000 1.000000 0.000000
0.146810 0.129182 0.400128 0.000000 1.000000 0.000000
-0.479734 -0.404325 -0.257559 0.000000 1.000000 0.000000
0.445669 0.455474 0.112863 0.000000 1.000000 0.000000
-0.364594 -0.464557 0.486001 0.000000 1.000000 0.000000
0.128408 0.197748 0.553761 0.000000 1.000000 0.000000
-0.176799 0.134089 0.537283 1.000000 0.000000 0.000000
0.228876 -0.464557 0.421617 0.000000 1.000000 0.000000
0.104890 0.352315 0.560586 0.000000 0.000000 1.000000
-0.661707 0.072013 -0.031370 0.000000 1.000000 0.000000
0.347928 0.455474 -0.403475 0.000000 1.000000 0.000000
0.331017 0.455474 -0.019058 0.000000 1.000000 0.000000
-0.518767 -0.412488 0.517646 0.000000 1.000000 0.000000
-0.492247 -0.214536 0.553761 1.000000 0.000000 0.000000
-0.661707 -0.066752 0.193459 0.000000 1.000000 0.000000
-0.208073 -0.352954 -0.585300 0.000000 1.000000 0.000000
-0.546259 -0.249142 0.437489 0.000000 1.000000 0.000000
0.617486 -0.394088 -0.585300 0.000000 1.000000 0.000000
-0.378788 0.464219 0.545489 0.000000 1.000000 0.000000
0.288850 -0.404325 0.097863 0.000000 1.000000 0.000000
-0.661707 0.290996 -0.327565 0.000000 1.000000 0.000000
0.363193 -0.464557 -0.519571 0.000000 1.000000 0.000000
-0.621550 -0.316433 0.517646 0.000000 1.000000 0.000000
-0.311549 -0.404325 -0.259866 0.000000 1.000000 0.000000
0.177517 -0.172315 0.556565 0.000000 1.000000 0.000000
0.691876 0.449463 0.453699 0.000000 1.000000 0.000000
-0.128111 0.399444 0.522947 0.000000 1.000000 0.000000
0.239818 -0.464557 -0.214298 0.000000 1.000000 0.000000
-0.270821 -0.464557 -0.235294 0.000000 1.000000 0.000000
-0.021620 0.455474 0.206032 0.000000 1.000000 0.000000
0.020692 -0.404325 -0.002154 0.000000 1.000000 0.000000
-0.546259 -0.145056 -0.032116 0.000000 1.000000 0.000000
-0.661707 -0.300289 -0.080739 0.000000 1.000000 0.000000
-0.292379 0.185688 -0.585300 0.000000 1.000000 0.000000
-0.546259 -0.084831 0.220199 0.000000 1.000000 0.000000
0.377943 -0.404325 0.173968 0.000000 1.000000 0.000000
0.691876 0.067531 -0.059336 0.000000 1.000000 0.000000
0.691876 0.377884 0.057320 0.000000 1.000000 0.000000
0.517824 -0.397150 0.553761 1.000000 0.000000 0.000000
0.613203 0.066711 -0.585300 0.000000 1.000000 0.000000
-0.546259 -0.255307 -0.013850 0.000000 1.000000 0.000000
0.627486 0.169719 -0.585300 0.000000 1.000000 0.000000
0.306491 0.455474 0.455981 0.000000 1.000000 0.000000
0.412634 -0.394126 -0.585300 0.000000 1.000000 0.000000
-0.209067 -0.464557 -0.100460 0.000000 1.000000 0.000000
0.032359 0.279821 -0.585300 0.000000 1.000000 0.000000
0.691876 -0.057527 0.002048 0.000000 1.000000 0.000000
0.504104 -0.123123 -0.529346 0.000000 1.000000 0.000000
0.034258 0.455474 0.393526 0.000000 1.000000 0.000000
0.400278 0.390943 -0.585300 0.000000 1.000000 0.000000
-0.260818 0.455474 -0.410703 0.000000 1.000000 0.000000
-0.156663 -0.206068 -0.585300 0.000000 1.000000 0.000000
0.238418 0.096383 -0.585300 0.000000 1.000000 0.000000
-0.169744 -0.464557 0.117298 0.000000 1.000000 0.000000
-0.087711 -0.464557 -0.060660 0.000000 1.000000 0.000000
0.578005 -0.195490 0.123406 0.000000 1.000000 0.000000
-0.546259 -0.141620 0.494757 0.000000 1.000000 0.000000
0.557052 0.455474 0.493934 0.000000 1.000000 0.000000
0.691876 -0.463935 -0.562485 0.000000 1.000000 0.000000
-0.346025 0.129182 0.171561 0.000000 1.000000 0.000000
-0.594451 0.240705 0.522947 0.000000 1.000000 0.000000
-0.657628 0.018396 0.559535 1.000000 0.000000 0.000000
-0.042029 0.129182 0.202418 0.000000 1.000000 0.000000
-0.084836 -0.404325 0.031520 0.000000 1.000000 0.000000
-0.301124 -0.404325 -0.503204 0.000000 1.000000 0.000000
0.188961 0.455474 0.051198 0.000000 1.000000 0.000000
-0.661707 -0.113393 -0.230911 0.000000 1.000000 0.000000
0.105832 -0.464557 -0.287136 0.000000 1.000000 0.000000
-0.661707 0.066243 0.114690 0.000000 1.000000 0.000000
-0.050820 -0.404325 -0.472058 0.000000 1.000000 0.000000
-0.606250 -0.464557 -0.392247 0.000000 1.000000 0.000000
-0.495018 0.264638 -0.585300 0.000000 1.000000 0.000000
-0.546259 -0.257128 0.071807 0.000000 1.000000 0.000000
-0.071664 0.129182 -0.006381 0.000000 1.000000 0.000000
-0.226933 -0.404325 0.498942 0.000000 1.000000 0.000000
0.578005 -0.256567 -0.023514 0.000000 1.000000 0.000000
-0.508458 -0.054987 -0.529346 0.000000 1.000000 0.000000
0.691876 0.282445 -0.040378 0.000000 1.000000 0.000000
-0.074551 -0.464557 0.173562 0.000000 1.000000 0.000000
-0.661707 -0.300838 0.218217 0.000000 1.000000 0.000000
-0.357420 -0.404325 -0.313769 0.000000 1.000000 0.000000
-0.241007 -0.165862 -0.585300 0.000000 1.000000 0.000000
0.110232 0.327055 -0.585300 0.000000 1.000000 0.000000
-0.182213 -0.404325 -0.426157 0.000000 1.000000 0.000000
0.434383 -0.404325 -0.285393 0.000000 1.000000 0.000000
0.565181 -0.464557 0.220541 0.000000 1.000000 0.000000
0.578005 -0.178835 -0.305646 0.000000 1.000000 0.000000
0.330001 0.020058 0.624188 0.500000 0.500000 0.000000
0.168828 -0.464557 -0.540560 0.000000 1.000000 0.000000
0.578005 0.065187 0.196071 0.000000 1.000000 0.000000
0.430062 -0.464557 -0.414744 0.000000 1.000000 0.000000
-0.484748 -0.404325 0.169138 0.000000 1.000000 0.000000
0.265706 -0.464557 0.204005 0.000000 1.000000 0.000000
-0.592544 0.455474 0.079393 0.000000 1.000000 0.000000
-0.414192 -0.402924 0.559535 1.000000 0.000000 0.000000
0.691876 0.381116 -0.250451 0.000000 1.000000 0.000000
0.578005 -0.276199 -0.412165 0.000000 1.000000 0.000000
0.578005 -0.301709 -0.476817 0.000000 1.000000 0.000000
0.150866 -0.464557 0.394604 0.000000 1.000000 0.000000
0.304178 0.455474 0.051226 0.000000 1.000000 0.000000
0.507076 -0.197677 -0.529346 0.000000 1.000000 0.000000
-0.020531 0.455474 -0.425444 0.000000 1.000000 0.000000
0.249484 0.455474 -0.181754 0.000000 1.000000 0.000000
-0.259830 0.129182 -0.125453 0.000000 1.000000 0.000000
0.248352 0.029777 -0.585300 0.000000 1.000000 0.000000
0.691876 0.199421 -0.024095 0.000000 1.000000 0.000000
0.110143 -0.404325 -0.527081 0.000000 1.000000 0.000000
0.218177 -0.404325 -0.443041 0.000000 1.000000 0.000000
0.691876 -0.031176 -0.221776 0.000000 1.000000 0.000000
-0.661707 0.220151 -0.049684 0.000000 1.000000 0.000000
0.407419 0.135579 -0.585300 0.000000 1.000000 0.000000
-0.506362 0.455474 -0.117210 0.000000 1.000000 0.000000
-0.603410 -0.410559 -0.585300 0.000000 1.000000 0.000000
0.691876 0.382493 0.189710 0.000000 1.000000 0.000000
-0.256931 -0.025447 -0.529346 0.000000 1.000000 0.000000
0.691876 0.301646 0.339340 0.000000 1.000000 0.000000
-0.122387 -0.018548 -0.585300 0.000000 1.000000 0.000000
-0.212445 0.455474 -0.321553 0.000000 1.000000 0.000000
-0.059088 -0.464557 0.339705 0.000000 1.000000 0.000000
-0.543556 -0.404325 -0.415583 0.000000 1.000000 0.000000
-0.248467 -0.404325 -0.090942 0.000000 1.000000 0.000000
0.578005 -0.009927 -0.017546 0.000000 1.000000 0.000000
-0.661707 0.194253 0.388516 0.000000 1.000000 0.000000
0.194130 0.128553 -0.529346 0.000000 1.000000 0.000000
0.691876 -0.212201 0.089882 0.000000 1.000000 0.000000
-0.349122 0.455474 0.318724 0.000000 1.000000 0.000000
-0.227538 -0.404325 0.142832 0.000000 1.000000 0.000000
-0.191320 0.129182 -0.416552 0.000000 1.000000 0.000000
-0.366012 0.455474 0.093330 0.000000 1.000000 0.000000
0.398701 0.029001 0.553761 1.000000 0.000000 0.000000
0.691876 -0.207628 0.327186 0.000000 1.000000 0.000000
0.006594 -0.220755 0.553678 0.000000 1.000000 0.000000
-0.326424 0.129182 -0.232795 0.000000 1.000000 0.000000
0.667572 0.375143 -0.585300 0.000000 1.000000 0.000000
0.025637 -0.464557 -0.318013 0.000000 1.000000 0.000000
-0.147879 -0.464557 0.505899 0.000000 1.000000 0.000000
0.426274 0.127709 0.559535 1.000000 0.000000 0.000000
-0.094529 0.166911 0.559535 0.000000 1.000000 0.000000
-0.504378 -0.404325 0.276895 0.000000 1.000000 0.000000
0.300847 -0.191887 -0.585300 0.000000 1.000000 0.000000
-0.661707 -0.307110 0.292408 0.000000 1.000000 0.000000
0.157582 -0.464557 -0.334080 0.000000 1.000000 0.000000
0.248770 0.129182 0.215418 0.000000 1.000000 0.000000
0.211763 -0.404325 0.506475 0.000000 1.000000 0.000000
0.369460 -0.464557 -0.283563 0.000000 1.000000 0.000000
0.075484 0.455474 -0.183071 0.000000 1.000000 0.000000
-0.154111 0.046014 0.559535 1.000000 0.000000 0.000000
-0.306856 0.455474 -0.123667 0.000000 1.000000 0.000000
0.691876 0.253503 -0.163468 0.000000 1.000000 0.000000
0.096589 0.391988 -0.585300 0.000000 1.000000 0.000000
-0.543755 0.129182 -0.281433 0.000000 1.000000 0.000000
0.530466 0.366795 -0.585300 0.000000 1.000000 0.000000
-0.232158 0.455474 -0.019199 0.000000 1.000000 0.000000
0.546404 0.415763 0.559535 0.000000 1.000000 0.000000
0.578005 -0.315381 0.338049 0.000000 1.000000 0.000000
-0.287980 -0.404325 0.220012 0.000000 1.000000 0.000000
0.606447 0.069933 0.553761 1.000000 0.000000 0.000000
-0.095554 0.129182 -0.366722 0.000000 1.000000 0.000000
0.310038 -0.404325 -0.231779 0.000000 1.000000 0.000000
-0.280767 0.455474 0.205171 0.000000 1.000000 0.000000
-0.296267 0.129182 0.376930 0.000000 1.000000 0.000000
0.109577 -0.404325 -0.350998 0.000000 1.000000 0.000000
0.412415 -0.404325 0.009231 0.000000 1.000000 0.000000
-0.546259 -0.119911 0.385107 0.000000 1.000000 0.000000
-0.617551 -0.436990 0.522947 1.000000 0.000000 0.000000
-0.576077 -0.464557 0.212833 0.000000 1.000000 0.000000
-0.658018 -0.464557 -0.264723 0.000000 1.000000 0.000000
0.578005 -0.251752 0.365983 0.000000 1.000000 0.000000
-0.414177 0.165013 0.523238 0.000000 1.000000 0.000000
0.256060 0.455474 -0.298044 0.000000 1.000000 0.000000
-0.091281 -0.370070 -0.585300 0.000000 1.000000 0.000000
0.295940 -0.404325 0.393375 0.000000 1.000000 0.000000
0.578005 -0.309551 0.182495 0.000000 1.000000 0.000000
0.158813 -0.404325 0.346529 0.000000 1.000000 0.000000
0.584777 -0.464557 -0.249873 0.000000 1.000000 0.000000
-0.437178 -0.404325 0.337381 0.000000 1.000000 0.000000
-0.546259 -0.289358 -0.226446 0.000000 1.000000 0.000000
-0.141199 -0.363480 -0.529346 0.000000 1.000000 0.000000
0.425499 -0.297352 -0.529346 0.000000 1.000000 0.000000
0.697615 -0.312311 0.498378 0.000000 1.000000 0.000000
0.286813 0.129182 -0.380809 0.000000 1.000000 0.000000
-0.546259 -0.263105 0.147579 0.000000 1.000000 0.000000
-0.546259 -0.129204 0.041115 0.000000 1.000000 0.000000
0.578005 -0.123444 -0.211850 0.000000 1.000000 0.000000
-0.256857 0.347416 -0.585300 0.000000 1.000000 0.000000
-0.141732 -0.372817 0.559535 1.000000 0.000000 0.000000
-0.139024 0.464219 0.524518 0.000000 1.000000 0.000000
-0.055327 -0.179532 0.553678 0.000000 1.000000 0.000000
-0.263022 0.262363 0.517646 0.000000 1.000000 0.000000
0.418454 -0.404325 0.487740 0.000000 1.000000 0.000000
-0.639859 -0.464557 -0.157824 0.000000 1.000000 0.000000
-0.306497 -0.464557 -0.572263 0.000000 1.000000 0.000000
-0.592357 0.455474 0.011701 0.000000 1.000000 0.000000
-0.187565 0.129182 0.194396 0.000000 1.000000 0.000000
-0.661707 0.186301 -0.369104 0.000000 1.000000 0.000000
0.691876 0.129359 -0.343545 0.000000 1.000000 0.000000
-0.180220 -0.404325 -0.288184 0.000000 1.000000 0.000000
-0.448323 -0.404325 -0.337927 0.000000 1.000000 0.000000
-0.546259 -0.346057 -0.356782 0.000000 1.000000 0.000000
-0.661707 0.303401 -0.056591 0.000000 1.000000 0.000000
0.135715 -0.464557 -0.408622 0.000000 1.000000 0.000000
-0.041259 -0.270658 -0.529346 0.000000 1.000000 0.000000
0.100381 0.049818 0.559535 1.000000 0.000000 0.000000
0.363661 0.455474 -0.302480 0.000000 1.000000 0.000000
0.520375 -0.464557 0.143256 0.000000 1.000000 0.000000
-0.474664 -0.404325 -0.063134 0.000000 1.000000 0.000000
-0.340244 -0.464557 -0.430540 0.000000 1.000000 0.000000
-0.531439 0.042159 0.557791 0.500000 0.500000 0.000000
-0.511020 0.349034 0.559535 0.000000 1.000000 0.000000
-0.020873 -0.404325 0.173697 0.000000 1.000000 0.000000
0.691876 -0.063238 0.161725 0.000000 1.000000 0.000000
-0.360667 -0.464557 -0.342877 0.000000 1.000000 0.000000
-0.662733 0.394763 0.559535 0.000000 1.000000 0.000000
-0.297583 -0.404325 -0.436694 0.000000 1.000000 0.000000
-0.252906 0.442911 0.517646 0.000000 1.000000 0.000000
-0.423566 -0.322225 0.559535 1.000000 0.000000 0.000000
-0.399293 -0.404325 -0.197439 0.000000 1.000000 0.000000
0.300690 0.129182 0.109106 0.000000 1.000000 0.000000
-0.661707 -0.368955 -0.436000 0.000000 1.000000 0.000000
0.151299 -0.404325 0.023594 0.000000 1.000000 0.000000
0.315849 0.282523 -0.585300 0.000000 1.000000 0.000000
-0.503379 0.455474 -0.541052 0.000000 1.000000 0.000000
-0.503598 0.129182 -0.054335 0.000000 1.000000 0.000000
-0.175210 -0.464557 -0.544934 0.000000 1.000000 0.000000
-0.037202 -0.112365 -0.585300 0.000000 1.000000 0.000000
0.022886 -0.039620 -0.585300 0.000000 1.000000 0.000000
0.142116 0.201187 -0.585300 0.000000 1.000000 0.000000
-0.546259 -0.396861 -0.142101 0.000000 1.000000 0.000000
-0.661707 0.418927 -0.122848 0.000000 1.000000 0.000000
0.578005 -0.017158 -0.335237 0.000000 1.000000 0.000000
-0.361678 0.129182 0.410271 0.000000 1.000000 0.000000
-0.604049 0.377947 -0.585300 0.000000 1.000000 0.000000
-0.661707 0.333419 -0.243219 0.000000 1.000000 0.000000
-0.062644 -0.205719 -0.529346 0.000000 1.000000 0.000000
0.535082 -0.404325 -0.424016 0.000000 1.000000 0.000000
0.326765 -0.464557 0.179513 0.000000 1.000000 0.000000
-0.231262 -0.262095 -0.529346 0.000000 1.000000 0.000000
-0.661707 0.080391 -0.414046 0.000000 1.000000 0.000000
-0.661707 -0.233734 0.329498 0.000000 1.000000 0.000000
-0.436394 -0.403674 -0.529346 0.000000 1.000000 0.000000
0.359412 -0.404325 -0.366841 0.000000 1.000000 0.000000
-0.462259 0.052049 0.553761 1.000000 0.000000 0.000000
-0.201789 -0.404325 -0.350687 0.000000 1.000000 0.000000
0.691876 -0.089337 -0.405746 0.000000 1.000000 0.000000
0.280301 -0.404325 -0.304417 0.000000 1.000000 0.000000
-0.088067 -0.273346 -0.585300 0.000000 1.000000 0.000000
0.120998 0.129182 -0.207123 0.000000 1.000000 0.000000
-0.546259 0.074060 -0.230738 0.000000 1.000000 0.000000
-0.068442 -0.404325 -0.318066 0.000000 1.000000 0.000000
-0.173453 -0.139354 0.553678 0.000000 1.000000 0.000000
-0.546259 0.050666 -0.441253 0.000000 1.000000 0.000000
0.691876 0.316269 0.028961 0.000000 1.000000 0.000000
0.578005 -0.401250 0.488726 0.000000 1.000000 0.000000
0.691876 -0.239758 -0.348560 0.000000 1.000000 0.000000
-0.148830 -0.464557 -0.311534 0.000000 1.000000 0.000000
0.691876 0.167734 -0.478661 0.000000 1.000000 0.000000
0.637626 0.361691 0.517646 0.000000 1.000000 0.000000
0.700943 0.120943 0.475011 0.000000 1.000000 0.000000
0.279641 0.078121 0.559535 1.000000 0.000000 0.000000
-0.546259 0.114665 0.415432 0.000000 1.000000 0.000000
0.029280 0.129182 -0.507454 0.000000 1.000000 0.000000
-0.612664 -0.464557 0.101752 0.000000 1.000000 0.000000
-0.661707 -0.414519 0.416686 0.000000 1.000000 0.000000
0.691876 -0.163599 -0.071616 0.000000 1.000000 0.000000
0.691876 0.422243 0.321099 0.000000 1.000000 0.000000
-0.134634 0.384533 -0.585300 0.000000 1.000000 0.000000
0.632310 -0.464557 -0.189303 0.000000 1.000000 0.000000
0.175002 0.348332 0.560586 0.000000 0.000000 1.000000
0.017945 0.455474 -0.246931 0.000000 1.000000 0.000000
-0.554380 0.322205 -0.585300 0.000000 1.000000 0.000000
-0.024214 0.462133 0.559535 0.000000 1.000000 0.000000
-0.546259 -0.218197 0.286152 0.000000 1.000000 0.000000
-0.143248 -0.464557 0.365007 0.000000 1.000000 0.000000
0.569574 0.295352 -0.585300 0.000000 1.000000 0.000000
-0.546259 -0.162027 -0.429946 0.000000 1.000000 0.000000
-0.109939 -0.404325 -0.267050 0.000000 1.000000 0.000000
0.437344 -0.464557 0.389375 0.000000 1.000000 0.000000
0.287878 0.129182 -0.050373 0.000000 1.000000 0.000000
-0.309164 0.455474 -0.552554 0.000000 1.000000 0.000000
0.691876 -0.386457 0.389720 0.000000 1.000000 0.000000
-0.473757 0.129182 0.065820 0.000000 1.000000 0.000000
-0.370854 0.455474 -0.114631 0.000000 1.000000 0.000000
0.691876 0.197587 0.380600 0.000000 1.000000 0.000000
0.241111 0.129182 -0.138096 0.000000 1.000000 0.000000
0.125090 0.455474 0.155391 0.000000 1.000000 0.000000
-0.661707 0.409001 -0.047979 0.000000 1.000000 0.000000
-0.321775 0.129182 -0.401573 0.000000 1.000000 0.000000
-0.589419 0.455474 0.298207 0.000000 1.000000 0.000000
-0.541757 -0.126262 0.556565 0.000000 1.000000 0.000000
-0.555243 0.373075 0.517646 0.000000 1.000000 0.000000
0.578005 0.120141 0.479601 0.000000 1.000000 0.000000
0.052684 0.129182 -0.197948 0.000000 1.000000 0.000000
-0.261550 -0.387702 -0.585300 0.000000 1.000000 0.000000
-0.177879 -0.404325 -0.215434 0.000000 1.000000 0.000000
-0.546259 -0.041192 -0.451391 0.000000 1.000000 0.000000
0.679207 -0.189875 -0.585300 0.000000 1.000000 0.000000
0.691876 -0.218603 -0.004434 0.000000 1.000000 0.000000
0.691876 0.298863 -0.464275 0.000000 1.000000 0.000000
-0.103813 -0.464557 0.232811 0.000000 1.000000 0.000000
-0.661707 -0.027551 -0.534578 0.000000 1.000000 0.000000
0.129380 -0.275532 0.556565 0.000000 1.000000 0.000000
0.578005 0.104593 -0.017962 0.000000 1.000000 0.000000
0.162745 -0.464557 -0.116326 0.000000 1.000000 0.000000
0.292203 -0.128839 -0.585300 0.000000 1.000000 0.000000
0.222634 0.455474 -0.413329 0.000000 1.000000 0.000000
0.522144 0.129182 0.364521 0.000000 1.000000 0.000000
0.389160 -0.158808 0.553678 0.000000 1.000000 0.000000
-0.131562 0.021934 0.631878 0.500000 0.500000 0.000000
-0.531557 -0.464557 -0.212247 0.000000 1.000000 0.000000
-0.182215 0.445610 -0.585300 0.000000 1.000000 0.000000
0.691876 -0.241358 -0.483367 0.000000 1.000000 0.000000
0.691876 -0.247521 -0.160135 0.000000 1.000000 0.000000
-0.661707 0.167821 -0.229450 0.000000 1.000000 0.000000
0.047567 -0.464557 -0.431064 0.000000 1.000000 0.000000
0.075473 -0.401303 -0.585300 0.000000 1.000000 0.000000
-0.343856 0.097135 0.559535 1.000000 0.000000 0.000000
-0.059721 -0.464557 -0.189747 0.000000 1.000000 0.000000
-0.080966 0.059250 -0.529346 0.000000 1.000000 0.000000
0.259479 -0.404325 -0.099263 0.000000 1.000000 0.000000
0.649165 -0.213741 0.517646 0.000000 1.000000 0.000000
-0.546259 -0.004806 0.007307 0.000000 1.000000 0.000000
-0.589305 0.455474 -0.441268 0.000000 1.000000 0.000000
-0.661707 0.107927 0.039397 0.000000 1.000000 0.000000
-0.484281 0.226602 0.517646 0.000000 1.000000 0.000000
0.345559 0.129182 -0.076198 0.000000 1.000000 0.000000
0.258876 0.129182 0.436762 0.000000 1.000000 0.000000
-0.455556 -0.464557 -0.490025 0.000000 1.000000 0.000000
-0.661707 0.277648 0.368055 0.000000 1.000000 0.000000
0.487331 0.028036 -0.585300 0.000000 1.000000 0.000000
0.453228 -0.404325 -0.117470 0.000000 1.000000 0.000000
0.691876 -0.209798 -0.409419 0.000000 1.000000 0.000000
0.691876 0.030929 0.089874 0.000000 1.000000 0.000000
0.440739 0.415152 0.550874 0.000000 1.000000 0.000000
0.148907 -0.394092 -0.585300 0.000000 1.000000 0.000000
-0.486605 -0.464557 -0.333703 0.000000 1.000000 0.000000
-0.509668 0.159599 0.517646 0.000000 1.000000 0.000000
0.305913 0.129182 0.331299 0.000000 1.000000 0.000000
-0.338365 0.061034 -0.585300 0.000000 1.000000 0.000000
0.323386 0.156302 0.549610 0.000000 1.000000 0.000000
0.492320 0.455474 -0.450436 0.000000 1.000000 0.000000
0.334372 -0.464557 -0.131507 0.000000 1.000000 0.000000
0.152164 -0.056426 -0.585300 0.000000 1.000000 0.000000
-0.236634 0.455474 -0.468811 0.000000 1.000000 0.000000
-0.667026 -0.178547 0.454430 0.000000 1.000000 0.000000
0.203743 -0.464557 0.050926 0.000000 1.000000 0.000000
-0.468804 0.455474 -0.478746 0.000000 1.000000 0.000000
-0.661707 0.165946 -0.100812 0.000000 1.000000 0.000000
-0.661707 0.205276 0.249161 0.000000 1.000000 0.000000
-0.661707 0.194627 0.125585 0.000000 1.000000 0.000000
-0.546259 -0.255038 -0.139889 0.000000 1.000000 0.000000
-0.421049 -0.464557 -0.276130 0.000000 1.000000 0.000000
-0.335285 -0.464557 0.154234 0.000000 1.000000 0.000000
-0.661707 -0.075990 -0.433679 0.000000 1.000000 0.000000
-0.661707 -0.023089 -0.383243 0.000000 1.000000 0.000000
0.691876 0.116013 0.265354 0.000000 1.000000 0.000000
0.694715 -0.194925 0.446434 0.000000 1.000000 0.000000
0.578005 -0.269923 0.471017 0.000000 1.000000 0.000000
0.575498 0.455474 0.279703 0.000000 1.000000 0.000000
-0.188590 0.129182 -0.161686 0.000000 1.000000 0.000000
-0.193631 0.388280 0.522947 0.000000 1.000000 0.000000
0.516060 0.037526 0.557791 0.500000 0.500000 0.000000
-0.258146 0.455474 0.133980 0.000000 1.000000 0.000000
-0.372259 0.455474 -0.487601 0.000000 1.000000 0.000000
0.170747 -0.202282 -0.585300 0.000000 1.000000 0.000000
-0.465704 0.129182 0.236113 0.000000 1.000000 0.000000
-0.178606 -0.464557 0.030661 0.000000 1.000000 0.000000
0.691876 0.428460 -0.308413 0.000000 1.000000 0.000000
0.382695 -0.370714 0.556565 0.000000 1.000000 0.000000
0.178502 0.129182 -0.123036 0.000000 1.000000 0.000000
0.355519 -0.404325 0.411388 0.000000 1.000000 0.000000
0.572937 -0.404325 0.062989 0.000000 1.000000 0.000000
0.600472 -0.092938 0.559535 1.000000 0.000000 0.000000
-0.261596 -0.404325 -0.024151 0.000000 1.000000 0.000000
-0.364267 -0.371791 -0.529346 0.000000 1.000000 0.000000
0.190059 0.129182 -0.247061 0.000000 1.000000 0.000000
0.655794 -0.040447 0.559535 1.000000 0.000000 0.000000
0.257273 -0.282792 0.556565 0.000000 1.000000 0.000000
0.283965 0.129182 -0.290805 0.000000 1.000000 0.000000
0.386890 -0.464557 -0.178369 0.000000 1.000000 0.000000
0.069701 0.405919 0.517646 0.000000 1.000000 0.000000
-0.546259 -0.147047 -0.170973 0.000000 1.000000 0.000000
-0.607647 -0.336806 -0.585300 0.000000 1.000000 0.000000
0.427168 0.129182 0.280893 0.000000 1.000000 0.000000
0.378357 -0.464557 0.040666 0.000000 1.000000 0.000000
0.569001 -0.031638 -0.529346 0.000000 1.000000 0.000000
-0.424629 0.455474 0.278678 0.000000 1.000000 0.000000
0.037471 -0.404325 0.485887 0.000000 1.000000 0.000000
0.578005 -0.308740 -0.345587 0.000000 1.000000 0.000000
-0.344150 0.301187 -0.585300 0.000000 1.000000 0.000000
0.666769 -0.388153 0.517646 0.000000 1.000000 0.000000
-0.058618 -0.405479 0.517646 0.000000 1.000000 0.000000
0.383828 -0.041615 -0.585300 0.000000 1.000000 0.000000
0.373533 -0.220564 0.553678 0.000000 1.000000 0.000000
0.691876 0.078224 0.022156 0.000000 1.000000 0.000000
-0.546259 0.094297 0.284496 0.000000 1.000000 0.000000
0.304439 -0.404325 -0.482367 0.000000 1.000000 0.000000
0.691876 -0.406152 0.166497 0.000000 1.000000 0.000000
-0.138766 0.178503 0.517646 0.000000 1.000000 0.000000
0.425736 -0.464557 0.262901 0.000000 1.000000 0.000000
0.514727 0.362804 0.559535 0.000000 1.000000 0.000000
-0.141746 -0.464557 -0.090277 0.000000 1.000000 0.000000
0.423891 0.277859 -0.585300 0.000000 1.000000 0.000000
0.503573 -0.404325 0.400761 0.000000 1.000000 0.000000
-0.253060 -0.464557 -0.417264 0.000000 1.000000 0.000000
-0.437170 0.129182 -0.377355 0.000000 1.000000 0.000000
-0.546259 0.107931 -0.343240 0.000000 1.000000 0.000000
-0.546259 0.078502 0.094568 0.000000 1.000000 0.000000
-0.661707 0.055484 -0.283315 0.000000 1.000000 0.000000
0.700943 0.315178 0.493007 0.000000 1.000000 0.000000
0.273392 0.455474 -0.513235 0.000000 1.000000 0.000000
0.418417 -0.272878 -0.585300 0.000000 1.000000 0.000000
0.419365 -0.404325 -0.487093 0.000000 1.000000 0.000000
0.082319 -0.404325 0.252223 0.000000 1.000000 0.000000
-0.493271 0.455474 0.115974 0.000000 1.000000 0.000000
0.539500 -0.404325 0.308840 0.000000 1.000000 0.000000
-0.661707 0.330332 0.430928 0.000000 1.000000 0.000000
-0.546259 0.005723 -0.325215 0.000000 1.000000 0.000000
0.179238 -0.464557 0.261865 0.000000 1.000000 0.000000
0.691876 -0.091819 0.314477 0.000000 1.000000 0.000000
-0.000818 -0.362646 -0.585300 0.000000 1.000000 0.000000
-0.264417 -0.034946 0.556565 0.000000 1.000000 0.000000
0.060891 0.455474 0.150000 0.000000 1.000000 0.000000
0.231697 0.348243 -0.585300 0.000000 1.000000 0.000000
-0.661707 0.083489 0.280901 0.000000 1.000000 0.000000
0.039595 0.137295 0.559535 1.000000 0.000000 0.000000
0.096415 0.455474 0.381987 0.000000 1.000000 0.000000
-0.114682 0.455474 -0.215474 0.000000 1.000000 0.000000
0.691876 -0.407410 -0.294127 0.000000 1.000000 0.000000
0.530905 -0.464557 -0.070091 0.000000 1.000000 0.000000
-0.664187 0.077574 0.455315 0.000000 1.000000 0.000000
-0.015264 0.216032 -0.585300 0.000000 1.000000 0.000000
-0.476601 -0.192387 -0.529346 0.000000 1.000000 0.000000
0.691876 -0.284627 0.127651 0.000000 1.000000 0.000000
-0.412637 0.129182 -0.079727 0.000000 1.000000 0.000000
-0.613200 0.104804 0.553761 1.000000 0.000000 0.000000
-0.513971 0.061009 -0.529346 0.000000 1.000000 0.000000
-0.129810 -0.404325 0.200154 0.000000 1.000000 0.000000
0.082540 -0.464557 0.344448 0.000000 1.000000 0.000000
0.482732 -0.162152 0.553678 0.000000 1.000000 0.000000
0.542287 0.455474 0.356029 0.000000 1.000000 0.000000
0.691876 -0.292713 -0.071795 0.000000 1.000000 0.000000
-0.217868 0.129182 0.488330 0.000000 1.000000 0.000000
-0.337879 -0.269829 0.553678 0.000000 1.000000 0.000000
-0.234929 -0.404325 -0.459211 0.000000 1.000000 0.000000
0.487874 -0.323560 -0.529346 0.000000 1.000000 0.000000
0.198821 0.455474 -0.049947 0.000000 1.000000 0.000000
0.054117 -0.157120 -0.529346 0.000000 1.000000 0.000000
0.212163 -0.464557 0.497027 0.000000 1.000000 0.000000
-0.427793 0.127444 -0.529346 0.000000 1.000000 0.000000
0.392792 0.129182 -0.363079 0.000000 1.000000 0.000000
0.696160 -0.199777 0.559535 1.000000 0.000000 0.000000
0.578005 -0.092173 -0.435903 0.000000 1.000000 0.000000
-0.414817 -0.464557 0.260904 0.000000 1.000000 0.000000
-0.277305 -0.404325 0.101623 0.000000 1.000000 0.000000
-0.380728 0.455474 0.156988 0.000000 1.000000 0.000000
-0.456659 0.129182 -0.252707 0.000000 1.000000 0.000000
-0.516502 0.472864 0.545689 0.000000 1.000000 0.000000
-0.661707 -0.425671 0.205219 0.000000 1.000000 0.000000
0.132206 0.027049 -0.585300 0.000000 1.000000 0.000000
-0.535394 0.071828 -0.585300 0.000000 1.000000 0.000000
0.333299 0.426937 -0.585300 0.000000 1.000000 0.000000
-0.546259 -0.265541 -0.423892 0.000000 1.000000 0.000000
0.084509 -0.464557 0.003714 0.000000 1.000000 0.000000
-0.030454 -0.464557 -0.025938 0.000000 1.000000 0.000000
-0.546259 0.125516 0.179434 0.000000 1.000000 0.000000
0.090560 -0.082109 -0.585300 0.000000 1.000000 0.000000
0.691876 0.008796 -0.118829 0.000000 1.000000 0.000000
0.683635 0.261207 0.559535 0.000000 1.000000 0.000000
-0.673254 -0.092886 0.519904 0.000000 1.000000 0.000000
0.511856 -0.464557 0.465864 0.000000 1.000000 0.000000
0.332516 0.129182 0.042372 0.000000 1.000000 0.000000
-0.578313 0.455474 -0.539368 0.000000 1.000000 0.000000
0.487647 0.306013 0.550874 0.000000 1.000000 0.000000
-0.007645 0.455474 -0.187226 0.000000 1.000000 0.000000
-0.234520 0.129182 0.107316 0.000000 1.000000 0.000000
0.691876 0.012897 0.315547 0.000000 1.000000 0.000000
-0.553171 -0.021451 0.559535 1.000000 0.000000 0.000000
0.037790 -0.463673 0.557690 1.000000 0.000000 0.000000
-0.661707 0.414450 0.142722 0.000000 1.000000 0.000000
-0.091962 0.455474 0.282373 0.000000 1.000000 0.000000
-0.394790 -0.138998 -0.585300 0.000000 1.000000 0.000000
0.157629 -0.404325 0.480231 0.000000 1.000000 0.000000
0.251541 -0.398972 0.559535 1.000000 0.000000 0.000000
-0.234780 0.455474 0.378826 0.000000 1.000000 0.000000
-0.244570 -0.404325 0.435493 0.000000 1.000000 0.000000
-0.661707 -0.067331 0.428131 0.000000 1.000000 0.000000
0.550206 0.091096 0.553761 1.000000 0.000000 0.000000
-0.313774 0.129132 -0.529346 0.000000 1.000000 0.000000
-0.044236 -0.133036 -0.529346 0.000000 1.000000 0.000000
0.367644 -0.404325 0.253119 0.000000 1.000000 0.000000
-0.116325 -0.067635 0.553678 0.000000 1.000000 0.000000
-0.502385 -0.359740 -0.529346 0.000000 1.000000 0.000000
0.691876 0.079573 -0.215332 0.000000 1.000000 0.000000
-0.649663 0.455474 -0.241350 0.000000 1.000000 0.000000
