ply
format ascii 1.0
element vertex 1236
property float x
property float y
property float z
property uchar red
property uchar green
property uchar blue
end_header
-0.345883 0.026331 -0.266544 127 0 127
-0.398717 0.184541 -0.300649 127 0 127
-0.172989 0.529678 -0.397404 127 127 0
0.151351 -0.214827 0.345408 0 127 127
-0.383738 0.371141 -0.352345 127 127 0
0.325925 -0.214199 0.052806 127 127 0
0.410076 -0.236564 0.706333 0 127 127
0.339741 -0.074185 -0.239832 127 0 127
0.545029 -0.236364 0.232502 0 127 127
0.106521 0.617499 -0.423943 127 127 0
0.241887 -0.214963 0.656759 0 127 127
-0.294403 -0.218437 0.111986 127 127 0
0.380796 0.561646 -0.407739 127 127 0
-0.524675 -0.209022 0.245735 127 127 0
-0.275694 -0.120382 -0.212050 127 0 127
0.517185 -0.236564 0.211683 0 127 127
0.414266 -0.167724 -0.212657 127 0 127
-0.354437 0.048452 -0.258642 127 127 0
-0.349116 0.483770 -0.387569 127 0 127
-0.361490 0.654250 -0.441728 127 0 127
-0.437499 0.220025 -0.315574 127 0 127
0.508588 0.045648 -0.257781 127 0 127
0.216450 -0.236564 0.077968 0 127 127
0.059760 -0.213869 0.689821 153 76 0
-0.224300 -0.209313 0.124996 127 127 0
-0.079721 0.305044 -0.333140 127 127 0
0.240204 -0.236564 0.541661 0 127 127
-0.195247 0.132492 -0.285471 127 0 127
0.072467 0.673299 -0.447261 127 0 127
0.545355 -0.160730 -0.214689 127 0 127
0.159490 -0.236564 0.635535 0 127 127
0.434876 -0.214827 0.654889 0 127 127
-0.533151 0.190461 -0.306985 127 0 127
-0.533283 0.257306 -0.318990 127 0 127
-0.215937 -0.060798 -0.226911 127 127 0
0.464394 0.123988 -0.289713 127 0 127
-0.064188 -0.209022 0.016018 127 127 0
0.351961 -0.214827 0.215022 0 127 127
0.101729 -0.236564 0.524292 0 127 127
0.283326 -0.209022 0.237823 127 127 0
0.371509 -0.214890 0.124046 127 127 0
0.551098 -0.221938 0.469131 76 0 153
-0.414076 -0.209022 -0.056965 127 127 0
-0.115956 -0.236564 0.156749 0 127 127
-0.360574 -0.215542 0.664354 0 127 127
-0.377954 0.084293 -0.280584 127 0 127
-0.026717 -0.236564 0.503765 0 127 127
-0.447802 -0.208536 -0.103433 0 127 127
0.420610 0.050691 -0.272552 127 0 127
0.267151 0.502913 -0.397760 127 0 127
0.145837 -0.217526 -0.035639 127 127 0
0.299168 0.436717 -0.373914 127 0 127
-0.132960 -0.147646 -0.201077 127 0 127
0.292628 0.288985 -0.335609 127 0 127
-0.402024 -0.197268 -0.204074 127 0 127
0.417826 -0.214827 0.416130 0 127 127
-0.463858 -0.218297 0.183412 127 127 0
0.374815 0.584222 -0.421383 127 0 127
-0.422227 -0.213801 0.164219 127 127 0
0.317618 0.588930 -0.422750 127 0 127
0.300690 -0.236564 0.419537 0 127 127
-0.471518 -0.051179 -0.246388 127 0 127
0.455637 0.134530 -0.292037 127 0 127
0.301360 -0.236564 0.032260 0 127 127
0.088259 -0.218239 0.270482 127 127 0
0.400543 0.551391 -0.411845 127 0 127
-0.020352 0.708260 -0.449320 127 0 127
-0.400581 -0.214109 0.551960 0 127 127
-0.234292 0.375601 -0.360773 127 0 127
0.475691 -0.214827 0.335286 0 127 127
0.108785 -0.202561 -0.202536 127 0 127
-0.542299 -0.214993 0.017708 0 127 127
-0.131471 -0.209022 0.313067 127 127 0
0.537286 0.008190 -0.249351 127 0 127
0.537416 0.422863 -0.374504 127 0 127
-0.262817 -0.214827 0.647680 0 127 127
0.326472 -0.214827 0.461739 0 127 127
0.180114 -0.209716 0.258034 127 127 0
0.331369 -0.209022 0.213728 127 127 0
-0.501034 -0.209022 0.064258 127 127 0
-0.392568 0.333648 -0.341470 127 127 0
0.024386 0.299457 -0.339150 127 0 127
-0.277044 -0.141784 -0.220193 127 0 127
0.336663 0.127206 -0.290423 127 0 127
0.363076 -0.209022 -0.064370 127 127 0
-0.505435 -0.236678 0.695484 0 127 127
0.059234 0.000696 -0.247180 127 0 127
0.072678 0.648168 -0.435348 127 0 127
-0.161905 -0.236564 0.074355 0 127 127
-0.263472 -0.214827 0.136975 0 127 127
0.504096 -0.236564 0.339137 0 127 127
-0.126691 0.567899 -0.412017 127 0 127
-0.528098 -0.216229 0.341721 127 127 0
0.158938 0.256276 -0.321477 127 0 127
0.456854 -0.236564 -0.050334 0 127 127
-0.450306 -0.236564 0.014044 0 127 127
-0.072305 -0.095354 -0.216867 127 127 0
-0.420815 0.694103 -0.453306 127 0 127
-0.501759 -0.209022 0.144663 127 127 0
0.166561 0.709826 -0.449712 127 0 127
-0.523480 0.367913 -0.358540 127 0 127
0.190065 0.512378 -0.400510 127 0 127
0.020109 -0.214827 -0.066810 0 127 127
-0.007271 -0.236564 -0.115706 0 127 127
0.127176 -0.236564 -0.077606 0 127 127
0.552115 -0.227919 0.518318 0 127 127
-0.061393 0.320039 -0.336848 127 127 0
0.511015 -0.095995 -0.233496 127 0 127
0.061645 -0.216046 0.270482 127 127 0
0.047070 0.019196 -0.264755 127 0 127
0.171192 0.281230 -0.328705 127 0 127
-0.183563 -0.215263 0.728185 0 127 127
0.208121 -0.236564 0.475713 0 127 127
0.279692 0.452942 -0.383242 127 0 127
-0.081269 0.650803 -0.432558 127 127 0
-0.447507 0.423548 -0.374703 127 0 127
-0.099233 0.528712 -0.397128 127 127 0
0.234147 -0.236564 -0.070317 0 127 127
0.398318 -0.214827 0.495530 0 127 127
-0.077423 -0.236564 -0.158567 0 127 127
-0.334708 -0.194123 -0.204987 127 0 127
0.494980 0.567837 -0.416622 127 0 127
-0.444387 0.597606 -0.418027 127 127 0
0.299541 -0.210402 -0.071566 127 127 0
-0.335138 0.015921 -0.251639 127 0 127
-0.206974 0.042610 -0.270587 127 0 127
-0.068463 0.380496 -0.362715 127 0 127
0.171523 -0.210450 0.108338 127 127 0
-0.493888 0.447522 -0.381668 127 0 127
0.519971 0.684905 -0.450634 127 0 127
-0.157251 -0.205583 -0.186563 127 0 127
-0.031504 -0.236564 0.750087 0 127 127
-0.150247 0.680909 -0.441353 127 127 0
-0.379349 -0.236564 0.385910 0 127 127
-0.507634 0.671088 -0.441948 127 0 127
0.114482 0.681147 -0.442044 127 127 0
0.303408 0.038041 -0.269477 127 0 127
0.519952 -0.209022 0.026659 127 127 0
-0.461544 -0.236564 0.328891 0 127 127
-0.135390 0.448814 -0.373890 127 127 0
0.142349 -0.115970 -0.227692 127 0 127
0.366466 -0.233666 0.780134 0 127 127
0.310178 0.482935 -0.384872 127 127 0
-0.269522 0.213752 -0.306645 127 127 0
-0.502722 0.037484 -0.269340 127 0 127
-0.500769 0.491523 -0.394451 127 0 127
0.065771 -0.209022 0.209008 127 127 0
-0.067384 0.141535 -0.293581 127 0 127
0.353862 0.483083 -0.391999 127 0 127
-0.434733 0.362930 -0.349984 127 127 0
0.057873 -0.214827 0.344190 0 127 127
0.253249 -0.236564 0.277084 0 127 127
0.014784 -0.236564 0.591218 0 127 127
-0.303726 -0.214827 0.311312 0 127 127
-0.384853 0.098024 -0.283796 127 0 127
-0.090599 -0.209022 0.209204 127 127 0
0.130052 0.398832 -0.362893 127 0 127
0.201170 -0.214827 0.320499 0 127 127
0.253193 -0.150600 -0.199771 127 0 127
-0.311510 -0.215114 0.052806 127 127 0
-0.357627 -0.214827 0.079041 0 127 127
0.158215 -0.143010 -0.205486 127 0 127
0.301690 -0.209022 -0.009318 127 127 0
-0.029068 -0.209022 0.293541 127 127 0
-0.259393 -0.236564 0.430972 0 127 127
-0.219733 -0.214827 0.418759 0 127 127
-0.097620 -0.215039 0.621609 0 127 127
0.436676 -0.210469 0.018509 127 127 0
-0.350523 -0.210490 -0.165730 0 127 127
-0.232396 -0.236564 0.688474 0 127 127
-0.237480 0.391596 -0.360776 127 0 127
0.024153 0.513688 -0.393813 127 127 0
-0.064161 -0.042373 -0.248753 127 0 127
-0.030175 -0.214152 0.258513 127 127 0
0.164238 -0.209022 0.170655 127 127 0
0.322590 -0.026848 -0.235675 127 127 0
0.327929 -0.208079 -0.190641 127 0 127
0.499878 -0.209022 0.143223 127 127 0
0.158850 -0.214880 0.054516 127 127 0
-0.520194 0.619093 -0.424398 127 127 0
0.246255 -0.236564 0.161496 0 127 127
-0.078692 0.470461 -0.388332 127 0 127
0.410283 -0.214827 -0.112742 0 127 127
0.000173 -0.088810 -0.235583 127 0 127
0.270095 -0.068691 -0.227063 127 0 127
0.155760 -0.210230 0.301800 127 127 0
0.112105 -0.228829 0.782374 0 127 127
0.284509 0.030546 -0.267600 127 0 127
0.020675 -0.209022 0.013994 127 127 0
-0.264930 -0.209022 -0.069399 127 127 0
0.205325 -0.190231 -0.206118 127 0 127
-0.476055 -0.214124 0.052806 127 127 0
-0.544142 0.702242 -0.455671 127 0 127
0.111674 -0.236564 0.749978 0 127 127
-0.070418 -0.209022 0.138019 127 127 0
0.349651 0.342288 -0.351095 127 0 127
0.367628 -0.236564 0.490297 0 127 127
0.281313 0.110615 -0.286665 127 0 127
0.320972 0.369901 -0.354445 127 0 127
-0.043305 -0.236564 -0.112144 0 127 127
0.433280 0.212961 -0.313522 127 0 127
0.295544 -0.205021 -0.185835 127 0 127
-0.521005 -0.033144 -0.234937 127 0 127
-0.213553 -0.215029 0.533133 0 127 127
0.067275 -0.209785 0.124464 127 127 0
-0.521477 0.020296 -0.252929 127 0 127
-0.286948 -0.236564 0.492927 0 127 127
0.540641 -0.161312 -0.200071 127 0 127
-0.042836 -0.214827 0.142673 0 127 127
-0.504953 -0.231986 0.781298 0 127 127
-0.326216 0.037231 -0.257795 127 0 127
0.316806 -0.214827 0.540624 0 127 127
0.288854 -0.236564 0.266658 0 127 127
0.371658 0.239987 -0.316751 127 0 127
0.067016 -0.236564 -0.160701 0 127 127
-0.411845 0.489258 -0.393793 127 0 127
0.088411 0.221932 -0.316128 127 0 127
0.508069 -0.236563 -0.093769 0 127 127
-0.403935 0.348735 -0.352968 127 0 127
0.363780 -0.209022 0.017048 127 127 0
-0.540239 -0.211493 -0.115232 0 127 127
0.221661 -0.209022 -0.067996 127 127 0
-0.318810 0.690810 -0.447720 127 0 127
0.211578 -0.236564 0.196522 0 127 127
-0.217143 0.003783 -0.248077 127 0 127
-0.162921 -0.209028 -0.019220 127 127 0
-0.402117 0.064909 -0.276007 127 0 127
-0.081139 0.610104 -0.424248 127 0 127
-0.030015 0.140763 -0.293410 127 0 127
-0.364311 0.546493 -0.405798 127 0 127
0.168483 0.338840 -0.350093 127 0 127
0.108023 0.360471 -0.349282 127 127 0
0.504576 0.456077 -0.377022 127 0 127
0.089420 -0.136867 -0.203742 127 0 127
0.480012 -0.213864 -0.196485 127 0 127
0.350165 -0.214827 0.294140 0 127 127
-0.126616 0.530693 -0.397694 127 127 0
0.108914 -0.216102 -0.192862 127 0 127
0.550796 0.709139 -0.451294 127 0 127
-0.021544 0.160979 -0.298420 127 0 127
0.103161 0.320530 -0.344774 127 0 127
0.441147 0.722895 -0.454009 127 0 127
-0.542222 0.074528 -0.278284 127 0 127
-0.535983 0.571065 -0.417560 127 0 127
-0.513892 0.177198 -0.303132 127 0 127
-0.460856 -0.236564 0.726274 0 127 127
0.372876 -0.209022 0.318354 127 127 0
-0.091558 -0.214827 0.352672 0 127 127
0.158586 0.059575 -0.260834 127 127 0
0.260466 0.299164 -0.333894 127 0 127
0.397302 -0.209022 0.255040 127 127 0
0.173122 0.441075 -0.379795 127 0 127
-0.217359 0.620257 -0.431852 127 0 127
-0.014416 -0.236564 0.027516 0 127 127
-0.045090 -0.209869 -0.034624 127 127 0
-0.526910 -0.209034 -0.036062 127 127 0
0.307941 -0.214827 0.122507 0 127 127
-0.252631 0.680690 -0.449409 127 0 127
-0.184763 -0.217147 0.160135 127 127 0
0.465551 0.423940 -0.370144 127 0 127
-0.432608 -0.236564 0.629425 0 127 127
0.164788 -0.213605 -0.022391 127 127 0
0.266415 0.108197 -0.286114 127 0 127
-0.275101 0.506802 -0.390809 127 127 0
0.449283 0.491608 -0.387383 127 127 0
0.035025 0.290820 -0.337390 127 0 127
-0.511689 0.034825 -0.257096 127 0 127
-0.539662 0.031306 -0.256029 127 0 127
-0.148376 -0.236564 0.683785 0 127 127
0.308057 0.709174 -0.457685 127 0 127
0.117024 -0.213976 0.706302 0 127 127
0.051390 -0.214577 0.721634 0 127 127
0.421246 0.711226 -0.450915 127 0 127
-0.352600 -0.209022 0.319062 127 127 0
0.115356 0.632313 -0.428270 127 127 0
0.272915 -0.210771 0.039981 127 127 0
-0.155022 -0.088792 -0.221192 127 0 127
0.304372 0.083669 -0.268826 127 127 0
-0.544788 -0.235256 0.776050 0 127 127
-0.203872 -0.214827 0.284688 0 127 127
0.476767 -0.046081 -0.231130 127 127 0
0.178304 -0.236564 -0.074241 0 127 127
-0.035478 -0.214101 0.711072 0 127 127
-0.458030 -0.214092 0.473278 0 127 127
-0.039713 0.209605 -0.307871 127 0 127
0.206095 0.637370 -0.429739 127 127 0
-0.084083 0.542495 -0.404637 127 0 127
0.102802 0.707706 -0.449085 127 0 127
-0.006581 -0.216026 0.510380 153 0 76
-0.262504 0.292148 -0.336528 127 0 127
-0.275015 0.238494 -0.316319 127 0 127
-0.101529 -0.236564 0.127319 0 127 127
-0.337798 0.439168 -0.379241 127 0 127
-0.115499 -0.236564 -0.158798 0 127 127
-0.105824 -0.214187 0.704220 0 127 127
0.370771 -0.209888 -0.203644 0 127 127
-0.184763 -0.216715 0.137783 127 127 0
-0.016203 -0.032419 -0.251401 127 0 127
-0.171086 0.438853 -0.371031 127 127 0
-0.175833 0.398266 -0.367358 127 0 127
0.146807 -0.218759 -0.067151 127 127 0
0.431795 -0.215795 -0.034264 127 127 0
0.320468 0.421833 -0.374204 127 0 127
-0.122502 -0.215287 0.040933 127 127 0
-0.113261 0.064977 -0.265915 127 0 127
0.291093 0.503031 -0.393121 127 0 127
0.442386 -0.216775 0.195285 127 127 0
0.373423 0.222951 -0.309338 127 127 0
0.153526 -0.236564 0.422845 0 127 127
0.200717 0.155025 -0.289515 127 127 0
0.345176 -0.209022 0.148091 127 127 0
0.305729 -0.166444 -0.213029 127 0 127
-0.314173 -0.209186 0.000900 127 127 0
-0.051295 -0.209022 0.220135 127 127 0
-0.029057 0.032776 -0.256501 127 0 127
-0.205903 0.209021 -0.312377 127 0 127
-0.226739 0.076863 -0.278834 127 0 127
0.108557 -0.060987 -0.243666 127 0 127
0.200741 0.197428 -0.309009 127 0 127
-0.321112 0.593939 -0.424206 127 0 127
0.351435 -0.214474 -0.175556 0 127 127
0.253026 -0.128379 -0.224087 127 0 127
0.092145 -0.214827 0.051463 0 127 127
-0.043140 0.002582 -0.247728 127 0 127
0.109453 -0.216027 0.597909 153 0 76
-0.260541 0.488067 -0.393447 127 0 127
0.179419 0.242358 -0.317438 127 0 127
0.452154 -0.236564 0.175922 0 127 127
0.397036 -0.210816 0.074648 127 127 0
0.337694 0.023328 -0.265791 127 0 127
-0.472361 -0.236564 -0.093290 0 127 127
-0.195126 0.685466 -0.442678 127 127 0
-0.380790 0.534441 -0.406920 127 0 127
0.425418 -0.143932 -0.219569 127 0 127
-0.077475 0.508242 -0.399309 127 0 127
0.120262 -0.016307 -0.242293 127 0 127
0.440135 -0.214827 0.133138 0 127 127
-0.390070 0.155519 -0.289726 127 127 0
0.163923 -0.209022 0.147442 127 127 0
-0.241865 -0.236564 0.294243 0 127 127
-0.311542 -0.209022 0.158464 127 127 0
0.134961 0.128481 -0.280826 127 127 0
0.124547 0.544688 -0.405274 127 0 127
-0.073041 -0.150949 -0.217530 127 0 127
-0.027388 -0.191832 -0.188317 0 127 127
-0.515526 0.522358 -0.403410 127 0 127
0.247369 -0.236564 0.604266 0 127 127
0.026475 -0.008087 -0.257785 127 0 127
-0.238758 -0.236564 0.495557 0 127 127
0.153233 -0.214827 0.368955 0 127 127
-0.302633 -0.236564 -0.143365 0 127 127
0.347121 0.566163 -0.411521 127 0 127
0.156978 0.588942 -0.422754 127 0 127
0.359037 0.703503 -0.448576 127 0 127
0.365459 -0.209022 0.332032 127 127 0
-0.394099 -0.209022 0.180672 127 127 0
-0.316369 0.394588 -0.366289 127 0 127
0.063674 0.550305 -0.411529 127 0 127
0.368160 0.092055 -0.271292 127 127 0
-0.550961 0.306721 -0.334810 127 0 127
0.055662 -0.209022 0.235038 127 127 0
0.376169 -0.236564 0.617525 0 127 127
0.250037 0.184625 -0.298204 127 127 0
-0.195767 0.227944 -0.310789 127 127 0
0.141615 0.194197 -0.303428 127 0 127
-0.245335 0.559091 -0.405956 127 127 0
0.193570 -0.081257 -0.237777 127 0 127
-0.390565 -0.217728 0.281202 127 127 0
-0.149057 0.511460 -0.400244 127 0 127
0.051761 0.565755 -0.408933 127 127 0
-0.184917 0.283391 -0.326906 127 127 0
0.523197 0.059630 -0.264361 127 0 127
-0.282037 -0.214827 0.299092 0 127 127
-0.223997 -0.236564 0.400274 0 127 127
0.463587 0.456233 -0.384199 127 0 127
0.507483 -0.161746 -0.214394 127 0 127
0.532447 -0.217343 0.040831 127 127 0
-0.511992 -0.236564 0.457410 0 127 127
-0.106770 -0.236564 0.390092 0 127 127
0.267497 -0.214979 0.125297 127 127 0
-0.540864 -0.210406 0.066623 127 127 0
-0.230485 0.180391 -0.296971 127 127 0
0.301252 0.451323 -0.378117 127 0 127
0.488718 0.525469 -0.404314 127 0 127
0.290173 -0.209022 0.226399 127 127 0
-0.311895 -0.236564 0.456664 0 127 127
0.336766 -0.014503 -0.256127 127 0 127
-0.052616 -0.236564 0.420152 0 127 127
0.494649 0.065239 -0.276088 127 0 127
0.299428 0.134013 -0.283499 127 127 0
-0.488090 -0.215563 0.659501 0 127 127
-0.071316 0.293982 -0.337559 127 0 127
0.048632 -0.236564 0.172447 0 127 127
0.530043 -0.236561 0.426754 0 127 127
0.005504 0.414972 -0.367540 127 0 127
-0.416371 -0.236564 0.470885 0 127 127
-0.519396 -0.082779 -0.237335 127 0 127
0.322145 0.438045 -0.374300 127 0 127
0.321959 -0.210300 0.317206 127 127 0
-0.013833 -0.216323 0.376081 76 0 153
-0.098676 -0.236564 0.544517 0 127 127
0.550796 0.122608 -0.287503 127 0 127
0.208431 -0.236564 0.745255 0 127 127
0.539146 0.483397 -0.392091 127 0 127
0.296522 -0.236564 -0.100037 0 127 127
-0.145820 0.410190 -0.366150 127 0 127
0.482392 0.016572 -0.264097 127 0 127
0.366765 -0.061794 -0.243432 127 0 127
-0.127783 0.703095 -0.447769 127 0 127
-0.439559 -0.236564 0.549182 0 127 127
-0.069957 -0.236564 0.694951 0 127 127
-0.355539 -0.202282 -0.188258 127 0 127
-0.241725 -0.209127 0.125404 127 127 0
0.133737 0.067078 -0.276530 127 0 127
-0.152177 -0.210627 -0.067971 127 127 0
-0.455651 -0.209022 0.014174 127 127 0
0.412850 -0.214827 0.323923 0 127 127
0.461869 0.202982 -0.303517 127 127 0
0.331012 -0.234849 0.638205 76 0 153
0.183849 -0.236564 -0.143483 0 127 127
-0.489746 0.653791 -0.436965 127 0 127
0.407985 -0.209912 0.111841 127 127 0
-0.160518 0.549129 -0.411187 127 0 127
-0.414758 0.319188 -0.344384 127 0 127
0.313077 0.514650 -0.394092 127 127 0
-0.527018 0.080469 -0.270365 127 0 127
-0.455216 -0.236554 0.763199 0 127 127
-0.424896 -0.109511 -0.212750 127 0 127
0.343408 -0.209034 0.168867 127 127 0
0.178609 -0.236564 0.401149 0 127 127
-0.333606 -0.209073 0.158849 127 127 0
0.306640 -0.236564 0.681918 0 127 127
-0.504895 -0.127177 -0.224437 127 0 127
-0.382344 0.031682 -0.256183 127 0 127
-0.269060 -0.236560 0.762264 0 127 127
0.287468 -0.214827 0.630076 0 127 127
0.428404 -0.214827 0.346961 0 127 127
0.237572 -0.209548 -0.036625 127 127 0
0.259290 -0.034745 -0.250782 127 0 127
-0.073058 -0.214827 0.163427 0 127 127
-0.375951 -0.192782 -0.205377 127 0 127
0.544888 -0.215564 0.171922 0 127 127
0.393837 -0.236564 0.634961 0 127 127
-0.103802 -0.216235 -0.188196 127 0 127
-0.349119 -0.214147 0.496418 0 127 127
-0.382375 -0.214389 0.419456 0 127 127
0.085179 -0.214827 0.317482 0 127 127
0.149428 0.127870 -0.280645 127 127 0
0.063708 0.093954 -0.270813 127 127 0
-0.299709 0.251185 -0.324627 127 0 127
0.338227 -0.236564 0.285751 0 127 127
0.394921 0.098174 -0.273095 127 127 0
-0.508006 -0.237258 0.765712 0 127 127
0.235082 0.413968 -0.367248 127 0 127
0.513698 0.272621 -0.326240 127 0 127
0.133533 -0.209022 0.309762 127 127 0
-0.547443 -0.215583 0.213686 0 127 127
-0.119557 -0.212560 -0.022391 127 127 0
-0.178663 0.544565 -0.409861 127 0 127
-0.506577 -0.210381 -0.165820 0 127 127
0.451553 0.311297 -0.342091 127 0 127
-0.504830 -0.214827 0.548416 0 127 127
-0.031739 -0.209370 -0.035129 127 127 0
-0.369238 -0.217589 0.196017 127 127 0
0.386187 0.256008 -0.326028 127 0 127
0.115039 -0.209022 0.286003 127 127 0
0.342505 0.316576 -0.336542 127 127 0
-0.549628 0.410380 -0.370877 127 0 127
0.172844 -0.142483 -0.219990 127 0 127
0.127389 0.102966 -0.273446 127 127 0
-0.459250 0.486815 -0.393084 127 0 127
-0.112447 0.243900 -0.315387 127 127 0
0.455791 0.324888 -0.346039 127 0 127
-0.534002 0.391143 -0.365288 127 0 127
0.003273 -0.217117 -0.046594 127 127 0
0.165433 0.217566 -0.307773 127 127 0
-0.175758 0.472112 -0.384138 127 0 127
0.535964 -0.051482 -0.232005 127 0 127
0.397657 -0.209022 0.002192 127 127 0
0.353131 -0.214827 0.574262 0 127 127
-0.437534 0.431843 -0.377113 127 0 127
-0.216250 -0.214827 0.307615 0 127 127
-0.552728 0.436630 -0.375609 127 0 127
0.220166 -0.209022 0.104869 127 127 0
-0.384615 -0.236564 0.207323 0 127 127
0.498207 -0.214708 0.124046 127 127 0
0.260509 -0.214827 0.260488 0 127 127
-0.449655 0.312312 -0.342386 127 0 127
0.471238 0.188487 -0.306412 127 0 127
-0.525062 0.291781 -0.336421 127 0 127
-0.030257 -0.106773 -0.213546 127 0 127
-0.091468 -0.209022 0.126244 127 127 0
-0.113163 0.556807 -0.413418 127 0 127
-0.404155 -0.210269 -0.164216 0 127 127
0.358823 0.017258 -0.264269 127 0 127
-0.077916 0.628901 -0.426194 127 127 0
-0.295878 -0.214827 0.700030 0 127 127
0.253318 -0.235349 0.642980 76 0 153
-0.138383 0.355748 -0.355005 127 0 127
-0.109132 -0.236564 0.666534 0 127 127
-0.542410 0.608249 -0.420785 127 0 127
-0.124266 0.545536 -0.401969 127 127 0
-0.391815 -0.236564 0.401549 0 127 127
-0.150223 0.351024 -0.346494 127 127 0
0.197082 0.413010 -0.364519 127 127 0
-0.499180 0.512164 -0.393369 127 127 0
0.515256 0.713144 -0.458838 127 0 127
0.352169 -0.011544 -0.256892 127 0 127
0.443181 0.294410 -0.337185 127 0 127
0.255703 0.684282 -0.450453 127 0 127
0.259163 -0.236564 0.366946 0 127 127
-0.265211 -0.236564 0.034898 0 127 127
0.507559 0.430211 -0.376639 127 0 127
-0.267615 0.187592 -0.306151 127 0 127
0.432146 0.085178 -0.269264 127 127 0
0.531738 -0.209059 0.256977 127 127 0
0.130072 -0.214846 0.258513 127 127 0
0.317638 -0.159739 -0.200572 127 0 127
0.107329 0.254842 -0.325689 127 0 127
0.123063 0.027736 -0.251585 127 127 0
-0.331586 -0.236564 0.103976 0 127 127
-0.234624 0.132428 -0.283036 127 127 0
0.210652 -0.236564 0.729144 0 127 127
0.516555 0.294012 -0.337069 127 0 127
0.348255 -0.236564 -0.100663 0 127 127
0.336635 0.115217 -0.280452 127 0 127
-0.288089 -0.236564 0.269150 0 127 127
-0.470738 0.679046 -0.448932 127 0 127
0.440776 -0.236564 -0.120617 0 127 127
-0.505764 0.058421 -0.261539 127 127 0
0.028335 0.344386 -0.351704 127 0 127
-0.548208 0.191009 -0.301987 127 0 127
0.090403 -0.236564 0.477220 0 127 127
0.125191 -0.236564 0.109654 0 127 127
0.263849 0.440948 -0.372684 127 127 0
0.318705 -0.214827 0.101583 0 127 127
0.413463 0.244645 -0.322727 127 0 127
0.216946 -0.209022 0.209983 127 127 0
0.214616 0.495166 -0.390835 127 0 127
0.054960 0.645179 -0.434480 127 0 127
0.083490 0.574037 -0.418424 127 0 127
-0.544731 -0.236380 0.235695 0 127 127
0.390310 0.394957 -0.366396 127 0 127
0.282824 0.687228 -0.443886 127 127 0
0.536382 0.293326 -0.329029 127 0 127
-0.438533 -0.236564 0.322381 0 127 127
0.329888 0.089774 -0.281874 127 0 127
-0.092255 0.692838 -0.444823 127 0 127
0.271244 0.633598 -0.428643 127 127 0
-0.102587 0.050577 -0.272524 127 0 127
0.488684 0.457783 -0.379974 127 0 127
-0.103790 0.352066 -0.349322 127 0 127
0.319926 0.472966 -0.389060 127 0 127
-0.221707 0.712128 -0.450391 127 0 127
-0.231314 -0.214820 0.671164 0 127 127
-0.457092 0.043286 -0.259554 127 0 127
-0.110114 -0.210400 -0.034361 127 127 0
-0.447128 0.618985 -0.423753 127 127 0
-0.390339 0.300340 -0.331810 127 127 0
-0.337938 0.215742 -0.307234 127 127 0
-0.225090 0.562636 -0.410496 127 0 127
-0.113930 0.174854 -0.302451 127 0 127
-0.433029 -0.207581 -0.129972 0 127 127
-0.423182 0.459356 -0.385106 127 0 127
-0.472982 0.109478 -0.276380 127 127 0
-0.414033 -0.236564 -0.142858 0 127 127
0.410486 -0.236564 0.741488 0 127 127
-0.312115 -0.211767 0.258513 127 127 0
0.229024 -0.113672 -0.228360 127 0 127
0.538621 0.506404 -0.398775 127 0 127
0.509824 -0.059730 -0.227221 127 0 127
0.183127 -0.215484 0.661821 0 127 127
0.083518 0.607834 -0.428243 127 0 127
-0.432794 0.642531 -0.438323 127 0 127
0.371954 -0.236564 0.110060 0 127 127
-0.394630 -0.215698 0.770499 0 127 127
0.434976 -0.214827 0.410067 0 127 127
0.439786 -0.057994 -0.227311 127 127 0
0.336227 -0.236564 0.511305 0 127 127
0.111376 -0.182699 -0.193933 127 0 127
0.005291 -0.236564 0.549398 0 127 127
-0.176663 -0.215353 0.616304 0 127 127
-0.233737 -0.236564 0.519953 0 127 127
-0.230251 0.606920 -0.423341 127 0 127
0.174817 0.621161 -0.424987 127 127 0
0.035817 0.435778 -0.373642 127 0 127
0.233370 -0.036338 -0.250358 127 0 127
0.177610 0.087677 -0.281380 127 0 127
0.340983 -0.236564 0.584277 0 127 127
-0.446743 -0.209022 0.288070 127 127 0
-0.523302 0.325869 -0.346325 127 0 127
-0.350623 0.433105 -0.377480 127 0 127
-0.372650 0.518636 -0.402328 127 0 127
-0.285336 0.482513 -0.391834 127 0 127
-0.345647 0.142502 -0.293794 127 0 127
0.343524 0.636123 -0.436461 127 0 127
-0.410778 -0.236564 0.696612 0 127 127
0.022377 0.219229 -0.307217 127 127 0
0.486311 0.406688 -0.365134 127 0 127
-0.552728 0.108143 -0.281647 127 0 127
-0.011990 -0.179891 -0.209122 127 0 127
-0.260751 -0.062187 -0.228951 127 0 127
-0.456133 -0.184736 -0.207714 127 0 127
0.298639 -0.216350 0.341721 127 127 0
-0.127515 -0.236564 0.654674 0 127 127
0.309954 -0.217250 0.298553 127 127 0
0.336722 -0.215254 0.704178 0 127 127
0.511674 0.519034 -0.402444 127 0 127
-0.039599 -0.236564 0.571149 0 127 127
-0.443462 -0.104455 -0.216689 127 0 127
-0.441491 0.259893 -0.320039 127 127 0
0.310688 -0.236517 -0.179949 0 127 127
-0.232043 0.044270 -0.257407 127 127 0
0.384599 0.480627 -0.391286 127 0 127
0.215321 0.278646 -0.332605 127 0 127
-0.490240 0.601059 -0.419196 127 127 0
-0.196914 -0.214834 -0.170769 0 127 127
0.382861 -0.214827 0.158440 0 127 127
0.082447 -0.214827 0.028804 0 127 127
-0.273457 -0.214827 0.564929 0 127 127
0.540954 -0.097306 -0.233115 127 0 127
-0.552728 -0.141015 -0.209948 127 0 127
0.114974 -0.215406 0.452337 153 0 76
-0.510581 0.601610 -0.421815 127 0 127
-0.303729 -0.150380 -0.203347 127 0 127
-0.073284 -0.209199 -0.037912 127 127 0
-0.277815 0.314962 -0.343156 127 0 127
0.016001 -0.236564 0.745517 0 127 127
-0.445550 -0.214827 0.248276 0 127 127
0.008345 -0.078137 -0.221073 127 127 0
-0.388528 0.128355 -0.281830 127 127 0
-0.137236 -0.214827 0.348797 0 127 127
0.245743 -0.214827 0.221663 0 127 127
-0.326791 -0.211816 -0.186933 127 0 127
0.021010 -0.214827 0.207872 0 127 127
-0.025631 -0.209022 0.074676 127 127 0
-0.115249 -0.210674 0.270513 127 127 0
-0.523377 0.199200 -0.302433 127 0 127
0.167847 0.099050 -0.284030 127 0 127
-0.483824 -0.197915 -0.186456 127 0 127
-0.292283 0.688826 -0.451773 127 0 127
0.489885 0.544197 -0.402623 127 127 0
0.422120 0.662127 -0.436885 127 127 0
0.421143 -0.209022 0.231153 127 127 0
0.093602 0.093071 -0.282651 127 0 127
0.519943 -0.209022 0.090157 127 127 0
0.435327 0.595732 -0.417648 127 127 0
-0.076261 -0.159302 -0.197239 127 0 127
-0.140113 -0.214285 -0.176830 0 127 127
-0.266860 -0.209022 0.031818 127 127 0
-0.377278 0.488364 -0.386451 127 127 0
0.245116 0.304469 -0.340107 127 0 127
0.463744 -0.142210 -0.220069 127 0 127
0.248406 0.375538 -0.353620 127 127 0
-0.283736 0.138635 -0.292941 127 0 127
0.478168 -0.200141 -0.188869 127 0 127
0.200032 -0.119107 -0.226781 127 0 127
0.494837 -0.209022 0.318055 127 127 0
0.076516 -0.214827 -0.081747 0 127 127
-0.421463 0.137587 -0.292711 127 0 127
-0.480266 -0.209022 -0.005222 127 127 0
0.171064 0.388755 -0.357509 127 127 0
-0.520530 0.640146 -0.437630 127 0 127
0.047816 -0.025494 -0.253244 127 0 127
-0.359319 -0.209022 0.291985 127 127 0
-0.489617 -0.215828 0.720097 0 127 127
-0.135644 0.232426 -0.314560 127 0 127
-0.074771 -0.214827 0.204056 0 127 127
-0.153665 -0.187355 -0.192605 127 0 127
-0.422227 -0.211357 0.149889 127 127 0
-0.327648 -0.214827 0.409772 0 127 127
0.513449 -0.209190 0.110985 127 127 0
-0.140829 0.271062 -0.330402 127 0 127
-0.338990 0.110806 -0.279195 127 0 127
0.470559 -0.236564 0.031168 0 127 127
-0.100082 0.712878 -0.454091 127 0 127
0.540754 -0.092545 -0.217156 127 0 127
-0.017978 -0.216028 0.603190 153 0 76
0.323601 -0.214827 0.581357 0 127 127
-0.397873 -0.036140 -0.236486 127 0 127
0.014690 0.257126 -0.318694 127 127 0
-0.306653 -0.045614 -0.231266 127 127 0
0.231988 0.079108 -0.269970 127 0 127
0.111404 -0.236564 0.011659 0 127 127
0.132881 -0.209022 0.092496 127 127 0
0.269901 0.373395 -0.355459 127 0 127
0.089241 -0.074660 -0.221835 127 127 0
-0.451281 -0.214827 0.144655 0 127 127
0.155728 -0.236564 0.620922 0 127 127
-0.116200 0.367338 -0.358372 127 0 127
-0.413853 -0.214827 0.366490 0 127 127
-0.129997 -0.214827 0.402804 0 127 127
0.170182 -0.209022 0.009218 127 127 0
0.406154 0.063255 -0.275606 127 0 127
-0.376180 0.694537 -0.453432 127 0 127
-0.239713 0.197923 -0.309153 127 0 127
0.523219 -0.209022 0.006669 127 127 0
-0.398667 -0.215827 0.649895 0 127 127
-0.315368 -0.212660 0.019520 127 127 0
-0.350778 -0.235741 -0.191785 0 127 127
0.550307 -0.234817 0.183724 0 127 127
-0.150609 -0.007867 -0.257842 127 0 127
0.076260 -0.209793 0.040521 127 127 0
0.466723 -0.186848 -0.190282 127 0 127
-0.001862 -0.209022 0.126927 127 127 0
0.448829 0.470575 -0.388365 127 0 127
-0.020237 -0.209022 -0.049711 127 127 0
-0.254950 0.645746 -0.431089 127 127 0
-0.418677 -0.236564 0.557815 0 127 127
-0.553852 -0.231811 -0.037713 0 127 127
-0.158020 -0.214827 0.232344 0 127 127
-0.550718 0.487204 -0.387565 127 0 127
0.121171 0.407523 -0.370047 127 0 127
0.179761 -0.209022 -0.019822 127 127 0
0.295567 -0.102922 -0.217135 127 0 127
-0.411775 0.300391 -0.331825 127 127 0
-0.458877 0.121477 -0.282270 127 0 127
-0.237444 0.062879 -0.275514 127 0 127
-0.239404 0.284157 -0.327125 127 127 0
-0.540061 -0.214954 0.523129 0 127 127
0.199183 -0.236564 -0.060900 0 127 127
0.097857 -0.215624 0.753703 0 127 127
0.047431 -0.214827 0.409290 0 127 127
-0.124240 -0.236564 0.038492 0 127 127
0.364418 -0.141535 -0.220265 127 0 127
-0.083893 -0.024924 -0.253395 127 0 127
0.346139 -0.236564 0.193238 0 127 127
-0.429546 0.180355 -0.296960 127 127 0
-0.177524 0.641691 -0.433467 127 0 127
-0.082229 -0.209859 0.226291 127 127 0
0.431432 0.311276 -0.337469 127 0 127
-0.166412 0.363754 -0.357331 127 0 127
0.321260 -0.214827 0.165317 0 127 127
-0.409787 0.396641 -0.362268 127 0 127
0.026254 -0.214827 0.191392 0 127 127
0.304745 0.364331 -0.350384 127 127 0
0.446135 -0.214827 0.325411 0 127 127
-0.324359 -0.214827 0.291000 0 127 127
-0.329828 -0.214827 0.105702 0 127 127
-0.278078 0.393358 -0.361300 127 0 127
0.530705 -0.205154 -0.186821 127 0 127
0.020720 -0.136419 -0.207396 127 0 127
0.427445 0.184200 -0.298080 127 127 0
-0.471873 -0.215718 0.495161 76 0 153
-0.064387 0.414225 -0.363826 127 127 0
-0.099505 0.022865 -0.265675 127 0 127
0.213800 -0.129890 -0.209288 127 0 127
-0.501980 -0.209022 -0.014557 127 127 0
-0.348610 -0.209067 0.169475 127 127 0
0.247180 0.664346 -0.437530 127 127 0
0.161360 -0.214827 0.435795 0 127 127
0.045004 -0.214827 -0.058231 0 127 127
0.226950 0.703123 -0.447776 127 0 127
-0.462968 -0.210057 -0.045290 127 127 0
-0.526056 0.432660 -0.372735 127 0 127
-0.032503 0.275173 -0.332095 127 0 127
-0.359017 0.594468 -0.424360 127 0 127
0.092275 0.254213 -0.325507 127 0 127
0.519365 0.670058 -0.446320 127 0 127
0.232850 0.182393 -0.304641 127 0 127
-0.539710 -0.214943 0.096882 0 127 127
0.204610 0.582808 -0.416307 127 0 127
0.173955 -0.209097 -0.035709 127 127 0
0.438498 -0.021041 -0.238454 127 127 0
-0.363065 0.358184 -0.355713 127 0 127
0.196997 -0.211709 0.270482 127 127 0
0.333123 -0.235401 0.776205 0 127 127
-0.429296 -0.236564 0.044732 0 127 127
0.362263 0.500413 -0.397034 127 0 127
0.539859 0.308642 -0.333315 127 0 127
0.218742 -0.215828 0.685214 0 127 127
0.128740 0.032251 -0.268028 127 0 127
-0.533585 -0.213016 -0.092924 0 127 127
0.472244 -0.210964 0.056450 127 127 0
-0.296348 -0.209022 0.099862 127 127 0
0.023974 -0.236564 0.477783 0 127 127
-0.081163 -0.236564 0.688745 0 127 127
0.080641 -0.214827 0.350940 0 127 127
-0.374219 0.652314 -0.432996 127 127 0
0.087218 -0.210014 0.183148 127 127 0
-0.521728 0.482229 -0.387130 127 0 127
-0.159776 0.318888 -0.344296 127 0 127
0.128346 0.205163 -0.311256 127 0 127
0.517496 0.486601 -0.393021 127 0 127
0.028760 -0.214827 0.227329 0 127 127
0.537209 0.270588 -0.330264 127 0 127
0.466219 0.115585 -0.278141 127 127 0
0.308347 -0.214827 -0.136861 0 127 127
-0.124701 0.328675 -0.340016 127 127 0
-0.263714 0.042735 -0.270617 127 0 127
0.455762 0.031484 -0.256125 127 0 127
-0.507360 -0.236564 0.524335 0 127 127
0.485365 0.324110 -0.345814 127 0 127
0.003236 0.326138 -0.347650 127 0 127
-0.150268 0.601498 -0.418283 127 127 0
-0.057698 0.439366 -0.371180 127 127 0
0.165749 0.024178 -0.250550 127 127 0
-0.438425 -0.210467 0.124121 127 127 0
-0.501825 -0.236564 0.041432 0 127 127
-0.193779 -0.236564 0.206190 0 127 127
0.186371 0.589832 -0.415906 127 127 0
-0.444064 -0.030253 -0.251977 127 0 127
0.459862 -0.067244 -0.224916 127 127 0
0.028347 -0.214827 0.037483 0 127 127
0.090795 -0.215102 0.443089 153 0 76
0.035306 -0.209022 -0.010362 127 127 0
0.042804 -0.213652 0.182879 127 127 0
-0.104096 -0.218709 0.779368 0 127 127
-0.353504 -0.222201 -0.204634 0 127 127
0.331705 0.725361 -0.456034 127 0 127
0.427865 0.243324 -0.315222 127 127 0
0.004684 0.120651 -0.288952 127 0 127
0.131146 -0.214827 0.204051 0 127 127
-0.487358 -0.236564 0.243059 0 127 127
0.265819 -0.236564 0.541070 0 127 127
-0.038858 0.399042 -0.368116 127 0 127
-0.101075 -0.214827 0.235038 0 127 127
-0.528471 -0.218573 0.183412 127 127 0
-0.269907 0.323877 -0.338644 127 127 0
-0.325911 -0.214739 0.544453 0 127 127
-0.134947 0.663295 -0.444356 127 0 127
0.067228 -0.121272 -0.208242 127 0 127
0.232485 -0.058904 -0.244271 127 0 127
0.060395 0.034879 -0.257112 127 0 127
-0.067529 0.708131 -0.452711 127 0 127
-0.373353 -0.236564 0.363996 0 127 127
0.479574 -0.236563 0.748412 0 127 127
-0.253685 -0.214827 -0.153942 0 127 127
0.384670 0.374191 -0.360363 127 0 127
0.084363 -0.218026 0.102855 127 127 0
0.126840 -0.217332 0.341721 127 127 0
-0.000941 0.491406 -0.394417 127 0 127
-0.396577 -0.214523 0.406634 0 127 127
0.254457 0.463068 -0.379051 127 127 0
0.160746 -0.215111 0.606496 0 127 127
0.299574 -0.214827 0.026368 0 127 127
0.014099 -0.214827 0.146917 0 127 127
0.263241 0.712876 -0.458760 127 0 127
0.222798 -0.002244 -0.242823 127 127 0
0.085812 -0.236564 0.556311 0 127 127
0.410706 -0.214827 0.278330 0 127 127
0.122738 -0.102863 -0.213638 127 0 127
-0.399178 -0.212512 -0.034946 127 127 0
0.407570 -0.019949 -0.238480 127 127 0
-0.170578 0.154452 -0.296523 127 0 127
0.179079 0.149215 -0.287520 127 127 0
-0.096754 -0.236564 -0.096984 0 127 127
-0.396732 -0.214827 0.007638 0 127 127
-0.347444 0.065706 -0.276201 127 0 127
0.490579 0.040709 -0.270125 127 0 127
-0.451577 -0.236564 0.702471 0 127 127
0.319135 0.669136 -0.441380 127 0 127
0.435856 -0.235191 0.625229 76 0 153
-0.421954 -0.060161 -0.243906 127 0 127
0.192295 -0.236564 0.377214 0 127 127
-0.028800 -0.049907 -0.232477 127 0 127
-0.369503 0.349461 -0.346101 127 127 0
0.153465 0.370872 -0.354726 127 0 127
0.494989 0.286419 -0.327771 127 0 127
-0.014882 0.021687 -0.265379 127 0 127
-0.398742 0.406749 -0.365151 127 0 127
0.404147 0.218524 -0.308053 127 127 0
0.383413 0.625796 -0.426347 127 127 0
0.528001 -0.236562 0.148834 0 127 127
-0.323164 0.263896 -0.328320 127 0 127
-0.241508 -0.117427 -0.212911 127 0 127
0.068532 -0.216885 0.226587 127 127 0
-0.124508 -0.236564 0.509678 0 127 127
0.426712 0.125067 -0.289951 127 0 127
-0.441102 0.293753 -0.336994 127 0 127
0.099464 -0.214827 0.031675 0 127 127
-0.119388 -0.209022 0.247265 127 127 0
-0.315355 -0.216839 -0.018634 127 127 0
-0.111450 -0.215569 0.765214 0 127 127
0.211010 -0.211956 0.019781 127 127 0
0.368682 0.367055 -0.358290 127 0 127
0.252883 0.354528 -0.347574 127 127 0
-0.166869 -0.209022 0.212085 127 127 0
0.347703 -0.209022 0.248631 127 127 0
-0.241753 0.627067 -0.433831 127 0 127
-0.093053 -0.052513 -0.246023 127 0 127
-0.011866 -0.214914 0.623720 0 127 127
-0.349571 -0.214794 0.416800 0 127 127
-0.322345 -0.209022 0.132695 127 127 0
0.017764 -0.209022 0.171873 127 127 0
-0.141648 -0.186104 -0.207317 127 0 127
0.032208 -0.194316 -0.187705 127 0 127
-0.425804 0.240367 -0.316861 127 0 127
0.118192 0.008111 -0.249334 127 0 127
0.428863 0.230556 -0.311549 127 127 0
-0.050040 0.106771 -0.285789 127 0 127
-0.155670 0.712732 -0.458719 127 0 127
-0.301181 -0.214827 0.042671 0 127 127
-0.293220 0.190520 -0.307002 127 0 127
-0.287214 0.376486 -0.353896 127 127 0
-0.312726 -0.236564 0.340977 0 127 127
-0.483616 -0.097045 -0.216374 127 127 0
0.210318 -0.064929 -0.242521 127 0 127
0.313519 -0.214827 0.661534 0 127 127
-0.346907 -0.214827 0.282917 0 127 127
-0.131013 -0.214827 0.246225 0 127 127
0.482531 -0.227576 0.782357 0 127 127
0.479872 -0.209022 -0.045074 127 127 0
0.348299 -0.214827 0.435386 0 127 127
0.532208 0.094365 -0.282955 127 0 127
0.416137 -0.214827 0.619332 0 127 127
-0.416351 -0.130586 -0.223446 127 0 127
-0.263204 0.263233 -0.328127 127 0 127
0.210155 -0.002546 -0.246239 127 0 127
-0.355661 0.719304 -0.452919 127 0 127
0.000482 0.156948 -0.297249 127 0 127
-0.292613 0.520080 -0.394629 127 127 0
0.318151 0.184591 -0.305280 127 0 127
0.083228 -0.072447 -0.240337 127 0 127
-0.038759 0.450288 -0.382472 127 0 127
0.228865 0.589817 -0.423008 127 0 127
-0.278218 -0.209523 0.110421 127 127 0
-0.224485 0.103705 -0.285091 127 0 127
0.064325 -0.209022 0.056265 127 127 0
-0.471637 -0.236564 0.261477 0 127 127
-0.346713 0.314531 -0.343031 127 0 127
0.194528 0.692200 -0.444812 127 0 127
0.237089 0.430895 -0.376837 127 0 127
-0.395558 -0.215827 0.624508 0 127 127
0.522531 -0.219245 -0.205002 0 127 127
0.061841 -0.236564 0.295921 0 127 127
0.470774 -0.214827 0.597103 0 127 127
0.198676 0.223513 -0.316587 127 0 127
-0.481529 0.090444 -0.273265 127 0 127
0.166044 -0.217595 0.195190 127 127 0
0.049472 -0.058254 -0.244451 127 0 127
-0.486697 -0.024247 -0.239993 127 0 127
-0.045717 0.133597 -0.283378 127 127 0
0.491885 -0.206834 -0.191569 127 0 127
0.230799 -0.215951 0.228899 127 127 0
0.305737 -0.091595 -0.220378 127 0 127
0.238673 0.346841 -0.352418 127 0 127
0.284622 -0.236564 -0.112997 0 127 127
-0.316291 -0.212995 -0.087733 0 127 127
0.397548 -0.211469 0.337619 127 127 0
-0.023393 -0.216064 0.406216 76 0 153
-0.296258 0.646444 -0.431292 127 127 0
-0.242550 0.523996 -0.403886 127 0 127
-0.348351 -0.214827 0.329411 0 127 127
-0.451100 0.288596 -0.330824 127 0 127
0.550796 -0.071289 -0.229292 127 0 127
-0.307894 0.145338 -0.289260 127 0 127
0.173104 -0.214775 0.629218 0 127 127
0.165436 -0.236564 0.480112 0 127 127
0.422911 0.614571 -0.423107 127 127 0
0.357429 -0.236564 0.347316 0 127 127
-0.283271 0.077558 -0.278998 127 0 127
-0.358047 0.378885 -0.361727 127 0 127
0.200251 0.645909 -0.439304 127 0 127
-0.530869 -0.237030 -0.165349 0 127 127
0.496765 -0.209022 0.228469 127 127 0
-0.087827 -0.236564 0.059997 0 127 127
-0.309888 0.426357 -0.370862 127 0 127
0.535545 -0.217584 0.225264 127 127 0
-0.070309 0.396709 -0.366905 127 0 127
0.413097 0.421524 -0.374115 127 0 127
0.203403 0.343139 -0.351342 127 0 127
0.518543 0.252868 -0.317715 127 0 127
-0.229660 0.319144 -0.344371 127 0 127
-0.008482 -0.214827 0.083109 0 127 127
-0.527818 -0.032310 -0.251430 127 0 127
-0.490040 -0.190771 -0.205961 127 0 127
-0.199503 0.179290 -0.299121 127 0 127
-0.343870 -0.214276 0.459029 0 127 127
0.484682 0.002650 -0.247748 127 0 127
-0.011556 0.350207 -0.345315 127 127 0
0.399461 -0.213165 -0.022391 127 127 0
-0.317515 -0.236564 0.072113 0 127 127
0.239083 0.617948 -0.424071 127 127 0
-0.552728 -0.076353 -0.225184 127 0 127
0.487448 -0.209022 0.019249 127 127 0
0.048016 0.521426 -0.396062 127 127 0
0.392942 0.175561 -0.298037 127 0 127
0.206019 -0.209022 0.295951 127 127 0
0.305159 0.525256 -0.404251 127 0 127
0.306201 0.276369 -0.327319 127 0 127
-0.510010 0.500215 -0.396977 127 0 127
-0.229969 -0.217742 -0.054484 127 127 0
-0.384775 -0.122122 -0.225905 127 0 127
-0.065479 -0.236564 -0.092876 0 127 127
-0.474560 -0.056543 -0.230560 127 0 127
-0.284863 -0.214827 0.192675 0 127 127
0.162441 0.718502 -0.458637 127 0 127
0.453637 0.557684 -0.406588 127 127 0
0.274360 0.341620 -0.343822 127 127 0
0.277802 0.187852 -0.306227 127 0 127
-0.216004 0.524006 -0.403889 127 0 127
0.503424 -0.116577 -0.227516 127 0 127
0.197412 0.314068 -0.342896 127 0 127
-0.321801 -0.236564 0.361095 0 127 127
0.110343 -0.213869 0.695396 153 76 0
0.229368 -0.236564 0.656145 0 127 127
-0.397127 -0.217990 0.195285 127 127 0
0.047663 -0.236563 0.753025 0 127 127
-0.366836 -0.236564 0.396356 0 127 127
-0.195270 0.297530 -0.330979 127 127 0
0.283919 -0.218215 0.112172 127 127 0
0.435682 0.576156 -0.411950 127 127 0
-0.075279 -0.214827 0.352178 0 127 127
0.516042 0.441852 -0.372750 127 0 127
0.308592 -0.236564 0.592973 0 127 127
0.352675 -0.063249 -0.225157 127 127 0
-0.351487 -0.214827 0.390497 0 127 127
-0.135688 0.367505 -0.358421 127 0 127
-0.369289 -0.236564 0.036443 0 127 127
-0.537253 0.288987 -0.335609 127 0 127
0.090325 -0.034433 -0.250865 127 0 127
0.136551 -0.031068 -0.251761 127 0 127
-0.282252 -0.214827 0.206921 0 127 127
-0.163002 -0.236564 0.351491 0 127 127
0.360686 0.656650 -0.442425 127 0 127
-0.227310 -0.210009 -0.203579 0 127 127
0.080181 0.406716 -0.369813 127 0 127
-0.402380 -0.101307 -0.217600 127 0 127
0.471905 0.146918 -0.287251 127 127 0
0.460755 0.027074 -0.266730 127 0 127
0.236985 -0.209022 0.172659 127 127 0
-0.368805 -0.236564 0.226000 0 127 127
0.289408 -0.209022 0.300751 127 127 0
0.477575 0.062268 -0.275366 127 0 127
-0.054397 -0.099846 -0.232377 127 0 127
0.509038 -0.214827 0.087547 0 127 127
0.158230 0.201612 -0.305548 127 0 127
-0.249157 -0.236564 0.065883 0 127 127
0.193056 0.079327 -0.279414 127 0 127
-0.316716 0.445515 -0.376461 127 0 127
-0.241930 -0.218056 -0.060805 127 127 0
-0.503504 0.437648 -0.378799 127 0 127
-0.073280 0.187869 -0.299147 127 127 0
0.106903 -0.224726 -0.203738 0 127 127
0.003178 0.678611 -0.441141 127 127 0
-0.068346 0.221913 -0.309037 127 127 0
0.489887 -0.215390 0.771456 0 127 127
-0.115803 0.293777 -0.337001 127 0 127
-0.054379 0.305893 -0.335873 127 0 127
0.337467 0.498969 -0.391940 127 0 127
0.031152 0.332687 -0.348305 127 0 127
-0.334480 0.077829 -0.279061 127 0 127
0.487998 -0.142133 -0.220091 127 0 127
0.186273 0.714572 -0.451113 127 0 127
-0.376930 0.386886 -0.364052 127 0 127
0.256860 -0.214827 0.376793 0 127 127
0.464795 0.265135 -0.328680 127 0 127
-0.415278 -0.215833 0.258608 127 127 0
0.468935 -0.236564 0.002970 0 127 127
-0.074398 -0.214827 0.042255 0 127 127
0.289300 0.007735 -0.261872 127 0 127
-0.182453 0.529749 -0.405557 127 0 127
0.335084 0.567841 -0.416624 127 0 127
-0.509344 -0.209022 0.229135 127 127 0
0.164190 -0.173921 -0.210856 127 0 127
-0.092106 -0.214827 -0.120943 0 127 127
0.339500 -0.214827 -0.141606 0 127 127
0.422161 -0.214827 0.015393 0 127 127
-0.545791 -0.081104 -0.237822 127 0 127
-0.520554 0.594263 -0.417222 127 0 127
0.312991 0.604673 -0.420247 127 127 0
-0.245682 -0.214827 0.514043 0 127 127
-0.226309 -0.180577 -0.194538 127 0 127
-0.119376 -0.209996 -0.194459 0 127 127
0.050463 0.114379 -0.276758 127 127 0
-0.165913 0.102136 -0.284733 127 0 127
-0.273605 -0.236564 0.734582 0 127 127
-0.502334 -0.236564 0.611975 0 127 127
-0.552728 -0.098604 -0.217466 127 0 127
-0.409866 0.206153 -0.311544 127 0 127
-0.390783 0.558313 -0.409238 127 0 127
-0.489917 0.670994 -0.446592 127 0 127
0.276084 0.383934 -0.363194 127 0 127
-0.220918 -0.236564 0.677499 0 127 127
0.430644 0.029626 -0.267370 127 0 127
-0.436876 0.095091 -0.283126 127 0 127
0.090671 0.385334 -0.363601 127 0 127
-0.470844 0.462075 -0.385896 127 0 127
0.540658 -0.236535 0.197210 0 127 127
0.304403 -0.211993 0.183412 127 127 0
0.192016 0.660442 -0.436395 127 127 0
-0.341471 0.399522 -0.367723 127 0 127
-0.143889 -0.217302 -0.204921 0 127 127
-0.229828 -0.214829 -0.164194 0 127 127
0.104341 -0.236564 0.573342 0 127 127
0.318574 -0.236564 -0.089885 0 127 127
-0.203013 -0.236564 0.313046 0 127 127
-0.455047 0.175667 -0.295573 127 127 0
0.518205 -0.214827 -0.057888 0 127 127
0.180411 0.342453 -0.351143 127 0 127
-0.552505 -0.234727 -0.059833 0 127 127
-0.030210 0.615804 -0.422420 127 127 0
0.071494 -0.236564 0.250706 0 127 127
-0.142510 -0.210463 0.053959 127 127 0
0.453561 0.273755 -0.324106 127 127 0
0.364127 0.051446 -0.259512 127 127 0
-0.261152 -0.214827 0.070225 0 127 127
-0.292788 -0.214259 -0.082964 0 127 127
-0.313894 -0.215215 0.183412 127 127 0
-0.458237 0.271408 -0.323424 127 127 0
0.197286 -0.216478 -0.021774 127 127 0
0.500691 0.127940 -0.290585 127 0 127
-0.204092 -0.209022 -0.012029 127 127 0
-0.186452 -0.178350 -0.195173 127 0 127
0.137234 -0.001277 -0.246607 127 0 127
-0.315577 -0.236564 -0.018319 0 127 127
-0.443724 0.276638 -0.327395 127 0 127
-0.478045 -0.209883 0.273830 127 127 0
-0.310947 0.018485 -0.264577 127 0 127
-0.170203 -0.214827 0.145300 0 127 127
-0.424715 0.260002 -0.327188 127 0 127
-0.246179 -0.236564 0.520215 0 127 127
0.493253 0.060574 -0.264635 127 0 127
0.469586 0.614811 -0.430270 127 0 127
-0.372132 -0.155745 -0.216137 127 0 127
0.461574 -0.236564 0.660568 0 127 127
-0.370187 -0.209026 0.054819 127 127 0
-0.287450 0.211205 -0.305891 127 127 0
0.400475 -0.184224 -0.193498 127 0 127
0.419776 0.093788 -0.274236 127 0 127
-0.440297 0.492423 -0.387617 127 127 0
0.063653 -0.100099 -0.232303 127 0 127
-0.169783 0.254741 -0.325660 127 0 127
-0.020282 -0.209022 0.311421 127 127 0
0.365176 -0.214827 0.209854 0 127 127
0.310078 0.253530 -0.325308 127 0 127
-0.084361 -0.209133 0.054145 127 127 0
-0.240171 -0.216537 0.030481 127 127 0
0.334666 -0.215356 0.770952 0 127 127
-0.110497 -0.211895 -0.071862 127 127 0
-0.262557 0.697090 -0.446157 127 0 127
0.004647 -0.236564 -0.027992 0 127 127
0.183491 0.450481 -0.382528 127 0 127
-0.277136 -0.217635 0.341721 127 127 0
0.406258 0.444671 -0.380839 127 0 127
-0.487723 -0.209022 0.007924 127 127 0
0.287709 -0.214827 -0.058796 0 127 127
-0.418988 0.000180 -0.244568 127 127 0
0.009867 -0.215680 0.756287 0 127 127
0.238758 0.511814 -0.400346 127 0 127
-0.116643 0.689832 -0.447440 127 0 127
-0.217740 -0.209022 0.296593 127 127 0
-0.206024 -0.209079 -0.203232 0 127 127
0.063984 -0.236564 0.395534 0 127 127
-0.073052 -0.048009 -0.230581 127 127 0
0.366023 -0.236564 0.681735 0 127 127
0.190970 0.345731 -0.345017 127 127 0
-0.275742 -0.209022 -0.058427 127 127 0
-0.091282 0.338170 -0.342030 127 127 0
0.383485 -0.214827 0.612572 0 127 127
0.248628 0.121037 -0.289040 127 0 127
-0.553028 -0.233596 0.022505 0 127 127
-0.257130 -0.236284 -0.186001 0 127 127
-0.474964 -0.209022 0.204171 127 127 0
-0.202010 0.238802 -0.321029 127 0 127
0.440433 -0.236564 0.063006 0 127 127
0.371822 -0.213885 -0.022391 127 127 0
-0.521059 -0.214827 0.378046 0 127 127
0.266457 -0.235632 -0.192291 0 127 127
-0.136652 0.218813 -0.308136 127 127 0
-0.186337 -0.215731 0.608179 0 127 127
0.223320 0.198349 -0.309277 127 0 127
-0.302326 0.492951 -0.394866 127 0 127
-0.137783 0.647336 -0.431551 127 127 0
0.305497 0.626904 -0.433783 127 0 127
-0.283375 -0.215591 -0.204862 0 127 127
-0.416287 0.604144 -0.427171 127 0 127
0.432864 -0.236564 -0.147919 0 127 127
-0.417590 -0.209022 -0.007719 127 127 0
0.043537 0.691937 -0.448040 127 0 127
0.233408 -0.224238 -0.203912 0 127 127
-0.010036 -0.156034 -0.201667 127 0 127
0.353121 0.129589 -0.290948 127 0 127
0.138538 0.705906 -0.456735 127 0 127
-0.367455 -0.130010 -0.223613 127 0 127
0.395795 0.451437 -0.378149 127 0 127
-0.203804 -0.215824 0.750963 0 127 127
-0.389676 -0.209354 0.315137 127 127 0
-0.540888 -0.210580 -0.018757 127 127 0
-0.359448 -0.210680 0.270511 127 127 0
-0.468520 -0.236873 -0.127297 0 127 127
0.262852 -0.214827 0.558657 0 127 127
-0.266569 0.518649 -0.402332 127 0 127
-0.517943 0.220452 -0.311045 127 0 127
-0.313369 -0.209022 0.325418 127 127 0
0.057992 -0.214827 0.078945 0 127 127
0.535778 -0.216587 -0.191916 127 0 127
0.081449 -0.209022 0.332581 127 127 0
-0.409905 0.164925 -0.299566 127 0 127
-0.291996 0.436658 -0.371436 127 127 0
-0.476848 0.516285 -0.401646 127 0 127
-0.357001 -0.053658 -0.245709 127 0 127
-0.244037 -0.210099 0.341499 127 127 0
-0.446160 -0.215827 0.653373 0 127 127
-0.028970 0.375547 -0.361257 127 0 127
-0.533799 -0.214828 0.647693 0 127 127
0.395477 -0.197086 -0.189849 127 0 127
-0.498308 -0.081578 -0.237684 127 0 127
0.414592 -0.236564 -0.065615 0 127 127
0.124270 0.643366 -0.431482 127 127 0
-0.307453 -0.214760 0.207471 127 127 0
-0.283123 -0.006261 -0.245159 127 0 127
0.457162 0.336657 -0.349459 127 0 127
0.043958 0.443720 -0.380563 127 0 127
-0.310311 0.366720 -0.353538 127 0 127
0.441949 -0.083767 -0.222652 127 0 127
-0.107001 -0.209022 0.145441 127 127 0
-0.198075 -0.233174 0.780476 0 127 127
0.310707 0.299200 -0.338577 127 0 127
-0.465762 -0.217813 0.335699 127 127 0
0.311045 -0.209476 0.040210 127 127 0
0.218179 0.243753 -0.317842 127 0 127
0.310142 -0.214827 0.008266 0 127 127
0.216525 -0.214827 -0.122893 0 127 127
-0.145158 -0.210826 0.254810 127 127 0
-0.041968 -0.218172 -0.022391 127 127 0
-0.011978 -0.205145 -0.201785 127 0 127
-0.508075 -0.218319 0.778819 0 127 127
0.216080 0.595170 -0.424563 127 0 127
0.028107 0.281239 -0.326167 127 127 0
-0.320929 0.054387 -0.273450 127 0 127
-0.551586 -0.217367 0.163999 0 127 127
0.291027 0.360929 -0.349413 127 127 0
0.488149 -0.059873 -0.229611 127 0 127
0.404939 -0.218067 0.143833 127 127 0
0.515656 0.700209 -0.447801 127 0 127
-0.115594 0.036371 -0.255095 127 127 0
-0.242050 0.074626 -0.278307 127 0 127
-0.362623 -0.214827 0.163812 0 127 127
0.538847 0.520507 -0.402872 127 0 127
-0.316970 0.035407 -0.268819 127 0 127
-0.248190 0.383375 -0.363032 127 0 127
-0.394493 -0.214827 0.121527 0 127 127
-0.244257 0.097902 -0.283768 127 0 127
-0.077626 -0.216026 0.586803 153 0 76
