ply
format ascii 1.0
element vertex 1235
property float x
property float y
property float z
property uchar red
property uchar green
property uchar blue
end_header
-0.183527 0.103573 -0.275345 127 0 127
-0.459960 -0.234849 0.503675 0 127 127
-0.519501 0.202135 -0.303980 127 0 127
-0.489421 -0.216746 0.288763 127 127 0
-0.282541 -0.209099 0.340282 127 127 0
0.038957 0.422478 -0.367995 127 0 127
0.481984 0.005196 -0.246764 127 0 127
0.128586 0.202604 -0.304116 127 0 127
0.038901 -0.218435 0.175355 127 127 0
-0.050874 -0.209022 0.229868 127 127 0
0.169586 -0.209022 0.010181 127 127 0
-0.029892 -0.216543 -0.109968 0 127 127
0.273320 -0.234849 0.179102 0 127 127
-0.143639 -0.209022 0.072563 0 127 127
0.222700 -0.231965 -0.198043 0 127 127
0.252250 -0.234849 0.516331 0 127 127
0.098244 -0.219196 0.486763 153 0 76
0.204751 0.424112 -0.368470 127 0 127
-0.371859 0.325042 -0.346084 127 127 0
0.418177 -0.089732 -0.219185 127 0 127
-0.196350 -0.216543 0.268121 127 127 0
-0.226927 0.534223 -0.400460 127 0 127
-0.402860 -0.234849 0.628722 0 127 127
0.550916 -0.224330 0.272834 0 127 127
-0.235761 -0.234849 -0.020951 0 127 127
-0.376732 0.683769 -0.450304 127 0 127
-0.210756 0.419811 -0.367220 127 0 127
0.221477 -0.234849 0.221695 0 127 127
0.158441 -0.234849 0.195258 0 127 127
-0.331368 -0.175897 -0.194151 127 0 127
-0.552381 0.568714 -0.410481 127 0 127
0.310850 -0.216543 -0.125024 0 127 127
0.325668 -0.182330 -0.208413 127 0 127
-0.259480 -0.234849 0.284278 0 127 127
0.472560 -0.234849 -0.178475 0 127 127
0.329224 0.016937 -0.264189 127 0 127
-0.022786 -0.218238 0.108064 127 127 0
-0.483103 -0.218071 0.624370 0 127 127
0.266831 -0.219523 0.411485 0 127 127
-0.244906 0.127520 -0.282302 127 127 0
-0.403192 0.265592 -0.322416 127 0 127
0.165910 -0.105214 -0.230817 127 0 127
-0.240287 -0.234849 0.390589 0 127 127
-0.549097 0.641111 -0.437911 127 0 127
-0.360237 -0.234849 -0.185415 0 127 127
-0.287914 0.309195 -0.335084 127 127 0
-0.119575 -0.234849 -0.052747 0 127 127
-0.527626 -0.234849 0.164854 0 127 127
0.006355 0.155449 -0.290416 127 0 127
0.190439 -0.216543 0.753453 0 127 127
-0.067570 0.615659 -0.430516 127 0 127
-0.548301 -0.231509 -0.198712 0 127 127
0.052951 0.621380 -0.432178 127 0 127
0.405656 0.032628 -0.254734 127 0 127
-0.113185 0.157226 -0.290933 127 0 127
0.058529 0.252689 -0.325563 127 0 127
0.491271 -0.216543 0.629943 0 127 127
0.019974 -0.216543 -0.151636 0 127 127
-0.315324 -0.234849 -0.052843 0 127 127
0.210554 0.166668 -0.300072 127 0 127
-0.017913 0.520600 -0.396502 127 0 127
-0.246799 -0.178863 -0.209420 127 0 127
-0.532028 0.442171 -0.373717 127 0 127
0.127277 -0.217207 -0.205094 0 127 127
-0.441828 0.634206 -0.429508 127 127 0
-0.303607 -0.216543 0.721117 0 127 127
-0.301889 -0.234849 0.234594 127 127 0
0.331589 0.136005 -0.284767 127 127 0
-0.163374 -0.218690 0.463138 153 0 76
0.098053 -0.209033 0.091948 127 127 0
0.071623 -0.216543 0.399127 0 127 127
-0.358533 -0.119013 -0.210678 127 0 127
-0.012511 -0.216543 0.425409 76 0 153
0.223078 0.091868 -0.282367 127 0 127
-0.099761 0.223913 -0.310307 127 0 127
0.311861 -0.234849 -0.053624 0 127 127
0.106584 -0.234849 0.282226 0 127 127
-0.492471 -0.218053 0.722000 0 127 127
0.528444 -0.155799 -0.199990 127 0 127
0.418110 0.661772 -0.437517 127 127 0
0.247047 -0.216543 -0.141823 0 127 127
0.268615 -0.209022 -0.010522 127 127 0
0.381183 -0.216543 -0.030800 127 127 0
-0.143428 0.442659 -0.373859 127 0 127
-0.540959 -0.215729 -0.066692 0 127 127
0.412389 0.225518 -0.317170 127 0 127
0.205139 -0.013465 -0.241342 127 127 0
-0.217300 0.219105 -0.308910 127 0 127
-0.271611 0.406024 -0.363215 127 0 127
-0.172323 -0.153714 -0.216727 127 0 127
0.062810 -0.172774 -0.193855 0 127 127
-0.051126 -0.234849 0.338206 0 127 127
-0.115845 -0.215584 0.643003 76 0 153
-0.046290 -0.176903 -0.194949 0 127 127
-0.496199 0.543955 -0.409684 127 0 127
-0.254677 0.723469 -0.456967 127 0 127
0.550796 0.543917 -0.403286 127 0 127
0.422032 -0.219661 0.277828 0 127 127
-0.488861 -0.209967 0.124341 127 127 0
0.040878 -0.217742 0.510492 153 0 76
-0.075887 0.419794 -0.367216 127 0 127
0.408560 -0.234849 0.744024 0 127 127
0.071935 -0.216543 0.742290 0 127 127
0.216578 -0.234849 -0.036730 0 127 127
0.002598 0.719701 -0.458325 127 0 127
-0.420955 -0.233903 -0.194723 0 127 127
-0.287127 0.022015 -0.265462 127 0 127
-0.318419 0.615923 -0.430593 127 0 127
-0.122175 0.036392 -0.255827 127 127 0
-0.370709 -0.210488 0.245894 127 127 0
0.276935 0.328151 -0.340591 127 0 127
-0.515690 -0.117880 -0.211007 127 0 127
0.444341 -0.234849 -0.058832 0 127 127
-0.327307 -0.209022 0.059763 127 127 0
-0.090327 -0.234849 0.725048 0 127 127
-0.041209 0.321067 -0.346177 127 0 127
0.410513 0.100939 -0.274580 127 0 127
0.255199 0.505817 -0.398604 127 127 0
0.002974 -0.234849 0.223722 0 127 127
0.341530 0.240066 -0.321396 127 0 127
0.357615 -0.234849 -0.161587 0 127 127
0.289231 -0.234849 0.045993 0 127 127
-0.068284 -0.234849 0.533598 0 127 127
0.215645 0.552756 -0.405845 127 0 127
-0.458622 -0.209039 -0.137138 0 127 127
0.157353 -0.209022 0.141695 127 127 0
0.030184 -0.209022 0.306453 127 127 0
-0.077835 -0.216543 0.286110 0 127 127
0.503716 0.166713 -0.293689 127 0 127
-0.287783 0.516180 -0.395218 127 127 0
0.203799 -0.234849 -0.100645 0 127 127
0.372784 0.339533 -0.343898 127 0 127
0.372999 -0.234849 0.474688 0 127 127
0.245383 -0.216543 0.718395 0 127 127
-0.552848 -0.233929 0.250916 0 127 127
-0.306829 -0.074702 -0.223551 127 127 0
0.268945 0.394579 -0.359890 127 0 127
-0.187634 -0.216543 0.729957 0 127 127
-0.340282 -0.009881 -0.242384 127 127 0
0.213889 0.696013 -0.447465 127 0 127
0.281326 -0.063081 -0.226927 127 127 0
-0.492860 0.272274 -0.330753 127 0 127
0.550796 0.640807 -0.436908 127 0 127
-0.422499 -0.052794 -0.229916 127 127 0
-0.193626 -0.218632 0.668297 0 127 127
-0.249315 -0.216543 0.503734 0 127 127
0.095556 0.722726 -0.455225 127 0 127
-0.330071 0.207253 -0.305467 127 0 127
0.326332 -0.216543 0.402897 0 127 127
-0.095843 -0.217742 0.452085 153 0 76
0.045162 -0.209733 0.040443 127 127 0
-0.139694 -0.234849 0.564366 0 127 127
-0.400716 -0.234849 0.534671 0 127 127
-0.436286 -0.209022 -0.040383 127 127 0
-0.175867 -0.216543 -0.139259 0 127 127
-0.226429 0.008865 -0.262165 127 0 127
-0.036282 -0.216543 0.732412 0 127 127
0.174766 -0.188757 -0.190415 127 0 127
-0.282859 0.239384 -0.321198 127 0 127
0.034768 -0.106499 -0.230444 127 0 127
-0.121514 0.522884 -0.397166 127 0 127
0.330505 0.303086 -0.333309 127 0 127
-0.028854 -0.034949 -0.235101 127 127 0
0.436943 -0.186793 -0.207117 127 0 127
0.340588 -0.209022 0.063465 127 127 0
0.204267 -0.219402 0.624905 0 127 127
0.015847 0.346407 -0.353539 127 0 127
-0.183943 0.049534 -0.259645 127 0 127
-0.280367 -0.218464 0.432997 0 127 127
-0.214059 -0.044465 -0.232336 127 127 0
-0.223296 -0.234849 0.596440 0 127 127
0.519107 -0.216543 -0.150436 0 127 127
0.188208 -0.216543 0.561421 0 127 127
-0.068328 0.059651 -0.262584 127 0 127
-0.253697 -0.087223 -0.236044 127 0 127
-0.506292 -0.216543 0.478213 0 127 127
0.296660 -0.234849 0.591806 0 127 127
0.208277 -0.209022 0.078991 0 127 127
0.136686 0.010479 -0.248299 127 0 127
0.112122 -0.209022 0.212180 127 127 0
0.363048 -0.101607 -0.231865 127 127 0
0.310512 0.679479 -0.449058 127 127 0
-0.264838 -0.216543 0.049551 127 127 0
-0.449187 -0.209022 0.217920 127 127 0
0.304203 -0.216543 0.296340 127 127 0
-0.040384 0.266691 -0.322735 127 0 127
0.303018 -0.234849 0.771261 0 127 127
0.082214 0.456845 -0.377980 127 0 127
-0.503026 -0.216543 -0.025821 0 127 127
0.393542 -0.216543 0.640433 0 127 127
0.440054 0.275111 -0.325181 127 127 0
0.189481 -0.234849 0.412477 0 127 127
0.005408 -0.214196 -0.204767 0 127 127
-0.153163 -0.209022 0.301246 127 127 0
0.163170 -0.234849 0.466234 0 127 127
-0.527722 -0.020710 -0.254516 127 0 127
-0.075253 -0.216543 -0.141553 0 127 127
0.480954 -0.209022 0.318747 127 127 0
0.123555 -0.234849 0.369020 0 127 127
0.403446 -0.216543 -0.125636 0 127 127
0.498271 0.106699 -0.285773 127 0 127
0.003845 -0.209610 -0.053056 127 127 0
-0.363929 -0.234849 -0.096576 0 127 127
-0.410354 -0.211716 0.142463 0 127 127
0.523191 -0.209022 0.159975 0 127 127
-0.426513 0.180772 -0.304170 127 0 127
-0.511234 -0.234849 0.580372 0 127 127
-0.517610 -0.216543 0.666259 0 127 127
-0.353913 -0.234849 0.437584 0 127 127
0.032380 0.109776 -0.277147 127 0 127
0.063929 0.311825 -0.343492 127 0 127
0.274135 -0.182615 -0.192200 127 0 127
0.550676 -0.221968 0.527146 0 127 127
0.550676 -0.225183 0.597488 0 127 127
0.260324 -0.209022 0.327144 0 127 127
0.127943 -0.215584 0.655378 153 76 0
0.229981 0.262063 -0.327787 127 0 127
-0.415319 -0.218203 0.719397 0 127 127
0.501486 -0.209022 0.223888 127 127 0
0.040090 -0.234849 0.594603 0 127 127
-0.071548 0.122187 -0.289302 127 0 127
-0.082303 -0.039797 -0.233692 127 0 127
-0.424778 -0.234849 -0.088072 0 127 127
0.436670 -0.209022 0.056257 127 127 0
0.358308 -0.216543 0.571316 0 127 127
-0.326636 0.666713 -0.445349 127 0 127
-0.083606 -0.209022 0.057788 127 127 0
0.550796 0.400653 -0.365647 127 0 127
-0.424048 -0.209022 0.032297 127 127 0
-0.068913 0.670891 -0.440166 127 127 0
-0.551897 -0.216543 0.756841 0 127 127
-0.312097 -0.218402 0.593959 0 127 127
-0.500733 0.025362 -0.252622 127 127 0
-0.498285 0.724136 -0.456652 127 0 127
0.448139 0.552974 -0.412304 127 127 0
0.145993 0.248176 -0.323752 127 0 127
-0.067761 -0.209022 0.148927 0 127 127
0.111293 0.592892 -0.417505 127 0 127
-0.434805 0.375507 -0.354349 127 0 127
-0.098257 -0.101763 -0.215689 127 0 127
-0.203075 0.576716 -0.419202 127 0 127
-0.047973 -0.217742 0.623084 0 127 127
0.130644 -0.219259 0.564058 0 127 127
0.166712 0.670420 -0.440029 127 127 0
-0.026454 -0.214838 -0.010920 127 127 0
0.315079 0.419252 -0.373455 127 0 127
-0.405965 -0.108615 -0.229829 127 0 127
-0.384308 0.569905 -0.410827 127 0 127
0.240549 0.207741 -0.312005 127 0 127
0.501429 -0.216543 0.469507 0 127 127
0.167361 0.607703 -0.428205 127 0 127
-0.086266 -0.216543 -0.087890 0 127 127
-0.288982 0.072257 -0.277749 127 0 127
0.372085 0.397296 -0.360679 127 127 0
0.343794 -0.219672 0.731559 0 127 127
-0.282776 -0.234849 -0.148506 0 127 127
0.261643 -0.120073 -0.210370 127 0 127
0.471353 0.628001 -0.427705 127 0 127
0.472351 -0.216543 0.735291 0 127 127
0.204757 -0.216543 0.505129 0 127 127
0.378101 -0.209022 0.020275 0 127 127
-0.345149 -0.234849 -0.011106 0 127 127
-0.455880 -0.234849 0.757999 0 127 127
-0.508398 -0.209039 -0.123737 127 127 0
-0.243591 -0.233636 -0.195386 0 127 127
-0.038255 -0.126637 -0.208463 127 0 127
-0.386914 0.217041 -0.308311 127 127 0
0.499128 -0.234849 0.002629 0 127 127
0.348876 -0.234849 0.321750 0 127 127
0.386384 0.143330 -0.293976 127 127 0
-0.168321 -0.234849 0.344937 0 127 127
0.152295 -0.216543 -0.110172 0 127 127
0.236252 0.595449 -0.424645 127 0 127
-0.347244 0.487523 -0.386893 127 0 127
0.363448 -0.234849 0.373430 0 127 127
-0.108876 -0.216543 0.378741 0 127 127
0.308069 -0.216543 0.657062 0 127 127
-0.496718 -0.071187 -0.224573 127 0 127
-0.297766 -0.234849 0.674494 0 127 127
0.500810 -0.234849 0.122969 0 127 127
0.501406 -0.234849 -0.093800 0 127 127
0.418071 0.317530 -0.343902 127 127 0
-0.340319 -0.218348 0.336785 0 127 127
0.425862 -0.209022 0.179052 127 127 0
-0.231269 -0.129971 -0.207494 127 0 127
-0.390750 -0.218250 0.582934 0 127 127
-0.209605 -0.209022 0.180904 127 127 0
0.525694 -0.053815 -0.245667 127 0 127
-0.327315 -0.234849 0.137409 0 127 127
0.018770 0.551886 -0.411988 127 0 127
-0.418039 -0.209022 0.302666 127 127 0
0.453405 -0.209022 0.237788 127 127 0
-0.394820 0.044833 -0.271128 127 0 127
-0.388088 0.518392 -0.402257 127 127 0
0.237664 0.038529 -0.256448 127 0 127
-0.119996 -0.013381 -0.256417 127 0 127
-0.358140 -0.216543 0.760896 0 127 127
0.419205 -0.234849 0.380963 0 127 127
0.104966 -0.217742 0.608407 153 0 76
0.458098 -0.234849 0.560615 0 127 127
0.374416 -0.196439 -0.188183 127 0 127
0.550336 -0.234849 -0.056983 0 127 127
-0.490406 0.370590 -0.359317 127 0 127
-0.136616 -0.218742 0.743084 0 127 127
0.410531 0.427358 -0.369413 127 0 127
0.484525 -0.188289 -0.190551 127 0 127
0.120669 0.153319 -0.296194 127 0 127
-0.385969 -0.216543 0.672005 0 127 127
0.263443 -0.234849 0.464547 0 127 127
-0.304919 -0.234849 0.529650 0 127 127
-0.121439 -0.211594 0.134827 127 127 0
0.484548 0.723967 -0.455586 127 0 127
-0.503711 -0.209022 0.335241 127 127 0
-0.245510 -0.209022 0.106662 127 127 0
0.385122 -0.211201 0.108649 127 127 0
-0.122075 0.322994 -0.345489 127 127 0
-0.146160 -0.192339 -0.189375 127 0 127
0.064895 -0.209022 0.128085 127 127 0
0.502119 -0.234849 0.770612 0 127 127
0.135365 -0.234849 -0.013430 0 127 127
-0.433345 -0.144856 -0.203170 127 0 127
-0.218356 -0.234849 0.024700 0 127 127
-0.151402 0.617941 -0.424783 127 0 127
-0.145513 -0.113174 -0.212374 127 0 127
-0.336774 -0.209022 0.206782 127 127 0
-0.552848 -0.231986 0.041393 0 127 127
-0.346555 -0.218336 0.506598 0 127 127
-0.497632 0.160531 -0.291893 127 127 0
0.405078 0.471533 -0.388644 127 127 0
0.256185 0.673260 -0.440854 127 0 127
0.370596 -0.009939 -0.257306 127 0 127
0.014961 -0.234849 0.133353 0 127 127
-0.517441 -0.193943 -0.188908 127 0 127
-0.422478 -0.234849 0.450852 0 127 127
-0.104980 0.588713 -0.416291 127 0 127
0.027320 -0.234849 0.404344 0 127 127
0.091314 -0.234849 0.441742 0 127 127
-0.167542 0.664450 -0.438295 127 127 0
0.522841 -0.209022 0.064951 127 127 0
0.008972 0.054204 -0.273405 127 0 127
0.503000 -0.116610 -0.227507 127 0 127
0.499205 0.477714 -0.390439 127 0 127
-0.143061 0.200609 -0.303536 127 0 127
0.292226 -0.209022 0.141189 0 127 127
-0.551916 -0.216546 0.203783 0 127 127
0.418209 -0.219816 0.471754 0 127 127
-0.203133 -0.234849 -0.104716 0 127 127
-0.443367 -0.218148 0.394652 0 127 127
0.504564 -0.234849 0.513576 0 127 127
-0.369779 -0.234849 0.288641 0 127 127
0.442383 -0.234849 0.333332 0 127 127
0.492163 0.276738 -0.325654 127 0 127
0.066480 -0.209022 -0.018442 127 127 0
0.308859 0.595859 -0.418367 127 127 0
-0.440067 0.091273 -0.271771 127 127 0
0.399565 0.563773 -0.415442 127 0 127
-0.224629 0.169985 -0.301036 127 0 127
0.074776 -0.133677 -0.222548 127 0 127
-0.408750 -0.234849 0.215513 0 127 127
-0.414233 -0.234849 -0.007543 0 127 127
-0.189023 -0.234849 -0.027706 0 127 127
0.379187 0.608133 -0.421933 127 127 0
0.075072 0.518661 -0.395939 127 0 127
-0.007440 -0.077329 -0.222788 127 127 0
0.182539 0.382652 -0.362821 127 127 0
-0.483224 -0.234849 0.083599 0 127 127
0.228369 -0.234849 0.115420 0 127 127
-0.267544 -0.234849 0.745027 0 127 127
0.450831 0.501295 -0.397290 127 0 127
0.157629 0.466020 -0.387042 127 0 127
0.514794 0.437047 -0.372228 127 0 127
0.060803 -0.234849 -0.136874 0 127 127
-0.432185 0.504868 -0.391932 127 127 0
-0.484486 -0.216543 0.543591 0 127 127
-0.308898 0.570125 -0.410891 127 0 127
0.190303 -0.209022 0.304660 127 127 0
-0.453599 0.588902 -0.422742 127 0 127
0.093886 -0.234849 0.053228 0 127 127
-0.140447 -0.234849 -0.010961 0 127 127
0.139569 -0.218757 0.045659 127 127 0
0.167285 0.084724 -0.269869 127 0 127
0.465365 0.363420 -0.350837 127 0 127
0.230031 0.313672 -0.342781 127 0 127
-0.510141 -0.218019 0.428558 0 127 127
0.076603 -0.234849 0.697548 0 127 127
-0.447483 0.279635 -0.326496 127 0 127
0.389750 -0.062504 -0.243226 127 0 127
0.068855 -0.234849 0.207025 0 127 127
-0.438911 -0.188684 -0.190436 127 0 127
-0.114888 -0.228041 0.782820 0 127 127
-0.315888 0.165149 -0.293234 127 0 127
0.159641 0.517630 -0.395640 127 0 127
0.110204 -0.234849 -0.166318 0 127 127
0.167784 -0.145295 -0.203042 127 0 127
0.113242 0.540511 -0.408684 127 0 127
0.391284 0.697406 -0.447869 127 0 127
0.337387 -0.219659 0.499073 0 127 127
-0.277737 -0.217423 -0.033231 127 127 0
-0.198419 -0.234849 0.410634 0 127 127
0.502692 -0.234849 0.678451 0 127 127
0.167735 -0.216543 0.364910 0 127 127
0.126113 0.688945 -0.451808 127 0 127
-0.552848 -0.221721 0.493472 0 127 127
0.304568 0.099221 -0.284069 127 0 127
0.446109 0.198308 -0.302868 127 0 127
0.006835 -0.217742 0.479595 153 0 76
0.438471 -0.216543 0.648061 0 127 127
0.454686 0.406699 -0.363411 127 127 0
0.004751 -0.234849 0.064375 0 127 127
-0.094992 -0.209022 0.218777 0 127 127
-0.216280 0.318037 -0.337653 127 0 127
-0.426671 0.435247 -0.371705 127 0 127
-0.168034 -0.047746 -0.231383 127 0 127
0.105566 -0.053161 -0.245846 127 0 127
-0.191803 0.352559 -0.354078 127 0 127
0.235368 -0.209022 0.256267 127 127 0
0.105641 0.336717 -0.343080 127 0 127
0.094190 0.401367 -0.368258 127 0 127
-0.367765 -0.209039 -0.148977 0 127 127
-0.114485 0.396358 -0.360407 127 0 127
0.407366 -0.209022 -0.066934 127 127 0
0.021025 -0.218378 0.261803 0 127 127
0.102249 0.237169 -0.320554 127 0 127
0.433145 -0.216543 -0.161942 0 127 127
-0.045243 -0.234849 0.578706 0 127 127
-0.420985 0.679526 -0.442675 127 127 0
0.323675 -0.209022 0.234248 127 127 0
-0.295790 -0.234849 -0.098981 0 127 127
0.043060 -0.234849 0.353598 0 127 127
-0.024822 -0.229479 0.782807 0 127 127
0.166572 0.175293 -0.296182 127 127 0
-0.246355 0.626737 -0.427338 127 0 127
-0.393730 -0.216543 0.071813 127 127 0
-0.473953 -0.234849 0.245104 0 127 127
-0.151630 0.134156 -0.284230 127 0 127
0.415890 -0.216543 0.568721 0 127 127
0.506743 -0.234849 0.371433 0 127 127
-0.176003 -0.234849 0.049035 0 127 127
0.387986 -0.234849 0.599912 0 127 127
0.349812 -0.234849 0.664997 0 127 127
0.145323 -0.216543 0.742102 0 127 127
0.043193 0.008838 -0.262158 127 0 127
0.361592 -0.234849 0.228051 0 127 127
-0.144948 -0.209022 0.172733 127 127 0
-0.183539 -0.217742 0.571400 0 127 127
0.261580 -0.234849 0.365591 0 127 127
0.322650 0.461490 -0.385726 127 127 0
0.097375 0.030973 -0.254253 127 127 0
-0.362274 0.126669 -0.290305 127 0 127
-0.230939 0.671841 -0.446838 127 0 127
-0.179665 0.537191 -0.407719 127 0 127
-0.159288 -0.234849 -0.176220 0 127 127
0.342618 -0.141491 -0.204147 127 0 127
-0.484615 -0.234849 0.391398 0 127 127
0.132762 -0.234849 0.242186 0 127 127
-0.088066 -0.192971 -0.189191 0 127 127
0.364911 0.531106 -0.399555 127 0 127
0.177502 -0.232521 -0.197227 0 127 127
0.215454 -0.119839 -0.210438 127 0 127
-0.552728 0.317468 -0.338509 127 0 127
-0.168945 -0.234849 0.098038 0 127 127
-0.059819 0.507052 -0.392566 127 127 0
-0.224848 -0.216543 0.637092 0 127 127
0.458439 -0.104358 -0.231066 127 0 127
0.520231 0.232965 -0.312937 127 0 127
0.187600 -0.234849 0.042657 0 127 127
-0.350077 0.085555 -0.270110 127 127 0
-0.279158 -0.209022 0.134998 127 127 0
-0.372459 0.437352 -0.378713 127 127 0
0.306721 -0.019761 -0.254769 127 0 127
-0.203055 0.466596 -0.380813 127 0 127
0.231115 0.457827 -0.378265 127 127 0
-0.439798 -0.216543 0.610313 0 127 127
0.314812 0.546956 -0.410556 127 127 0
-0.452950 -0.234849 0.308086 0 127 127
0.515582 0.310798 -0.341946 127 0 127
0.121508 -0.209022 0.316625 0 127 127
0.064688 -0.234849 0.299002 0 127 127
-0.018518 -0.234849 0.678929 0 127 127
-0.290432 -0.181159 -0.208753 127 0 127
-0.395022 0.722803 -0.457246 127 0 127
0.516285 -0.234849 0.297219 0 127 127
-0.189901 0.277206 -0.325790 127 127 0
-0.059684 -0.234849 0.008937 0 127 127
-0.489632 -0.216745 0.182534 0 127 127
-0.330996 0.302465 -0.339525 127 127 0
0.426337 -0.216543 0.422920 0 127 127
-0.054879 -0.234849 0.077670 127 127 0
-0.408825 0.144384 -0.287202 127 0 127
-0.351924 -0.234849 0.598854 0 127 127
0.347868 -0.209022 -0.060430 127 127 0
0.169729 -0.234849 0.650760 0 127 127
-0.028484 -0.234849 0.387656 0 127 127
-0.148662 0.067885 -0.276720 127 0 127
0.060616 -0.209022 -0.065936 127 127 0
-0.279735 0.347741 -0.352679 127 0 127
-0.160760 -0.234849 0.508566 0 127 127
-0.276357 -0.209022 0.210383 127 127 0
-0.551063 0.071442 -0.277557 127 0 127
-0.128791 -0.234849 0.428492 0 127 127
-0.358465 -0.218313 0.380745 0 127 127
-0.465345 -0.209170 0.054036 127 127 0
0.344993 -0.223475 -0.204174 0 127 127
0.353758 -0.209022 0.140194 127 127 0
-0.338728 -0.218351 0.682878 0 127 127
0.198389 -0.209839 0.195570 127 127 0
0.258669 -0.209022 0.210059 127 127 0
-0.522802 -0.209022 0.011950 127 127 0
0.382753 -0.216543 0.190102 0 127 127
0.195468 -0.055284 -0.245264 127 0 127
-0.045436 0.225857 -0.310872 127 0 127
-0.079347 -0.217742 0.494883 153 0 76
-0.552848 -0.234036 0.570788 0 127 127
-0.015626 -0.217742 0.516919 153 0 76
-0.030107 0.559847 -0.407905 127 0 127
-0.200845 -0.217669 0.225153 0 127 127
-0.000241 -0.234849 0.323561 0 127 127
0.456729 0.111826 -0.277743 127 0 127
0.222118 -0.209022 -0.003304 127 127 0
-0.032444 0.037781 -0.269413 127 0 127
-0.100012 -0.215584 0.684325 76 0 153
0.029755 -0.234849 0.550243 0 127 127
-0.090534 -0.209418 -0.035058 127 127 0
-0.530596 -0.209022 0.277130 127 127 0
-0.118855 -0.234849 0.049769 0 127 127
0.079788 -0.234849 -0.093600 0 127 127
-0.296909 0.474111 -0.382996 127 127 0
0.122599 -0.113729 -0.228344 127 0 127
0.419736 -0.216543 0.705142 0 127 127
0.090142 -0.234292 0.778748 0 127 127
0.034626 -0.234849 0.655956 0 127 127
0.421211 -0.130247 -0.207414 127 0 127
0.086955 0.657947 -0.436406 127 0 127
0.123470 -0.234849 0.113711 0 127 127
0.408567 0.179108 -0.297290 127 0 127
0.385136 -0.234849 0.291575 0 127 127
-0.217438 -0.209022 -0.052050 127 127 0
0.005397 -0.209022 0.022156 0 127 127
-0.031335 0.135907 -0.284739 127 0 127
-0.052863 -0.217474 0.447955 153 0 76
0.239589 -0.046948 -0.247535 127 0 127
0.535545 -0.212825 -0.015734 127 127 0
-0.134498 0.284356 -0.334264 127 127 0
0.439009 -0.234849 0.145373 0 127 127
-0.342109 0.405483 -0.369454 127 0 127
0.542303 0.680146 -0.449251 127 0 127
0.345050 -0.234849 0.441459 0 127 127
0.550194 -0.234849 0.739905 0 127 127
0.032846 -0.234849 0.733005 0 127 127
0.483374 -0.219942 0.413389 0 127 127
-0.198878 -0.216543 0.372984 0 127 127
0.510001 0.356109 -0.348713 127 0 127
-0.158908 -0.234849 0.650879 0 127 127
-0.263705 -0.216543 0.596070 0 127 127
0.187126 -0.234849 0.122239 0 127 127
0.103009 -0.234849 0.525141 0 127 127
-0.441216 -0.000432 -0.245129 127 0 127
0.529299 0.509117 -0.393166 127 0 127
0.126894 0.106498 -0.285727 127 0 127
-0.163394 -0.234849 0.249428 0 127 127
-0.078385 -0.234849 0.645841 0 127 127
-0.360553 -0.209022 0.148534 0 127 127
0.118259 -0.218689 -0.080945 127 127 0
-0.065245 -0.234849 0.200567 0 127 127
0.046619 0.145785 -0.294517 127 0 127
-0.415764 -0.216543 0.363567 0 127 127
-0.200498 -0.218618 0.484556 0 127 127
0.550676 -0.233607 -0.171835 0 127 127
-0.519602 0.478487 -0.390664 127 0 127
-0.552728 0.225738 -0.311790 127 0 127
-0.185468 -0.234849 0.304014 0 127 127
0.185664 0.338170 -0.343502 127 127 0
-0.130072 -0.217742 0.600862 0 127 127
0.418415 -0.234849 0.095095 0 127 127
-0.204879 -0.234849 0.118590 0 127 127
-0.152342 -0.234849 -0.088374 0 127 127
0.023417 0.653459 -0.441498 127 127 0
0.550676 -0.232313 0.379958 0 127 127
0.304234 -0.234849 0.084500 0 127 127
0.490033 0.565326 -0.415893 127 0 127
-0.226837 -0.216543 0.555105 0 127 127
-0.515613 0.405812 -0.363153 127 0 127
-0.346042 0.588867 -0.416336 127 127 0
-0.117167 -0.216543 -0.159612 0 127 127
0.020212 0.192807 -0.307666 127 0 127
-0.223285 -0.234849 0.746068 0 127 127
0.144378 0.314180 -0.336532 127 0 127
0.271739 -0.219532 0.551798 0 127 127
0.328742 -0.079848 -0.238187 127 0 127
-0.250882 -0.234849 0.328937 0 127 127
-0.285560 -0.216543 0.381101 0 127 127
-0.321386 -0.209022 0.100406 0 127 127
-0.361171 0.368663 -0.352361 127 0 127
-0.243373 -0.209022 0.251413 0 127 127
0.364530 0.035997 -0.255712 127 0 127
-0.130987 -0.234849 0.211036 0 127 127
0.460956 -0.029886 -0.236571 127 127 0
-0.517385 0.123644 -0.281176 127 0 127
0.445883 0.025526 -0.252670 127 127 0
-0.209492 -0.168845 -0.196200 127 0 127
0.264814 -0.219158 0.285964 0 127 127
0.475193 -0.211481 -0.071862 127 127 0
-0.282856 0.141871 -0.286472 127 0 127
0.278130 -0.219544 0.742844 0 127 127
-0.438661 -0.215824 0.532742 0 127 127
-0.259620 -0.234849 0.012071 0 127 127
0.456945 0.686281 -0.444637 127 0 127
-0.552848 -0.216649 0.409230 0 127 127
0.398078 -0.228973 0.782820 0 127 127
-0.289412 0.703742 -0.449710 127 0 127
-0.402963 0.351080 -0.347252 127 0 127
0.364416 0.486511 -0.386599 127 127 0
-0.390643 -0.208013 -0.186571 127 0 127
0.178841 -0.234849 -0.021855 0 127 127
-0.327813 -0.216543 -0.169359 0 127 127
0.254574 -0.209983 0.053091 127 127 0
0.286716 0.026039 -0.266471 127 0 127
0.480396 -0.219936 0.590968 0 127 127
0.300997 0.161491 -0.292172 127 0 127
0.358057 -0.234849 0.533470 0 127 127
-0.204720 0.135917 -0.292343 127 0 127
0.203551 -0.209022 -0.064845 127 127 0
-0.479542 0.195144 -0.301949 127 0 127
0.317467 -0.234849 0.162389 0 127 127
0.094679 -0.202571 -0.186402 127 0 127
-0.448513 -0.209022 0.129191 127 127 0
-0.342478 -0.209022 0.022439 0 127 127
-0.103648 0.690948 -0.445993 127 0 127
0.471412 -0.210791 -0.022377 127 127 0
-0.302465 -0.234849 0.316634 0 127 127
-0.124866 -0.234849 0.287092 0 127 127
-0.104144 -0.217742 0.556468 153 0 76
0.299968 -0.234849 0.209240 0 127 127
0.067617 -0.234849 0.018480 0 127 127
0.314119 0.722709 -0.457285 127 0 127
-0.289639 -0.212128 0.270482 127 127 0
-0.413188 0.599815 -0.419517 127 0 127
-0.417975 -0.234849 0.497760 0 127 127
-0.536771 -0.216543 -0.161992 0 127 127
-0.326923 -0.047354 -0.247427 127 0 127
0.416122 -0.234849 0.025460 0 127 127
0.036768 0.382425 -0.356359 127 127 0
0.296202 -0.155459 -0.216220 127 0 127
0.483496 -0.209022 0.085741 127 127 0
0.206827 -0.216543 -0.145263 0 127 127
-0.318976 -0.216543 0.443952 0 127 127
-0.082423 -0.209022 0.337138 127 127 0
-0.552728 -0.127480 -0.222301 127 0 127
-0.034057 -0.209022 0.313055 0 127 127
-0.264660 0.547379 -0.404282 127 127 0
0.087244 0.081512 -0.279929 127 0 127
0.423405 -0.234849 -0.096425 0 127 127
-0.452727 -0.209524 0.271149 127 127 0
0.229219 0.131626 -0.283495 127 127 0
-0.337382 -0.234849 0.252595 0 127 127
0.264145 -0.234849 -0.040412 0 127 127
0.530218 -0.234849 0.240608 0 127 127
-0.011008 -0.234849 -0.080212 0 127 127
-0.076175 -0.234849 -0.182486 0 127 127
-0.346431 -0.209022 -0.068177 127 127 0
0.262412 0.174579 -0.295974 127 0 127
-0.019994 -0.209022 0.254719 127 127 0
-0.474967 0.308442 -0.334865 127 0 127
0.229046 -0.216543 0.542721 0 127 127
0.319836 0.054306 -0.273430 127 0 127
0.259496 -0.217029 -0.205074 127 0 127
0.473944 -0.216543 0.148244 0 127 127
-0.515005 0.240916 -0.321643 127 0 127
0.147775 -0.234849 0.283720 0 127 127
-0.426580 -0.210588 0.183364 127 127 0
0.356825 -0.219452 -0.125292 0 127 127
0.386801 -0.209022 0.248069 0 127 127
0.033977 -0.234849 -0.050602 0 127 127
0.077183 -0.209022 0.173612 127 127 0
0.550676 -0.231478 0.692504 0 127 127
-0.029555 0.625221 -0.433294 127 127 0
0.055858 0.722245 -0.457479 127 0 127
0.061089 -0.068874 -0.241375 127 0 127
-0.134284 0.483846 -0.385824 127 127 0
-0.543242 -0.234849 0.352224 0 127 127
0.446149 -0.234849 0.209190 0 127 127
-0.523856 -0.234849 0.081022 0 127 127
-0.090531 -0.234849 0.247932 0 127 127
-0.323657 -0.137009 -0.205449 127 0 127
0.323999 -0.216543 -0.169790 0 127 127
0.228881 -0.234849 0.750684 0 127 127
0.298369 -0.234849 0.507409 0 127 127
-0.045881 0.358567 -0.356323 127 0 127
0.550796 0.159242 -0.293775 127 0 127
0.153230 -0.219303 0.684973 0 127 127
-0.524881 -0.236071 0.736503 0 127 127
0.102169 -0.209022 0.253276 127 127 0
0.003421 -0.209022 0.160255 127 127 0
-0.465302 -0.234849 -0.036568 0 127 127
0.118951 -0.209022 -0.037653 127 127 0
0.267800 -0.234849 0.618074 76 0 153
0.131668 -0.209022 0.171020 127 127 0
0.172877 -0.234849 0.717961 0 127 127
0.428019 -0.234849 0.532778 0 127 127
-0.255977 -0.217492 -0.120305 0 127 127
-0.247764 -0.216543 0.180458 127 127 0
-0.463338 0.451515 -0.376431 127 0 127
0.223566 -0.219439 0.401911 0 127 127
0.266262 0.237046 -0.314122 127 0 127
-0.232816 -0.209623 0.296885 127 127 0
-0.515425 -0.234849 -0.095687 0 127 127
0.224287 -0.234849 0.181224 0 127 127
0.023890 -0.182527 -0.192225 127 0 127
0.515287 0.015331 -0.263786 127 0 127
0.508995 0.636736 -0.430243 127 0 127
0.276759 -0.234849 -0.123689 0 127 127
0.263401 -0.234849 0.140957 0 127 127
-0.478343 -0.216543 0.664913 0 127 127
0.549932 0.583226 -0.414697 127 0 127
-0.536286 0.677357 -0.442045 127 0 127
0.034881 0.588555 -0.422642 127 0 127
-0.130410 -0.234849 0.100472 0 127 127
-0.552848 -0.230229 0.658437 0 127 127
0.188886 -0.234849 0.160770 0 127 127
0.260895 0.100694 -0.274508 127 0 127
-0.000797 0.421055 -0.367582 127 0 127
-0.372844 -0.027936 -0.252593 127 0 127
-0.337784 -0.095241 -0.233715 127 0 127
0.071817 -0.234849 0.617909 0 127 127
-0.401435 -0.234849 0.104775 0 127 127
0.298619 -0.216543 -0.084759 0 127 127
0.424796 0.065098 -0.276054 127 0 127
0.549864 -0.234849 0.077289 0 127 127
-0.265011 -0.234849 0.464160 0 127 127
0.319194 -0.234849 0.262305 0 127 127
-0.481312 -0.129022 -0.223901 127 0 127
0.083120 0.159574 -0.291615 127 127 0
0.331225 0.204606 -0.311094 127 0 127
-0.400058 -0.209039 -0.101937 0 127 127
-0.187869 -0.234849 0.162748 0 127 127
-0.248377 0.435656 -0.371824 127 127 0
-0.517269 -0.155192 -0.200167 127 0 127
0.238411 -0.234849 0.077275 0 127 127
0.470424 -0.209022 0.015824 127 127 0
-0.424171 -0.218185 0.656314 0 127 127
0.195964 -0.234849 0.254697 0 127 127
-0.018598 0.193598 -0.307896 127 127 0
-0.450670 -0.234849 0.719015 0 127 127
-0.124170 -0.234849 0.471087 0 127 127
0.414646 -0.234849 -0.029915 0 127 127
-0.080436 0.324729 -0.339597 127 0 127
-0.152222 -0.213365 -0.040194 127 127 0
0.364737 0.112583 -0.277963 127 127 0
0.404741 -0.234849 0.672243 0 127 127
-0.389836 -0.209471 0.008682 127 127 0
0.170080 -0.013881 -0.256288 127 0 127
-0.464853 0.523182 -0.403649 127 0 127
0.455984 -0.234849 0.080627 0 127 127
0.482695 0.039081 -0.269729 127 0 127
0.035451 -0.216543 0.213194 0 127 127
0.267073 -0.234849 0.685438 0 127 127
0.020761 0.257021 -0.326322 127 127 0
-0.521980 -0.234849 0.121588 0 127 127
-0.262963 -0.216543 0.669261 0 127 127
-0.298013 -0.234849 0.052220 0 127 127
-0.542828 0.601806 -0.426491 127 0 127
0.381419 0.247476 -0.317153 127 127 0
-0.476571 -0.216543 0.587033 0 127 127
-0.333722 -0.234849 0.735085 0 127 127
0.231222 0.397985 -0.360879 127 0 127
0.292708 -0.234849 0.388457 0 127 127
-0.533987 0.536736 -0.401190 127 0 127
-0.236908 -0.216543 0.423541 0 127 127
-0.552728 0.184049 -0.303299 127 0 127
0.002868 -0.216543 0.746988 0 127 127
0.495781 0.202204 -0.304000 127 0 127
-0.204337 -0.216543 0.775627 0 127 127
-0.387251 -0.215824 0.442025 0 127 127
0.104384 -0.234849 0.403400 0 127 127
-0.479966 0.100886 -0.284448 127 0 127
0.212381 -0.234849 0.329283 0 127 127
0.142990 -0.216543 -0.170216 0 127 127
-0.369349 0.283392 -0.327587 127 0 127
0.304107 -0.213905 -0.022391 127 127 0
0.137699 -0.219273 0.490555 0 127 127
-0.181660 0.204508 -0.304669 127 127 0
-0.199506 -0.234849 -0.172061 0 127 127
-0.400375 0.649211 -0.433867 127 127 0
0.550407 -0.234849 0.163629 0 127 127
-0.360785 -0.234849 0.072595 0 127 127
-0.011299 -0.210377 0.195295 127 127 0
-0.141258 -0.216543 0.025655 127 127 0
0.022132 0.456603 -0.377910 127 127 0
0.133842 -0.182423 -0.192255 127 0 127
0.041014 -0.140675 -0.204384 127 0 127
-0.458886 -0.220027 -0.204949 0 127 127
0.190123 0.581248 -0.414122 127 0 127
-0.028685 0.696626 -0.454039 127 0 127
-0.047044 -0.234849 0.260175 0 127 127
0.545208 0.086217 -0.270303 127 0 127
0.141339 -0.077955 -0.222606 127 127 0
-0.461796 -0.064637 -0.242606 127 0 127
-0.253304 0.324540 -0.339542 127 127 0
0.289752 0.519904 -0.402697 127 0 127
0.507300 -0.022202 -0.254119 127 0 127
-0.221521 0.498597 -0.390110 127 0 127
-0.186489 -0.209022 0.077314 0 127 127
-0.136205 -0.163078 -0.214006 127 0 127
0.353310 -0.234849 0.030900 0 127 127
-0.011857 -0.234849 -0.137027 0 127 127
-0.001746 -0.120504 -0.226375 127 0 127
0.334320 -0.216543 0.693570 0 127 127
-0.330608 -0.234849 0.176658 0 127 127
0.518826 -0.081441 -0.221593 127 0 127
-0.060312 0.454122 -0.377189 127 0 127
0.121554 0.457095 -0.384449 127 0 127
-0.214563 -0.209022 -0.004514 127 127 0
-0.367365 0.016828 -0.250143 127 0 127
-0.392366 -0.234849 0.747376 0 127 127
0.066506 -0.216543 0.072829 0 127 127
-0.057167 -0.216543 0.369988 0 127 127
-0.478391 0.640586 -0.431362 127 0 127
0.111247 -0.234849 0.744235 0 127 127
-0.444542 -0.215824 0.473866 0 127 127
0.505698 -0.209022 0.032036 0 127 127
-0.485324 0.058010 -0.274331 127 0 127
0.499343 0.072037 -0.266183 127 0 127
-0.153257 0.343982 -0.351587 127 127 0
0.436105 -0.058563 -0.228240 127 127 0
-0.159064 -0.087705 -0.235904 127 0 127
-0.356894 -0.159173 -0.215141 127 0 127
0.160503 -0.209022 0.221721 0 127 127
-0.031887 -0.003917 -0.258862 127 0 127
0.547584 -0.234849 0.430886 0 127 127
0.212278 -0.225727 0.782463 0 127 127
-0.507835 -0.237006 -0.151404 0 127 127
0.468759 -0.234849 0.481873 0 127 127
-0.073467 0.248966 -0.317585 127 0 127
0.091745 0.621586 -0.432238 127 0 127
0.258152 -0.090594 -0.235065 127 0 127
0.330033 -0.209083 0.340219 127 127 0
-0.347262 0.639674 -0.431097 127 0 127
-0.277737 -0.218469 0.776438 0 127 127
-0.080009 -0.132985 -0.222749 127 0 127
0.295990 0.486888 -0.386708 127 0 127
0.261233 0.357862 -0.355619 127 127 0
-0.301541 -0.234849 0.627083 0 127 127
-0.031829 -0.209022 -0.062290 0 127 127
0.463377 0.592848 -0.417492 127 0 127
-0.297784 0.272824 -0.324517 127 127 0
-0.031921 -0.212113 -0.204069 0 127 127
0.001355 0.486917 -0.386717 127 0 127
-0.089411 0.185918 -0.305665 127 0 127
0.302782 0.239503 -0.321233 127 0 127
0.522992 -0.234849 0.627135 0 127 127
0.200683 -0.234849 0.590716 0 127 127
-0.303407 -0.003177 -0.244331 127 127 0
-0.255831 -0.216543 -0.165326 0 127 127
-0.002604 -0.219001 0.597713 0 127 127
0.295628 -0.234849 0.428127 0 127 127
-0.211731 0.384658 -0.357008 127 0 127
-0.452996 -0.234849 0.641110 0 127 127
-0.255187 0.215874 -0.307971 127 0 127
0.224420 -0.196797 -0.188079 127 0 127
-0.392983 -0.139118 -0.204837 127 0 127
0.168563 -0.227789 0.782820 0 127 127
-0.510337 -0.234849 -0.056615 0 127 127
-0.426160 -0.234849 0.061552 0 127 127
-0.160888 -0.209022 0.223684 127 127 0
-0.154949 0.023756 -0.265898 127 0 127
-0.520315 -0.234849 0.634277 0 127 127
0.048147 -0.215584 0.685146 153 76 0
-0.514652 -0.234849 0.256804 0 127 127
0.056003 -0.024714 -0.238074 127 127 0
-0.363123 -0.234849 0.219641 0 127 127
-0.282568 0.620175 -0.425432 127 127 0
-0.552728 0.107758 -0.280428 127 0 127
0.241457 -0.234849 0.433967 0 127 127
0.117856 0.371691 -0.359637 127 0 127
-0.057060 0.582151 -0.420781 127 0 127
0.310467 -0.216543 0.620121 76 0 153
-0.371982 -0.209022 0.314215 127 127 0
0.342519 0.606090 -0.427736 127 0 127
0.549584 -0.184354 -0.207825 127 0 127
0.451485 -0.221300 -0.204811 127 0 127
-0.506930 -0.234849 0.511580 0 127 127
-0.161139 0.700287 -0.455103 127 0 127
0.286422 -0.234849 0.007770 0 127 127
0.155696 0.044821 -0.258276 127 127 0
-0.485351 -0.209022 0.019316 127 127 0
-0.296189 -0.209022 -0.069693 127 127 0
-0.283655 0.439603 -0.379367 127 0 127
0.182303 0.261524 -0.321234 127 0 127
0.231485 -0.234849 0.678436 0 127 127
-0.507736 0.512562 -0.394167 127 127 0
-0.224368 0.092301 -0.282469 127 0 127
0.317521 0.647467 -0.433361 127 0 127
0.390004 0.066002 -0.264430 127 0 127
-0.384507 -0.209030 0.205633 127 127 0
-0.455939 0.669471 -0.439754 127 0 127
0.061649 -0.219126 0.476976 153 0 76
0.169316 0.419205 -0.373441 127 0 127
-0.447646 -0.234849 -0.159824 0 127 127
-0.050183 -0.234849 0.130895 0 127 127
-0.399374 0.302649 -0.339578 127 0 127
0.478355 -0.209022 -0.143547 0 127 127
-0.465045 0.345999 -0.352173 127 0 127
0.037541 0.224367 -0.318083 127 0 127
-0.246799 -0.216543 0.360257 0 127 127
0.481089 0.138355 -0.285450 127 0 127
-0.344644 -0.218339 0.469103 0 127 127
-0.457391 -0.234849 -0.103241 0 127 127
0.104742 -0.234849 0.674976 0 127 127
-0.407015 -0.209022 0.240479 127 127 0
0.334493 -0.219381 -0.097114 0 127 127
0.512599 -0.234849 0.087742 0 127 127
0.252190 0.426000 -0.369019 127 127 0
-0.267024 -0.234849 0.243393 0 127 127
0.003935 -0.022723 -0.253981 127 0 127
-0.273920 -0.234849 0.701848 0 127 127
-0.515588 0.572925 -0.418101 127 0 127
-0.177844 0.430430 -0.376702 127 0 127
0.550796 0.309286 -0.335439 127 0 127
-0.225858 -0.234849 -0.075396 0 127 127
0.013893 0.621089 -0.425697 127 0 127
0.452667 -0.234849 0.035418 0 127 127
0.125090 -0.217742 0.453949 153 0 76
-0.108749 -0.209022 0.307191 127 127 0
0.478403 -0.234849 0.232681 0 127 127
-0.354433 0.232982 -0.312942 127 0 127
0.388260 -0.216543 -0.159944 0 127 127
-0.097275 -0.216543 0.416404 0 127 127
0.042705 -0.212038 -0.204044 127 0 127
0.511250 -0.216543 0.266204 0 127 127
0.316739 0.335051 -0.342596 127 0 127
0.530758 -0.216543 -0.080549 0 127 127
-0.353336 -0.202723 -0.202488 127 0 127
0.095863 -0.175876 -0.210288 127 0 127
-0.263940 0.097223 -0.273500 127 0 127
0.499962 -0.234849 0.334215 0 127 127
0.207169 -0.216543 0.722034 0 127 127
-0.530698 0.356757 -0.348902 127 0 127
-0.307101 0.408148 -0.363832 127 0 127
0.288900 -0.216543 -0.152992 0 127 127
-0.198835 -0.209108 0.039520 127 127 0
0.085879 -0.234849 0.115654 0 127 127
0.353497 -0.234849 -0.013088 0 127 127
0.510083 -0.234849 -0.179466 0 127 127
-0.519407 -0.234849 0.298735 0 127 127
0.005812 -0.209022 0.088660 0 127 127
-0.056752 -0.234849 -0.095020 0 127 127
-0.428357 -0.234849 0.333603 0 127 127
0.194618 0.523098 -0.397228 127 127 0
0.417904 -0.209237 0.132959 127 127 0
-0.232626 -0.234849 0.669150 0 127 127
0.406570 0.627152 -0.433855 127 127 0
0.009439 -0.218341 -0.112470 0 127 127
-0.414921 -0.234849 -0.051749 0 127 127
0.255474 0.291509 -0.329945 127 0 127
-0.255444 0.034611 -0.255310 127 0 127
0.450231 -0.234849 0.292844 0 127 127
-0.335773 0.336118 -0.349302 127 0 127
-0.317500 -0.218392 0.364592 0 127 127
0.018179 0.517934 -0.402124 127 0 127
0.151068 -0.234849 0.391222 0 127 127
0.298771 -0.209022 0.177607 127 127 0
0.081852 -0.234849 0.370696 0 127 127
0.326542 -0.216543 0.587408 0 127 127
0.550601 -0.138296 -0.221206 127 0 127
0.358979 0.677265 -0.448414 127 0 127
-0.110282 0.427795 -0.375936 127 0 127
0.238501 -0.209022 -0.046677 127 127 0
-0.358970 0.717607 -0.453738 127 0 127
0.474882 -0.216543 0.664130 0 127 127
0.550676 -0.220691 0.562516 0 127 127
-0.037807 0.426526 -0.376816 127 0 127
0.041242 -0.215584 0.627199 0 127 127
0.550796 0.020080 -0.261748 127 0 127
-0.474867 -0.234849 0.209880 0 127 127
-0.498564 0.452765 -0.376795 127 0 127
0.147574 -0.209022 0.107864 127 127 0
0.376660 -0.219735 0.744146 0 127 127
0.098675 -0.234849 -0.008778 0 127 127
-0.113905 0.555880 -0.406752 127 0 127
0.508023 -0.234849 0.433593 0 127 127
-0.345985 -0.234849 -0.136367 0 127 127
-0.092995 -0.216543 0.754923 0 127 127
-0.422052 0.235591 -0.313700 127 0 127
-0.111213 0.253519 -0.325305 127 0 127
-0.438201 -0.209022 -0.005330 0 127 127
-0.057095 0.091003 -0.282164 127 0 127
-0.469304 0.011111 -0.262728 127 127 0
0.245666 0.631141 -0.428618 127 127 0
0.183374 -0.216543 0.441789 0 127 127
-0.540959 -0.212714 0.141100 127 127 0
-0.477524 -0.234849 0.469966 0 127 127
-0.122996 0.362137 -0.350465 127 127 0
-0.255341 -0.234849 0.085102 0 127 127
-0.140171 -0.214227 0.341721 0 127 127
0.249077 0.541283 -0.402511 127 0 127
-0.490775 -0.234849 0.148910 0 127 127
0.348945 0.274087 -0.324884 127 127 0
0.090559 -0.209022 0.299551 0 127 127
0.115436 -0.018394 -0.239910 127 0 127
0.442776 -0.234849 0.731600 0 127 127
-0.010488 -0.177357 -0.195925 0 127 127
0.196670 -0.209022 0.230472 127 127 0
-0.211312 -0.234849 0.711929 0 127 127
-0.170057 -0.234849 0.432906 0 127 127
-0.509110 -0.234849 0.696294 0 127 127
0.232548 -0.001620 -0.259455 127 0 127
0.247069 -0.209022 0.175488 127 127 0
-0.552654 0.471157 -0.382138 127 0 127
-0.503465 -0.036517 -0.234645 127 0 127
-0.263680 -0.149255 -0.201892 127 0 127
0.481872 -0.216543 0.540785 0 127 127
0.507962 -0.234849 0.201348 0 127 127
-0.013609 -0.234849 -0.036488 0 127 127
-0.512684 0.637756 -0.436936 127 0 127
0.044733 0.283429 -0.334493 127 0 127
-0.050669 -0.209022 0.179284 127 127 0
0.245609 -0.234849 -0.171963 0 127 127
0.304670 -0.209022 0.107843 127 127 0
0.191375 0.452663 -0.383161 127 0 127
0.245328 -0.234849 -0.010110 0 127 127
-0.523059 0.288836 -0.335565 127 0 127
0.093505 0.200262 -0.303436 127 127 0
0.101904 -0.234849 0.638518 0 127 127
0.434801 -0.234849 0.498695 0 127 127
-0.524646 0.049518 -0.259640 127 0 127
0.132489 -0.234849 -0.139731 0 127 127
-0.294790 -0.218436 0.563897 0 127 127
-0.203891 -0.012000 -0.241768 127 127 0
-0.292529 -0.209342 0.076331 0 127 127
-0.110473 -0.209022 0.082618 0 127 127
-0.029235 -0.215584 0.652132 153 76 0
-0.160564 -0.218696 0.541952 153 0 76
0.432044 -0.234849 0.246379 0 127 127
0.195550 0.128159 -0.290633 127 0 127
0.328872 -0.234849 0.373575 0 127 127
-0.082704 -0.234849 0.034716 0 127 127
-0.266334 -0.208180 -0.200774 0 127 127
0.365955 -0.234849 0.092322 0 127 127
0.531318 -0.216543 0.494584 0 127 127
-0.486136 -0.234849 0.356905 0 127 127
-0.253380 0.512932 -0.394275 127 0 127
-0.018050 -0.234849 0.015915 0 127 127
0.316369 -0.209022 0.036597 127 127 0
-0.456898 0.167446 -0.293902 127 127 0
-0.307864 0.048944 -0.259474 127 0 127
-0.089140 -0.234849 0.140751 0 127 127
0.337703 0.169162 -0.294400 127 0 127
-0.269851 -0.209022 0.304664 127 127 0
-0.237283 0.567912 -0.410248 127 127 0
-0.227078 -0.234849 0.267351 0 127 127
-0.206018 -0.209022 0.141344 127 127 0
0.488072 -0.219321 -0.205026 0 127 127
-0.258993 0.001731 -0.245757 127 127 0
-0.366672 -0.234849 0.529607 0 127 127
-0.147927 -0.234849 0.133586 0 127 127
0.014265 0.688059 -0.451550 127 0 127
-0.224810 -0.204650 -0.201928 0 127 127
0.403553 -0.000332 -0.245158 127 0 127
-0.053786 -0.234849 0.706295 0 127 127
-0.193760 0.244405 -0.316261 127 0 127
-0.262581 -0.111104 -0.212976 127 0 127
-0.278214 -0.234849 0.500456 0 127 127
0.296808 0.298726 -0.338438 127 0 127
0.550916 -0.222557 0.307156 0 127 127
0.394334 -0.234849 0.447756 0 127 127
-0.055488 0.391656 -0.365437 127 0 127
0.237811 0.722566 -0.455179 127 0 127
-0.231106 -0.211104 0.052806 127 127 0
0.033798 -0.234849 -0.180022 0 127 127
0.238015 -0.219467 0.489180 0 127 127
-0.033484 -0.209357 0.148268 127 127 0
-0.426756 -0.209039 -0.151322 0 127 127
0.104152 -0.211236 0.132457 127 127 0
-0.110703 0.618890 -0.431455 127 0 127
-0.468127 0.701781 -0.455537 127 0 127
0.405325 -0.199406 -0.203452 127 0 127
-0.087541 -0.078640 -0.238538 127 0 127
-0.023727 0.292470 -0.337869 127 0 127
0.061152 -0.234849 0.532096 0 127 127
0.386810 -0.119706 -0.210476 127 0 127
-0.090514 -0.234849 -0.117025 0 127 127
0.251584 -0.234849 0.239249 0 127 127
-0.419823 0.022215 -0.265512 127 0 127
-0.367976 -0.234849 0.634138 0 127 127
-0.039963 -0.218929 0.544027 153 0 76
0.498073 -0.161298 -0.214523 127 0 127
-0.117984 -0.215584 0.713316 0 127 127
-0.379040 -0.234849 0.133047 0 127 127
0.429271 -0.212860 0.310443 127 127 0
-0.431032 -0.206381 -0.117327 127 127 0
0.519862 -0.216543 -0.115820 0 127 127
0.394874 -0.234849 -0.002181 0 127 127
-0.484287 -0.209039 -0.161172 0 127 127
0.160688 -0.216543 0.584258 0 127 127
-0.102283 0.063067 -0.263577 127 0 127
0.277734 -0.234849 0.108766 0 127 127
-0.122874 -0.217918 -0.090024 0 127 127
-0.235607 -0.027782 -0.252635 127 0 127
0.227731 -0.234849 -0.074722 0 127 127
0.261427 -0.160618 -0.214721 127 0 127
-0.366696 -0.209022 -0.016778 127 127 0
-0.086218 0.031958 -0.254539 127 127 0
-0.551237 -0.216543 0.072931 0 127 127
-0.391371 -0.234849 -0.076689 0 127 127
0.483265 0.424167 -0.368486 127 0 127
0.281550 -0.234849 0.321702 0 127 127
0.405106 0.349217 -0.346711 127 127 0
0.276576 -0.038550 -0.249770 127 0 127
-0.088126 -0.234849 0.358256 0 127 127
0.055071 -0.234849 0.147625 0 127 127
-0.372014 -0.089006 -0.219396 127 127 0
-0.248767 0.245509 -0.322978 127 0 127
0.548613 0.437606 -0.372390 127 0 127
0.289016 -0.209022 0.068938 0 127 127
0.440013 -0.209022 -0.037537 127 127 0
0.310190 -0.216543 0.731520 0 127 127
0.486314 -0.234849 0.707941 0 127 127
0.053676 -0.219481 0.779215 0 127 127
-0.195402 -0.127929 -0.208087 127 0 127
-0.003786 -0.234849 0.452339 0 127 127
0.007445 -0.234849 0.181692 0 127 127
0.384605 -0.234849 -0.061850 0 127 127
-0.435655 0.469944 -0.381786 127 0 127
-0.039044 -0.216543 -0.144796 0 127 127
0.361867 -0.068545 -0.225340 127 127 0
0.251704 -0.209022 0.019555 0 127 127
-0.079392 0.154908 -0.290259 127 0 127
0.192207 0.719273 -0.458436 127 0 127
-0.409324 -0.234849 0.166850 0 127 127
0.057546 -0.234849 0.265540 0 127 127
-0.047542 -0.234849 0.758269 0 127 127
0.156999 -0.209292 -0.021409 127 127 0
0.372583 -0.216543 0.502884 0 127 127
0.072036 0.485341 -0.392655 127 127 0
-0.003215 -0.234849 -0.169977 0 127 127
-0.072024 -0.217742 0.566348 153 0 76
-0.030978 -0.234849 0.221834 0 127 127
0.308458 -0.210749 -0.203610 0 127 127
-0.451765 -0.234849 -0.068171 0 127 127
-0.048613 -0.217742 0.510932 153 0 76
0.274350 -0.216543 0.492863 0 127 127
-0.269323 -0.216543 0.530619 0 127 127
-0.318717 -0.207503 -0.201100 127 0 127
-0.388479 -0.209022 0.278384 127 127 0
-0.191796 0.013757 -0.263391 127 0 127
-0.172264 -0.215584 0.693903 0 127 127
-0.487807 -0.234849 -0.118352 0 127 127
-0.058782 -0.216543 -0.019321 127 127 0
-0.068343 -0.209022 0.105134 127 127 0
0.243092 0.070198 -0.265649 127 0 127
0.068503 -0.216543 -0.164003 0 127 127
-0.541645 -0.234849 -0.038869 0 127 127
-0.470480 -0.209022 0.155024 127 127 0
-0.489559 -0.234849 0.750723 0 127 127
0.446087 -0.234849 0.400775 0 127 127
0.192010 -0.087542 -0.219821 127 127 0
-0.506695 -0.234849 0.029255 0 127 127
-0.356308 -0.209039 -0.116313 0 127 127
0.341678 -0.209022 0.096812 127 127 0
0.000931 0.120466 -0.280253 127 127 0
0.449070 0.649695 -0.440404 127 0 127
-0.312954 -0.106674 -0.214262 127 0 127
0.502319 -0.234849 0.156969 0 127 127
0.369652 -0.209528 0.306765 0 127 127
-0.316764 0.238613 -0.314578 127 127 0
0.098717 -0.234849 0.579775 0 127 127
0.416540 -0.161987 -0.198192 127 0 127
0.199411 -0.234849 0.011508 0 127 127
0.360041 -0.176044 -0.210239 127 0 127
-0.549070 -0.036714 -0.234588 127 0 127
-0.079200 -0.234849 0.316375 0 127 127
0.137708 -0.234849 0.149123 0 127 127
0.159363 0.214754 -0.307646 127 127 0
0.178386 0.639565 -0.431065 127 0 127
-0.121187 -0.134581 -0.222286 127 0 127
-0.342110 -0.234849 0.043377 0 127 127
0.516152 -0.220005 0.595166 0 127 127
0.110657 -0.234849 0.338424 0 127 127
0.172768 -0.219341 0.496679 0 127 127
-0.224551 -0.234849 0.527501 0 127 127
0.080145 0.283919 -0.327740 127 0 127
0.246601 -0.209061 0.125656 127 127 0
0.353858 0.369292 -0.352544 127 127 0
0.471680 0.174972 -0.296088 127 127 0
0.549957 -0.222275 -0.139882 0 127 127
0.160141 -0.234849 0.556685 0 127 127
0.048156 0.538489 -0.401700 127 0 127
-0.489177 -0.234849 0.320619 0 127 127
-0.538682 -0.095092 -0.217627 127 0 127
-0.321049 -0.216543 -0.024357 127 127 0
-0.431033 -0.087963 -0.235829 127 0 127
0.008371 -0.215584 0.661324 153 76 0
0.426534 -0.219832 0.767276 0 127 127
-0.342294 -0.216543 0.410757 0 127 127
-0.264847 0.283132 -0.333908 127 0 127
0.188987 0.014460 -0.249455 127 127 0
-0.305392 -0.234849 0.201843 0 127 127
-0.193750 -0.234849 0.639634 0 127 127
0.085366 0.692653 -0.446489 127 0 127
-0.149900 -0.221180 -0.204824 0 127 127
0.195235 -0.173274 -0.211044 127 0 127
0.187383 -0.234849 0.526278 0 127 127
-0.175215 0.596130 -0.418446 127 0 127
0.183231 -0.234849 0.285549 0 127 127
-0.088467 0.519665 -0.402627 127 0 127
-0.107738 0.125015 -0.281574 127 0 127
0.521374 0.554971 -0.412885 127 0 127
0.488106 -0.209022 -0.112058 0 127 127
0.098557 -0.234849 0.227275 0 127 127
0.031251 0.317095 -0.344274 127 0 127
-0.488860 -0.207135 -0.201207 127 0 127
-0.424740 0.057976 -0.274322 127 0 127
0.267817 0.606541 -0.421471 127 0 127
-0.328830 -0.234849 0.080079 0 127 127
0.522909 -0.216543 0.749138 0 127 127
0.284252 -0.209022 -0.056240 0 127 127
-0.519441 -0.209022 0.101527 127 127 0
-0.413624 -0.030221 -0.251986 127 0 127
-0.458070 -0.234849 0.111426 0 127 127
0.388954 -0.216543 0.382814 0 127 127
0.126150 -0.209022 0.277715 127 127 0
0.442175 0.341266 -0.344401 127 0 127
-0.276844 -0.060620 -0.243773 127 0 127
-0.038986 -0.234849 0.419693 0 127 127
-0.255685 -0.209022 -0.007574 0 127 127
0.497074 -0.237006 -0.127208 0 127 127
-0.327584 0.019024 -0.250781 127 0 127
-0.007960 0.320135 -0.345158 127 127 0
-0.143498 -0.026144 -0.237659 127 0 127
-0.411535 -0.234849 0.691569 0 127 127
0.357092 -0.234849 0.159875 0 127 127
0.149910 0.280440 -0.326730 127 127 0
0.442309 0.238251 -0.314472 127 127 0
0.210717 0.064455 -0.263980 127 0 127
-0.136195 0.681356 -0.443206 127 0 127
