ply
format ascii 1.0
element vertex 1285
property float x
property float y
property float z
property uchar red
property uchar green
property uchar blue
end_header
-0.804375 0.025070 0.204613 76 0 153
0.026707 -0.331455 0.002444 76 0 153
-0.782525 0.179362 -0.045391 76 0 153
0.642680 0.154781 -0.441606 76 0 153
0.616841 -0.011881 0.432378 76 0 153
-0.809837 -0.386035 -0.388375 76 0 153
0.758982 -0.293959 -0.452530 76 0 153
0.517230 -0.376249 0.443304 76 0 153
0.747607 -0.054988 -0.452530 76 0 153
0.510000 0.367733 0.289367 0 255 0
-0.487119 -0.342380 0.017892 76 0 153
-0.202072 -0.331455 -0.314907 76 0 153
0.785184 -0.193518 0.425581 76 0 153
0.164412 0.356749 -0.452530 0 255 0
0.359117 -0.374696 -0.371509 153 0 76
0.441406 0.345883 0.322764 0 255 0
0.604837 0.362270 -0.058396 0 255 0
-0.424403 -0.107736 0.415991 76 0 153
-0.665530 -0.371852 0.443304 76 0 153
0.774259 -0.283329 -0.119727 76 0 153
-0.682218 -0.388354 -0.419756 76 0 153
0.470656 0.351345 0.225859 0 255 0
0.779722 -0.241636 -0.064292 76 0 153
0.303881 0.292538 -0.452530 0 255 0
-0.418590 0.013857 0.415991 76 0 153
-0.777063 -0.391604 0.082692 76 0 153
-0.782989 -0.406302 0.230134 76 0 153
-0.174904 0.136707 0.432378 76 0 153
-0.732109 0.367733 -0.072139 0 255 0
0.264809 0.367733 -0.113015 0 255 0
-0.547410 0.167971 -0.425219 76 0 153
0.323478 0.198398 0.435105 76 0 153
0.172312 -0.150580 -0.425218 76 0 153
-0.786796 0.256100 -0.365132 76 0 153
-0.477609 -0.319021 -0.425219 76 0 153
-0.410932 0.367733 -0.245507 0 255 0
0.645881 -0.331455 0.175139 76 0 153
0.417161 0.345883 0.241225 0 255 0
-0.405620 -0.361458 -0.346293 255 0 0
-0.812569 0.258862 -0.025633 204 51 127
0.785184 -0.155193 0.442869 76 0 153
-0.131981 -0.331455 0.223945 76 0 153
0.677285 0.285797 0.439471 76 0 153
0.129315 0.345883 -0.186846 0 255 0
-0.809837 0.340312 0.189184 0 255 0
-0.203302 0.345883 -0.033735 0 255 0
-0.323018 0.147410 -0.425219 76 0 153
0.184141 0.345883 0.350059 0 255 0
0.510131 -0.035322 0.415990 76 0 153
0.779722 0.101629 -0.059675 76 0 153
-0.140551 0.180880 -0.447069 76 0 153
0.779722 -0.211429 -0.140703 76 0 153
-0.207569 -0.340213 -0.430681 76 0 153
0.553482 -0.342380 0.267859 76 0 153
-0.669178 0.143618 0.437841 76 0 153
0.779722 -0.175341 0.175597 76 0 153
-0.447490 -0.231593 -0.425219 76 0 153
0.698019 0.236441 0.415740 76 0 153
0.004061 0.313032 -0.195469 0 255 0
-0.738762 -0.242953 0.410529 76 0 153
0.444757 -0.121028 0.415990 76 0 153
-0.638930 0.362270 -0.398403 0 255 0
0.222860 -0.250310 0.437840 76 0 153
0.785184 -0.333736 -0.253710 76 0 153
0.244224 0.160325 -0.447068 76 0 153
0.005965 -0.300360 -0.452531 76 0 153
0.473716 -0.004140 0.437840 76 0 153
-0.028714 0.286720 -0.029548 0 255 0
0.134702 -0.242065 0.415991 76 0 153
-0.045860 -0.331455 -0.118677 76 0 153
-0.285443 -0.041855 0.415991 76 0 153
-0.782525 -0.093873 -0.190951 76 0 153
0.752410 -0.325990 0.382340 76 0 153
-0.547281 -0.331455 0.046854 76 0 153
-0.809837 0.236495 0.220827 76 0 153
-0.439445 0.016010 -0.447069 76 0 153
0.548626 -0.331455 0.313676 76 0 153
0.491155 -0.331455 0.112457 76 0 153
0.156828 0.351345 -0.253731 0 255 0
0.179388 0.179388 -0.447068 76 0 153
0.684182 0.367733 -0.039735 0 255 0
0.140048 0.351345 -0.428949 0 255 0
0.752410 -0.094476 0.375366 76 0 153
-0.448535 -0.342380 -0.054692 76 0 153
-0.782525 -0.187733 0.187307 76 0 153
-0.777063 0.200257 -0.375701 76 0 153
0.085811 -0.180808 -0.447068 76 0 153
-0.720432 -0.411859 0.410529 76 0 153
0.777237 0.373195 -0.243331 0 255 0
0.518901 0.362270 -0.290974 0 255 0
-0.268290 -0.228535 0.437841 76 0 153
-0.257492 -0.331455 0.071077 76 0 153
-0.327857 0.058938 -0.425219 76 0 153
-0.174264 0.295969 0.443304 0 255 0
0.566224 -0.201077 0.415990 76 0 153
-0.120063 -0.070554 -0.447069 76 0 153
0.557453 0.275175 -0.419757 76 0 153
0.750387 0.351345 0.266565 0 255 0
0.757872 -0.124097 0.098182 76 0 153
0.206353 0.025165 0.415990 76 0 153
0.756256 -0.331455 0.031149 76 0 153
-0.544340 -0.331455 -0.382349 76 0 153
0.211069 -0.356326 -0.419756 76 0 153
-0.534950 -0.342380 0.408903 76 0 153
0.015386 0.323407 0.443304 127 0 127
0.602484 0.198398 -0.446115 76 0 153
-0.228018 -0.342380 -0.375744 76 0 153
-0.486647 -0.342380 0.296494 76 0 153
-0.118776 0.367733 -0.097847 0 255 0
-0.652601 -0.191767 -0.425219 76 0 153
0.784214 0.283785 -0.000189 0 0 255
-0.484541 0.328656 -0.452530 0 255 0
-0.610549 0.152270 0.415991 76 0 153
-0.180960 -0.342380 0.366647 76 0 153
-0.656542 0.344447 0.410529 0 255 0
-0.159742 0.240642 -0.452531 76 0 153
-0.744289 -0.360951 0.222063 0 0 255
0.760634 0.351345 0.317618 0 255 0
0.779722 -0.285903 0.070843 76 0 153
0.356648 -0.181010 -0.425218 76 0 153
-0.328062 -0.078745 -0.447069 76 0 153
0.757872 -0.308759 0.296803 76 0 153
-0.787988 -0.334167 0.339115 76 0 153
-0.393612 -0.026337 -0.447069 76 0 153
-0.804375 -0.225266 0.259930 76 0 153
0.584983 0.345883 0.362227 0 255 0
-0.808402 0.285797 0.312607 76 0 153
-0.782525 -0.085886 -0.309006 76 0 153
-0.722439 0.237405 -0.452380 76 0 153
-0.359858 0.367733 0.279689 0 255 0
0.757872 -0.030252 0.027918 76 0 153
0.299992 -0.331455 -0.150510 76 0 153
0.349825 -0.129842 0.437840 76 0 153
0.381446 0.345883 -0.046516 0 255 0
0.755437 -0.331455 -0.414731 76 0 153
0.714485 -0.209123 -0.419756 76 0 153
-0.777063 0.264805 -0.393632 76 0 153
0.528277 -0.342380 -0.204427 76 0 153
-0.527622 0.351345 0.159320 0 255 0
-0.485520 0.345883 0.107489 0 255 0
0.298865 0.345883 0.291763 0 255 0
0.430879 -0.342380 0.010927 76 0 153
-0.700485 0.350558 -0.419756 0 255 0
-0.433937 0.322763 0.410529 0 255 0
0.593167 0.345883 -0.373771 0 255 0
-0.782525 0.022604 0.027862 76 0 153
0.757872 0.090224 0.066917 76 0 153
-0.389557 -0.036622 0.415991 76 0 153
-0.372845 -0.358549 -0.335268 255 0 0
-0.394369 0.285797 -0.434489 76 0 153
-0.271167 0.367733 0.057876 0 255 0
-0.430906 0.351345 0.254169 0 255 0
-0.182842 0.303026 -0.452530 76 0 153
0.322497 0.367733 -0.051230 0 255 0
0.443894 0.367733 0.072310 0 255 0
-0.782525 -0.245388 0.157485 76 0 153
-0.789890 0.263851 0.443304 76 0 153
0.117526 -0.057721 -0.447068 76 0 153
0.341600 0.345883 -0.210149 0 255 0
-0.777063 0.255962 -0.240436 76 0 153
0.707498 0.115256 0.443304 76 0 153
0.007613 0.345883 0.310996 0 255 0
0.317231 0.242418 -0.452530 76 0 153
-0.629900 0.355797 0.443304 0 255 0
-0.335116 0.367733 -0.171954 0 255 0
0.507654 -0.165262 0.415990 76 0 153
-0.464272 -0.342380 -0.010981 76 0 153
-0.432675 -0.331455 -0.098426 76 0 153
-0.351426 -0.036658 0.415991 76 0 153
0.422820 0.215658 0.410529 76 0 153
-0.702196 -0.331455 0.203595 76 0 153
0.004061 0.295862 0.095909 0 255 0
-0.073689 0.345883 -0.029674 0 255 0
-0.777063 0.039051 -0.376215 76 0 153
-0.187546 -0.286421 0.437841 76 0 153
-0.348113 0.234222 -0.419757 76 0 153
-0.255967 0.347359 0.443304 0 255 0
-0.063897 -0.260269 0.437841 76 0 153
0.004061 0.292744 -0.374826 0 255 0
0.779722 0.145847 -0.344576 76 0 153
0.763781 -0.257364 -0.430681 76 0 153
-0.798913 0.067346 -0.136238 76 0 153
0.379846 0.351345 0.322975 0 255 0
-0.201353 0.367733 -0.284002 0 255 0
0.757872 -0.113138 0.224242 76 0 153
-0.517227 -0.063277 0.437841 76 0 153
-0.479006 0.345883 0.355350 0 255 0
0.588138 0.367733 -0.212821 0 255 0
-0.710744 -0.294649 0.437841 76 0 153
0.696580 0.254623 0.443303 76 0 153
-0.187749 -0.342276 0.421453 76 0 153
-0.260378 0.362270 0.300900 0 255 0
-0.724369 0.161675 0.421454 76 0 153
-0.085256 -0.331455 -0.169383 76 0 153
-0.264976 0.223095 0.443303 76 0 153
-0.595589 -0.331455 0.268824 76 0 153
0.286495 -0.181575 -0.425218 76 0 153
0.529059 0.345883 0.230116 0 255 0
0.379066 0.351328 0.443304 0 255 0
-0.150324 -0.331455 -0.017863 76 0 153
-0.460472 0.166215 -0.447069 76 0 153
0.425113 0.367733 -0.394219 0 255 0
-0.787988 0.144864 -0.050991 76 0 153
0.480096 0.225091 -0.419757 76 0 153
0.785184 -0.362127 -0.051828 76 0 153
-0.777063 0.339062 0.371293 0 255 0
0.165864 0.367733 0.322130 0 255 0
-0.049625 0.351345 0.225894 0 255 0
-0.727791 -0.331455 0.255901 76 0 153
-0.782525 0.086146 -0.026962 76 0 153
0.263381 -0.239114 0.421453 76 0 153
0.117531 -0.342380 -0.060977 76 0 153
-0.744289 -0.358145 -0.096135 76 0 153
-0.055909 -0.187077 -0.445513 76 0 153
0.763335 -0.108364 0.169016 76 0 153
0.154888 -0.312508 0.415991 76 0 153
0.779722 0.026071 -0.246471 76 0 153
0.492053 0.367733 0.164654 0 255 0
0.757872 0.059305 0.258952 76 0 153
-0.058533 -0.342380 0.028603 76 0 153
0.296698 0.367733 -0.150767 0 255 0
0.515709 -0.342380 -0.409253 76 0 153
0.630554 0.367733 -0.327488 0 255 0
0.138297 -0.331455 0.374405 76 0 153
0.779722 -0.076600 0.272864 76 0 153
-0.028922 -0.331455 -0.033994 76 0 153
-0.804375 0.057143 0.310909 76 0 153
0.091654 0.192679 0.432378 76 0 153
-0.364462 0.142525 0.415991 76 0 153
-0.556784 0.002564 -0.441606 76 0 153
-0.782525 0.035921 -0.250681 76 0 153
-0.213753 -0.331455 0.209239 76 0 153
0.485317 0.118615 -0.447068 76 0 153
0.752410 -0.384717 -0.103636 76 0 153
-0.753411 0.367733 -0.260678 0 255 0
-0.280636 0.367733 -0.041673 0 255 0
-0.804375 -0.247733 -0.153243 76 0 153
0.639547 -0.223745 -0.425218 76 0 153
0.021970 0.268005 -0.430681 76 0 153
0.523382 -0.342380 -0.344101 76 0 153
-0.205011 -0.331455 -0.125140 76 0 153
0.647747 -0.181727 -0.425218 76 0 153
0.405635 -0.243561 0.415991 76 0 153
0.032153 -0.331455 -0.123874 76 0 153
0.703165 -0.331455 0.244269 76 0 153
-0.578996 0.024385 0.432378 76 0 153
0.460852 0.345883 0.276511 0 255 0
0.758176 0.124142 -0.452530 76 0 153
-0.191774 0.362270 0.254857 0 255 0
-0.335522 -0.331455 0.323775 76 0 153
0.717245 -0.112513 -0.452530 76 0 153
-0.782525 -0.169291 -0.121580 76 0 153
0.076929 -0.331455 -0.288954 76 0 153
0.752410 0.290787 0.180606 0 255 0
-0.783740 0.362270 0.304803 0 255 0
0.785184 -0.399260 0.211402 76 0 153
-0.560161 -0.260650 0.437841 76 0 153
0.238128 0.216790 -0.419757 76 0 153
-0.807948 -0.400148 -0.139196 76 0 153
-0.787988 0.006515 -0.271628 76 0 153
0.611971 -0.342164 0.443304 76 0 153
0.457953 0.122406 0.437840 76 0 153
0.300668 -0.331455 0.032012 76 0 153
-0.060573 0.154454 0.432378 76 0 153
-0.804375 -0.165681 0.302971 76 0 153
-0.356707 -0.241360 -0.425219 76 0 153
0.001979 0.373195 -0.214961 0 255 0
-0.515119 0.367733 0.314167 0 255 0
-0.731365 -0.395950 0.443304 76 0 153
-0.776243 -0.331455 0.112999 76 0 153
0.750361 -0.381585 0.443304 76 0 153
0.503609 -0.342380 -0.318472 76 0 153
0.642573 0.208216 0.443303 76 0 153
-0.642648 -0.020941 0.437841 76 0 153
0.414289 -0.196809 -0.447068 76 0 153
-0.736134 0.367733 0.273644 0 255 0
-0.198505 -0.371387 0.410529 76 0 153
0.112141 0.235428 -0.452530 76 0 153
0.752410 -0.402565 0.242083 76 0 153
-0.273436 0.366200 -0.419756 0 255 0
0.550657 0.345883 0.357873 0 255 0
0.658379 -0.331455 0.018432 76 0 153
-0.768533 0.051438 -0.452530 76 0 153
0.581576 0.127092 0.415990 76 0 153
0.083252 0.367733 -0.039955 0 255 0
0.739699 0.367733 -0.225270 0 255 0
0.015250 0.184529 -0.419757 76 0 153
0.779722 -0.194230 0.269631 76 0 153
0.273581 0.351345 -0.306905 0 255 0
-0.777063 0.281392 0.144246 0 255 0
0.785184 0.182869 -0.405992 76 0 153
0.757872 -0.224863 0.087270 76 0 153
0.352731 -0.217889 0.415991 76 0 153
0.785184 0.347007 0.109874 0 255 0
-0.578451 0.367733 -0.076585 0 255 0
-0.535640 0.345883 0.223652 0 255 0
-0.777063 -0.076827 -0.379462 76 0 153
-0.782525 -0.114972 0.313932 76 0 153
-0.677918 0.351345 -0.205460 0 255 0
-0.014259 -0.331455 0.065087 76 0 153
-0.756185 -0.418853 -0.449990 76 0 153
-0.684491 0.345883 0.189428 0 255 0
-0.777063 0.304717 0.077624 0 255 0
-0.756717 0.284287 -0.452601 76 0 153
0.420406 0.345883 -0.190241 0 255 0
0.078536 -0.052843 -0.425218 76 0 153
-0.495912 -0.342380 -0.367515 76 0 153
-0.372845 -0.362379 0.377689 255 0 0
0.757872 0.153748 0.143403 76 0 153
0.785184 0.317221 -0.267042 0 255 0
0.645678 0.373195 0.442349 0 255 0
-0.809837 -0.379541 -0.264278 76 0 153
0.785184 0.340304 -0.141627 0 255 0
-0.809837 -0.391474 0.063273 76 0 153
-0.447750 0.121282 -0.447069 76 0 153
-0.053123 0.062607 -0.452531 76 0 153
0.534773 0.064091 0.415990 76 0 153
-0.028714 0.314422 -0.051386 0 255 0
0.217006 0.372792 -0.452530 0 255 0
-0.804867 -0.046224 -0.452530 76 0 153
-0.239536 0.054086 0.437841 76 0 153
0.348771 0.065426 -0.447068 76 0 153
-0.465140 -0.095815 -0.425219 76 0 153
0.661582 0.367733 0.211444 0 255 0
-0.787988 -0.311213 0.016847 76 0 153
0.752410 0.057944 0.357036 76 0 153
-0.036903 0.151008 -0.452531 76 0 153
-0.439085 -0.123956 -0.447069 76 0 153
-0.701432 0.315280 0.410529 0 255 0
-0.128029 -0.342380 0.327924 76 0 153
0.382706 0.333643 0.410529 0 255 0
0.170426 -0.342380 0.421606 76 0 153
-0.782525 -0.216824 -0.080332 76 0 153
-0.549595 0.367733 -0.051966 0 255 0
-0.265848 0.345883 -0.088856 0 255 0
0.785184 0.034327 -0.423291 76 0 153
-0.321142 0.367733 -0.037621 0 255 0
-0.006263 -0.213726 0.443303 76 0 153
-0.486802 0.049206 -0.447069 76 0 153
-0.376741 0.250238 -0.452531 76 0 153
0.425626 0.351345 0.378220 0 255 0
-0.238760 0.345883 0.382295 0 255 0
0.680355 -0.078319 0.437840 76 0 153
0.779722 0.061243 -0.084515 76 0 153
-0.425640 0.367733 -0.384616 0 255 0
-0.292130 0.285797 0.440205 76 0 153
0.785184 0.258538 -0.283599 76 0 153
0.622834 0.304694 0.443304 0 255 0
-0.573163 -0.153006 0.437841 76 0 153
0.776318 -0.294504 0.355905 76 0 153
-0.780526 0.373195 -0.245523 0 255 0
-0.695640 -0.138527 -0.430681 76 0 153
-0.301762 0.323782 0.410529 0 255 0
-0.102865 -0.328268 0.437841 76 0 153
0.117171 0.091553 -0.425218 76 0 153
-0.676420 -0.342380 0.103495 76 0 153
0.127647 0.345883 -0.247511 0 255 0
0.150772 -0.331455 -0.401886 76 0 153
-0.759096 0.345883 -0.123103 0 255 0
-0.697611 0.125873 -0.425219 76 0 153
-0.782525 -0.082627 0.323592 76 0 153
0.411121 -0.070776 -0.425218 76 0 153
-0.631978 -0.264258 0.415991 76 0 153
-0.777063 -0.377758 0.308974 76 0 153
-0.256234 -0.331455 -0.390905 76 0 153
0.779722 -0.276695 0.195246 76 0 153
-0.702280 -0.069559 -0.447068 76 0 153
-0.787988 -0.329730 -0.084748 76 0 153
0.326450 0.339650 -0.452530 0 255 0
0.752410 0.296559 0.281831 0 255 0
0.740083 0.345883 0.217558 0 255 0
0.414215 0.367733 0.202354 0 255 0
-0.742732 -0.106430 -0.452530 76 0 153
-0.376580 0.087742 0.415991 76 0 153
-0.782525 -0.153393 -0.063347 76 0 153
0.407243 0.143523 -0.425218 76 0 153
-0.809837 0.077611 -0.386048 76 0 153
0.421512 -0.331455 -0.429470 76 0 153
-0.782525 0.033986 -0.100671 76 0 153
-0.798913 -0.088680 -0.255246 76 0 153
0.120288 -0.342380 -0.114126 76 0 153
0.386160 -0.386079 -0.224161 153 0 76
0.391891 -0.367658 0.292758 153 0 76
0.684897 -0.048742 0.415990 76 0 153
0.439275 0.202841 -0.419757 76 0 153
0.642182 -0.058217 -0.447068 76 0 153
0.784214 0.271348 0.054428 0 0 255
-0.007669 0.209608 0.410529 76 0 153
0.779722 -0.059411 0.310885 76 0 153
0.213989 -0.179301 -0.447068 76 0 153
-0.057104 -0.067283 -0.425219 76 0 153
-0.604218 0.345883 0.191727 0 255 0
-0.417076 0.250300 -0.419757 76 0 153
0.583785 -0.254438 0.437840 76 0 153
0.002913 -0.039428 -0.419757 76 0 153
0.009523 -0.361900 0.259075 204 51 127
0.304451 0.004784 0.415990 76 0 153
-0.045445 0.367733 0.352520 0 255 0
0.247317 0.145227 0.437840 76 0 153
-0.744289 -0.385353 -0.022092 0 0 255
-0.669703 0.076245 0.421453 76 0 153
0.438776 -0.331455 -0.296735 76 0 153
0.724579 -0.407260 -0.419756 76 0 153
-0.639793 0.216326 -0.452531 76 0 153
0.004061 0.320828 -0.130351 0 255 0
0.779722 -0.167296 0.307005 76 0 153
0.139109 0.345883 -0.291247 0 255 0
0.349133 0.345883 -0.155494 0 255 0
-0.773327 -0.220035 -0.452530 76 0 153
0.419760 -0.342380 0.136336 76 0 153
-0.671713 -0.319296 0.421453 76 0 153
0.638140 0.134166 0.415990 76 0 153
-0.804375 -0.290768 -0.294197 76 0 153
0.779722 -0.075549 0.086533 76 0 153
0.465137 0.313214 0.443304 0 255 0
0.751518 -0.342380 -0.344699 76 0 153
0.154277 0.367733 0.200600 0 255 0
-0.640657 -0.060037 -0.447068 76 0 153
0.100419 -0.342380 0.309799 76 0 153
-0.777063 0.317183 -0.430806 0 255 0
0.722966 -0.320383 -0.419756 76 0 153
0.308637 0.279067 0.410529 0 255 0
-0.420156 -0.331455 0.366882 76 0 153
-0.211701 0.345883 0.047935 0 255 0
0.292742 0.065652 0.415990 76 0 153
-0.761410 0.008842 -0.452530 76 0 153
0.211609 0.362270 0.159452 0 255 0
0.004061 0.322043 0.049682 0 255 0
-0.585117 -0.201890 0.437841 76 0 153
0.097783 0.031483 0.437840 76 0 153
0.766543 0.209535 0.443304 76 0 153
-0.674634 0.345883 -0.156910 0 255 0
-0.550480 0.345883 0.024894 0 255 0
0.542841 -0.342380 0.168382 76 0 153
-0.496315 -0.120981 0.415991 76 0 153
0.763335 -0.236081 -0.007100 76 0 153
0.079771 0.345883 -0.110787 0 255 0
-0.219589 -0.344018 0.410529 76 0 153
-0.804375 0.030698 -0.057802 76 0 153
-0.515926 -0.159404 -0.447068 76 0 153
0.255246 0.324873 -0.452530 0 255 0
0.426962 0.367733 -0.078777 0 255 0
-0.787988 -0.275845 0.337705 76 0 153
-0.012324 -0.342380 0.339440 204 51 127
0.346110 0.162976 0.415990 76 0 153
-0.387933 0.043174 -0.425219 76 0 153
-0.809837 0.254912 0.066409 204 51 127
0.382943 -0.383277 -0.419756 153 0 76
0.757872 -0.037491 0.316105 76 0 153
0.763335 -0.246070 0.236036 76 0 153
-0.146679 0.345883 0.033630 0 255 0
0.389368 -0.386079 -0.358726 153 0 76
0.245126 0.346814 -0.419755 0 255 0
-0.776236 0.351345 0.018562 0 255 0
-0.782525 -0.233048 0.013871 76 0 153
0.533376 -0.269789 0.415990 76 0 153
0.539918 -0.053980 -0.425218 76 0 153
0.317670 -0.280121 0.437840 76 0 153
0.375621 0.107321 0.421453 76 0 153
-0.777063 0.240075 0.151920 76 0 153
-0.782525 -0.052273 -0.202254 76 0 153
0.757872 0.000277 -0.005110 76 0 153
-0.662225 0.279479 -0.419757 0 255 0
-0.184655 -0.068142 0.415991 76 0 153
-0.453521 -0.180117 -0.447068 76 0 153
-0.502401 -0.225757 0.415991 76 0 153
0.656604 -0.342380 0.123713 76 0 153
-0.786954 -0.331455 -0.343833 76 0 153
-0.793724 0.373195 0.006015 0 255 0
0.124676 -0.004719 0.437840 76 0 153
-0.598891 -0.096420 -0.425219 76 0 153
-0.782525 -0.113880 0.041003 76 0 153
-0.206781 0.107067 0.415991 76 0 153
-0.644134 0.268361 -0.452531 0 255 0
-0.777063 0.278652 -0.168558 76 0 153
0.752638 -0.312081 0.421454 76 0 153
-0.788262 0.351345 0.419464 0 255 0
-0.046786 -0.331455 0.390415 76 0 153
0.031489 -0.108621 0.415484 76 0 153
-0.491284 0.345883 -0.087971 0 255 0
0.757872 -0.323653 0.229300 76 0 153
-0.804375 -0.020947 0.053008 76 0 153
-0.115049 0.283442 0.443303 76 0 153
0.249607 -0.342380 -0.036978 76 0 153
-0.247715 0.115663 0.415991 76 0 153
-0.685615 -0.342380 0.018332 76 0 153
0.154355 0.072145 -0.425218 76 0 153
0.611181 0.096468 0.415990 76 0 153
-0.605882 0.260448 0.410529 76 0 153
0.072701 0.367733 0.224498 0 255 0
-0.787988 -0.240845 0.365320 76 0 153
0.404640 -0.263871 -0.425218 76 0 153
0.086189 -0.221639 -0.441606 76 0 153
0.378187 0.172202 -0.441606 76 0 153
0.641463 0.367733 0.299709 0 255 0
0.752410 0.259366 0.148257 76 0 153
0.646823 0.365048 -0.419755 0 255 0
-0.012111 0.285796 -0.311526 0 255 0
-0.434251 0.367733 0.327470 0 255 0
0.137191 -0.276932 0.421453 76 0 153
0.662615 -0.270330 -0.447068 76 0 153
0.256454 0.345883 0.016126 0 255 0
-0.309881 0.345883 -0.002447 0 255 0
-0.798913 -0.146372 -0.273830 76 0 153
0.508343 0.160552 0.415990 76 0 153
0.108739 -0.342380 0.056246 76 0 153
0.643692 -0.331455 -0.072158 76 0 153
-0.530100 -0.331455 0.126303 76 0 153
-0.809837 -0.031801 0.429585 76 0 153
0.089078 0.345883 -0.153615 0 255 0
-0.203127 0.345883 -0.211875 0 255 0
-0.664429 0.017121 -0.425219 76 0 153
-0.255332 -0.327145 -0.425219 76 0 153
-0.809837 0.210117 -0.156145 76 0 153
-0.161414 0.079851 0.415991 76 0 153
0.003380 0.285797 -0.340597 0 255 0
-0.470991 -0.393625 -0.419756 76 0 153
-0.311001 0.345883 0.365704 0 255 0
0.345840 0.351345 -0.064473 0 255 0
-0.305294 -0.342380 -0.062363 76 0 153
0.175326 0.094561 0.415990 76 0 153
-0.063381 0.351345 -0.209749 0 255 0
0.752410 0.218789 0.394933 76 0 153
-0.047420 -0.067913 0.410529 76 0 153
-0.405620 -0.366640 -0.051356 255 0 0
0.785184 -0.117249 0.370531 76 0 153
0.779722 -0.213858 -0.093167 76 0 153
0.757872 0.096196 -0.189479 76 0 153
0.549685 0.367733 0.236502 0 255 0
-0.804375 -0.061470 0.200514 76 0 153
0.124583 0.367733 -0.035144 0 255 0
0.424581 0.347880 -0.452530 0 255 0
0.382055 0.345883 -0.344799 0 255 0
0.774259 0.124319 -0.148621 76 0 153
-0.585440 -0.342380 -0.203266 76 0 153
-0.346998 0.021848 -0.425219 76 0 153
0.777146 0.072921 0.443304 76 0 153
-0.735595 -0.407740 -0.419756 76 0 153
0.784088 -0.397004 -0.427565 76 0 153
-0.453426 -0.342380 0.046901 76 0 153
-0.777063 0.246397 -0.063799 76 0 153
-0.124200 -0.156498 0.415991 76 0 153
-0.063217 0.345883 0.263574 0 255 0
-0.172768 0.191084 0.415991 76 0 153
-0.777063 0.312026 0.307612 0 255 0
-0.160628 0.367733 0.013293 0 255 0
-0.430621 -0.386232 -0.452530 76 0 153
-0.664420 0.120447 -0.425219 76 0 153
0.774259 0.002172 0.176232 76 0 153
0.757872 -0.097084 -0.349145 76 0 153
-0.782525 -0.290280 0.137916 76 0 153
-0.369253 -0.096539 0.432379 76 0 153
0.048266 -0.331455 -0.320071 76 0 153
0.304676 0.345883 -0.363360 0 255 0
-0.096997 0.345883 0.125659 0 255 0
-0.023251 -0.360718 -0.079569 204 51 127
0.260996 0.031943 0.437840 76 0 153
-0.804375 0.049279 -0.301926 76 0 153
0.609354 -0.342380 0.383998 76 0 153
-0.730390 0.215859 0.443304 76 0 153
-0.624497 0.151099 -0.425219 76 0 153
-0.809837 0.258388 -0.267346 76 0 153
-0.141494 -0.035883 -0.447069 76 0 153
-0.782525 -0.205026 0.285600 76 0 153
0.106549 -0.367024 0.410529 76 0 153
-0.700630 -0.011335 -0.430681 76 0 153
-0.571520 0.055503 0.437841 76 0 153
-0.342850 0.234983 -0.452531 76 0 153
0.419055 0.345883 -0.025328 0 255 0
0.524840 -0.342380 0.346835 76 0 153
-0.372845 -0.357090 0.183683 76 0 153
0.419526 -0.342380 0.335373 76 0 153
-0.033492 0.345883 -0.050569 0 255 0
0.542749 0.043985 0.437840 76 0 153
0.009523 -0.352494 0.091679 76 0 153
-0.309051 0.285797 -0.444277 0 255 0
-0.657483 0.362270 0.223089 0 255 0
-0.505020 0.128677 0.415991 76 0 153
0.773197 0.056618 -0.376057 76 0 153
0.078530 -0.331455 -0.024477 76 0 153
-0.466121 -0.342380 -0.233902 76 0 153
0.009523 -0.377682 -0.071709 204 51 127
0.034269 0.362270 -0.037336 0 255 0
-0.028714 0.327932 0.142208 0 255 0
-0.777063 -0.159166 0.414635 76 0 153
-0.031761 0.351345 -0.428541 0 255 0
0.752410 0.115618 0.421142 76 0 153
0.556402 -0.286471 -0.441606 76 0 153
-0.591705 -0.054851 0.437841 76 0 153
-0.014578 -0.081825 0.410529 76 0 153
-0.737266 0.362270 0.306814 0 255 0
-0.496757 0.102505 -0.425219 76 0 153
-0.339129 0.367733 0.163436 0 255 0
0.211757 -0.237655 -0.425218 76 0 153
-0.238431 -0.279828 0.415991 76 0 153
0.358729 -0.403036 0.419627 76 0 153
0.785184 -0.369013 0.129596 76 0 153
0.051826 -0.335993 -0.452530 76 0 153
0.253055 0.367733 -0.373080 0 255 0
0.104861 0.367733 -0.186726 0 255 0
0.448820 0.345883 -0.115189 0 255 0
0.407436 0.362270 0.067879 0 255 0
-0.462837 0.275408 0.410529 76 0 153
0.454452 0.019681 -0.447068 76 0 153
-0.614612 0.351345 -0.312723 0 255 0
-0.787988 -0.270196 0.229067 76 0 153
0.091999 0.349969 0.443304 0 255 0
0.781996 0.329496 0.438722 0 255 0
0.463345 -0.331455 0.001480 76 0 153
-0.782525 0.069342 -0.275598 76 0 153
0.109400 0.367733 0.122144 0 255 0
0.419985 -0.050262 0.421453 76 0 153
0.659803 -0.168799 0.415990 76 0 153
-0.762160 0.201330 0.443304 76 0 153
0.171830 -0.007109 0.437840 76 0 153
-0.782525 -0.119744 -0.084027 76 0 153
0.698089 -0.306737 -0.452530 76 0 153
0.752410 -0.351785 0.420977 76 0 153
0.540794 -0.319527 -0.425218 76 0 153
-0.270387 0.362270 0.114669 0 255 0
-0.611903 -0.258210 0.437841 76 0 153
-0.330847 0.362270 0.050034 0 255 0
-0.516466 0.144314 -0.425219 76 0 153
0.778394 -0.367552 -0.419756 76 0 153
0.379354 0.362270 0.016592 0 255 0
0.785184 0.345545 0.194480 0 255 0
0.779722 0.189804 0.075790 76 0 153
-0.099421 0.198398 -0.448251 76 0 153
-0.293821 0.351345 0.421203 0 255 0
-0.039832 -0.393115 0.410529 76 0 153
-0.542753 -0.331455 0.194628 76 0 153
-0.635301 0.367733 -0.058418 0 255 0
-0.782525 -0.022716 0.124710 76 0 153
-0.216073 -0.331455 0.049812 76 0 153
0.779722 -0.148417 0.334094 76 0 153
-0.330148 -0.277754 -0.425219 76 0 153
0.779722 0.177023 0.263675 76 0 153
-0.600814 -0.331455 -0.409736 76 0 153
0.300863 0.351345 0.066551 0 255 0
0.785184 0.304141 0.286881 0 255 0
0.035509 -0.390177 0.410529 76 0 153
-0.284271 0.367733 -0.181390 0 255 0
0.785184 -0.031403 0.429875 76 0 153
-0.782525 -0.206560 -0.324567 76 0 153
0.391891 -0.366319 0.105327 153 0 76
-0.804375 -0.132616 0.142774 76 0 153
0.763335 -0.010335 0.201467 76 0 153
-0.163806 -0.193972 -0.441606 76 0 153
0.059676 0.351345 0.110541 0 255 0
-0.216941 -0.342380 0.270575 76 0 153
0.360503 -0.386079 0.189939 153 0 76
0.483209 -0.331455 -0.427839 76 0 153
0.320001 -0.324388 -0.425218 76 0 153
-0.804375 -0.040970 -0.346329 76 0 153
-0.782536 0.232905 0.421454 76 0 153
0.692994 -0.342380 -0.011103 76 0 153
0.694706 -0.134021 0.415990 76 0 153
0.062629 -0.155564 0.415991 76 0 153
-0.804375 -0.234458 -0.277503 76 0 153
-0.798913 -0.334609 -0.021417 76 0 153
-0.335204 -0.033849 -0.447069 76 0 153
0.047958 0.367733 0.058660 0 255 0
-0.365076 -0.016785 -0.430681 76 0 153
-0.372845 -0.359434 -0.235707 76 0 153
-0.213593 0.281918 -0.419757 76 0 153
0.763335 0.189823 0.178753 76 0 153
-0.103542 0.213147 -0.419757 76 0 153
-0.756165 0.345883 -0.028712 0 255 0
-0.797884 0.208861 0.443304 76 0 153
0.540581 -0.342380 0.006582 76 0 153
-0.018898 0.363400 0.443303 127 0 127
0.388971 0.345883 -0.199140 0 255 0
0.665350 -0.374597 -0.419756 76 0 153
0.757872 -0.053751 -0.016295 76 0 153
0.359631 0.340993 -0.452530 0 255 0
-0.233700 0.367733 -0.279721 0 255 0
-0.337045 -0.200757 -0.425219 76 0 153
0.285164 -0.342380 0.335922 76 0 153
-0.028714 0.372488 -0.207155 0 255 0
-0.085889 0.367733 -0.199285 0 255 0
-0.430987 0.154620 -0.441606 76 0 153
-0.251085 0.182346 -0.425219 76 0 153
0.785184 -0.248636 -0.393206 76 0 153
-0.498037 0.201364 -0.419757 76 0 153
0.700756 0.367733 -0.257828 0 255 0
0.545841 0.150859 -0.447068 76 0 153
-0.274378 0.345883 0.382171 0 255 0
-0.093799 -0.041329 0.415991 76 0 153
-0.123920 0.367866 0.443304 0 255 0
0.684708 0.345883 -0.305140 0 255 0
0.331742 0.345883 0.260720 0 255 0
-0.097913 -0.358768 -0.452530 76 0 153
-0.006820 0.098233 -0.452531 76 0 153
0.536544 0.367733 -0.192932 0 255 0
-0.804375 0.057972 0.057035 76 0 153
0.490238 -0.342380 0.304581 76 0 153
0.695158 -0.342380 -0.179342 76 0 153
-0.762407 -0.342380 0.293905 0 0 255
0.625073 -0.018672 -0.425218 76 0 153
-0.346446 0.345883 -0.026316 0 255 0
0.303114 0.029243 -0.447068 76 0 153
-0.744289 -0.359568 0.165465 0 0 255
-0.798913 -0.025550 0.273414 76 0 153
-0.173757 0.367733 -0.111219 0 255 0
-0.549045 -0.342380 -0.181723 76 0 153
-0.777063 0.142851 0.386498 76 0 153
0.785184 0.339399 -0.338856 0 255 0
-0.668690 -0.230256 0.437841 76 0 153
-0.448486 -0.331455 -0.316808 76 0 153
-0.798913 -0.248576 -0.328135 76 0 153
-0.473039 -0.031656 -0.425219 76 0 153
-0.498677 -0.342380 -0.185402 76 0 153
-0.284580 -0.117705 0.415991 76 0 153
-0.267039 -0.331455 -0.328777 76 0 153
-0.777063 -0.362306 0.017422 0 0 255
-0.552657 -0.129555 -0.441606 76 0 153
0.785184 -0.357983 0.274663 76 0 153
0.131285 0.367733 -0.213759 0 255 0
-0.035808 0.255617 0.410529 76 0 153
-0.599055 -0.265880 -0.447068 76 0 153
-0.798913 -0.206442 -0.353756 76 0 153
0.369621 -0.331455 0.042389 76 0 153
0.740642 0.367733 -0.026179 0 255 0
0.757872 0.083795 0.231758 76 0 153
0.785184 -0.369139 0.056475 76 0 153
-0.428881 0.183452 0.437841 76 0 153
0.107919 0.356126 -0.452530 0 255 0
-0.777063 0.310736 -0.363286 0 255 0
0.757872 0.128534 -0.334936 76 0 153
0.203071 -0.342380 0.332260 76 0 153
0.779722 0.110008 -0.014215 76 0 153
-0.777063 0.258753 0.381153 76 0 153
0.233147 0.356920 0.443304 0 255 0
0.531275 -0.130753 -0.425218 76 0 153
0.004061 0.336294 0.122504 0 255 0
0.785184 -0.350645 0.008508 76 0 153
0.460307 0.179135 0.421453 76 0 153
0.591506 0.145206 -0.425218 76 0 153
-0.798913 0.190391 0.343350 76 0 153
0.595705 -0.256335 -0.447068 76 0 153
-0.025935 0.087759 0.443303 76 0 153
-0.417959 0.209130 0.410529 76 0 153
0.696308 0.345883 -0.055343 0 255 0
0.445244 -0.333857 0.443304 76 0 153
-0.380997 0.345883 0.237185 0 255 0
0.337762 -0.342380 0.101836 76 0 153
-0.605052 -0.107864 0.437841 76 0 153
0.785184 0.306575 0.231753 0 255 0
0.671632 0.345883 -0.149713 0 255 0
0.758587 0.373195 -0.302273 0 255 0
-0.798913 -0.189939 0.342210 76 0 153
-0.609561 -0.342380 0.119095 76 0 153
-0.311985 0.345883 0.251299 0 255 0
-0.054440 -0.331455 -0.344497 76 0 153
0.022461 -0.010365 0.443303 76 0 153
0.052544 -0.227469 0.432378 76 0 153
-0.482995 0.183500 0.437841 76 0 153
0.175618 0.362270 -0.339561 0 255 0
-0.378874 -0.386079 0.133336 255 0 0
-0.730071 -0.342380 0.424472 76 0 153
0.667842 -0.342380 -0.043319 76 0 153
0.468465 0.367733 -0.211484 0 255 0
-0.447712 -0.342380 0.341905 76 0 153
-0.777063 -0.382155 -0.101210 0 0 255
0.753395 0.351345 -0.080301 0 255 0
0.395229 0.345883 0.197040 0 255 0
-0.297607 -0.086174 -0.430681 76 0 153
-0.012122 -0.244364 -0.452531 76 0 153
0.284080 -0.331455 0.081173 76 0 153
-0.199516 0.345883 0.393639 0 255 0
-0.515527 -0.375157 0.410529 76 0 153
0.198312 -0.342380 0.390709 76 0 153
-0.635553 -0.194375 0.437841 76 0 153
-0.303282 -0.067094 0.415991 76 0 153
0.260729 -0.005823 -0.430681 76 0 153
0.647357 0.345883 0.021216 0 255 0
-0.772214 -0.386079 -0.261892 76 0 153
0.435550 0.046354 -0.425218 76 0 153
0.161941 0.335874 0.410529 0 255 0
-0.809837 0.238580 0.103447 76 0 153
-0.777063 0.259654 0.033463 76 0 153
0.018997 0.023429 -0.452531 76 0 153
0.680322 0.263683 -0.419757 76 0 153
0.511829 -0.286023 -0.447068 76 0 153
0.779722 -0.059401 -0.187001 76 0 153
0.397182 0.367733 -0.408145 0 255 0
0.649997 0.345883 -0.271789 0 255 0
-0.698525 0.367733 -0.128511 0 255 0
0.198044 0.367733 -0.318781 0 255 0
-0.329405 -0.332787 0.410529 76 0 153
0.697786 -0.210792 -0.448326 76 0 153
0.056894 0.367733 -0.072143 0 255 0
-0.782525 -0.104037 -0.153987 76 0 153
0.303302 0.345883 -0.022611 0 255 0
0.396436 -0.119170 0.437840 76 0 153
0.183268 -0.342380 0.076898 76 0 153
-0.187279 0.104668 -0.447069 76 0 153
0.774259 -0.018155 -0.090538 76 0 153
-0.787988 -0.027039 -0.005282 76 0 153
-0.005224 0.005994 0.410529 76 0 153
0.779722 -0.097406 -0.161456 76 0 153
-0.192609 0.215907 -0.452531 76 0 153
0.536694 0.367733 -0.235920 0 255 0
0.785184 0.238845 0.120846 76 0 153
0.351174 0.345883 0.117432 0 255 0
-0.152218 0.080736 -0.441606 76 0 153
0.344222 0.345883 0.078639 0 255 0
-0.566792 0.198806 -0.419757 76 0 153
-0.093637 0.059561 -0.447069 76 0 153
-0.458298 0.362270 -0.044481 0 255 0
0.785184 0.291740 0.433633 76 0 153
0.523685 0.373195 -0.436918 0 255 0
-0.780720 0.198398 -0.278324 76 0 153
-0.338024 0.007621 0.415991 76 0 153
0.757872 -0.138855 -0.234617 76 0 153
0.002804 -0.386079 0.046188 204 51 127
0.589321 -0.342380 -0.201011 76 0 153
-0.750003 0.241401 0.410529 76 0 153
0.454699 0.261096 -0.419757 76 0 153
0.671329 0.225496 0.410529 76 0 153
0.219510 0.089864 0.415990 76 0 153
0.620221 -0.219597 0.437840 76 0 153
-0.563142 -0.408594 -0.419756 76 0 153
-0.746479 0.254171 -0.452531 153 0 76
0.022262 0.367733 -0.277550 0 255 0
0.258289 0.367733 0.073853 0 255 0
0.078518 0.345883 -0.231568 0 255 0
0.751732 0.367733 -0.170575 0 255 0
0.257028 0.351345 -0.162633 0 255 0
0.524729 -0.222741 0.437840 76 0 153
0.675894 0.076008 0.437840 76 0 153
-0.076176 0.351345 0.072550 0 255 0
-0.161509 -0.291933 -0.447069 76 0 153
0.770205 0.333917 -0.452530 0 255 0
0.732078 0.000916 -0.452530 76 0 153
-0.782525 0.153993 0.175967 76 0 153
-0.649110 -0.015517 -0.425219 76 0 153
0.079659 0.161451 -0.447068 76 0 153
-0.525059 -0.366540 -0.419756 76 0 153
-0.777063 -0.217436 0.385801 76 0 153
0.468717 0.072080 -0.425218 76 0 153
0.111294 -0.287652 0.432378 76 0 153
-0.209260 -0.276215 -0.425219 76 0 153
0.657273 -0.331455 -0.309748 76 0 153
-0.809837 -0.394640 0.230713 76 0 153
0.785184 0.259467 0.216817 76 0 153
-0.782525 0.176918 0.047959 76 0 153
0.779602 -0.246537 0.355905 76 0 153
-0.586480 -0.331455 0.379541 76 0 153
-0.279971 -0.375664 -0.419756 76 0 153
-0.265862 0.066885 0.437841 76 0 153
0.540598 -0.329351 0.437840 76 0 153
0.713961 0.363145 -0.452530 0 255 0
0.169165 -0.108864 0.415991 76 0 153
-0.283337 -0.341683 -0.452530 76 0 153
0.785184 0.332635 0.275237 0 255 0
0.143284 0.025284 0.432378 76 0 153
-0.404337 -0.197330 0.415991 76 0 153
-0.337789 -0.375697 -0.452530 76 0 153
-0.246864 -0.069538 0.415991 76 0 153
-0.359764 -0.318676 0.415991 76 0 153
0.291688 -0.316757 0.437840 76 0 153
-0.804375 0.087161 0.226658 76 0 153
0.456876 0.299186 0.410529 76 0 153
0.380179 -0.020309 -0.447068 76 0 153
0.709780 -0.336261 -0.452530 76 0 153
0.753380 0.285797 -0.242133 76 0 153
-0.725398 -0.171517 0.443304 76 0 153
0.159985 0.345883 -0.069701 0 255 0
-0.055909 -0.226247 -0.446635 76 0 153
0.453711 -0.037956 -0.430681 76 0 153
-0.075682 0.198398 0.441869 76 0 153
0.593487 -0.342380 0.327188 76 0 153
-0.233409 -0.331455 -0.161097 76 0 153
-0.804375 0.093870 0.121854 76 0 153
-0.684828 0.352865 0.421454 0 255 0
0.204223 0.066757 -0.430681 76 0 153
0.180015 -0.315439 -0.441606 76 0 153
-0.782525 0.165797 -0.234570 76 0 153
0.779722 -0.270078 -0.208769 76 0 153
-0.782525 -0.100916 -0.056023 76 0 153
0.014150 0.351345 0.160898 0 255 0
-0.787988 0.203719 -0.082276 76 0 153
0.785184 0.204781 -0.084715 76 0 153
0.477971 -0.372013 0.410529 76 0 153
0.702471 -0.248521 -0.452530 76 0 153
0.496299 0.351345 -0.150899 0 255 0
0.055505 -0.331455 -0.221640 76 0 153
0.014915 -0.340410 0.421454 76 0 153
0.595159 0.367733 0.314078 0 255 0
-0.078598 -0.324065 0.421453 76 0 153
0.779722 -0.168100 -0.198758 76 0 153
0.717803 0.191520 -0.419756 76 0 153
0.381004 -0.098646 -0.430680 76 0 153
-0.809837 0.336844 -0.339301 0 255 0
0.779722 0.186673 0.027717 76 0 153
-0.055909 -0.226290 0.415246 76 0 153
-0.783328 0.351345 -0.295922 0 255 0
0.126909 -0.259871 -0.425218 76 0 153
-0.254887 -0.015300 0.437841 76 0 153
0.546905 0.293171 0.410529 0 255 0
-0.584529 -0.219416 -0.447068 76 0 153
-0.374932 -0.386079 -0.303322 255 0 0
0.719635 -0.350703 -0.226476 76 0 153
-0.702769 0.367733 -0.159315 0 255 0
-0.188199 -0.220986 -0.447069 76 0 153
0.337760 0.345883 -0.000668 0 255 0
-0.568488 -0.089260 -0.447068 76 0 153
0.556312 0.345883 0.139346 0 255 0
0.785184 -0.373777 -0.143746 76 0 153
-0.492595 -0.013130 0.437841 76 0 153
0.560720 -0.331455 0.115933 76 0 153
0.769786 -0.088003 0.421454 76 0 153
-0.405620 -0.371237 -0.207884 255 0 0
0.589790 0.016789 -0.430681 76 0 153
-0.503284 0.088963 0.421453 76 0 153
-0.703353 0.345883 0.325545 0 255 0
0.774259 0.207290 0.155228 76 0 153
0.446079 0.112024 -0.425218 76 0 153
0.690898 0.345883 0.081748 0 255 0
0.763335 -0.288142 -0.061128 76 0 153
-0.783896 0.198398 0.242150 76 0 153
-0.760274 -0.331455 -0.401594 0 0 255
-0.245622 0.367733 0.242373 0 255 0
0.779722 -0.259189 -0.313818 76 0 153
0.638559 0.362270 -0.189205 0 255 0
-0.758250 -0.342380 0.328034 0 0 255
0.752410 0.306318 -0.358788 76 0 153
0.166281 0.358092 0.443304 0 255 0
-0.029997 0.345883 -0.115782 0 255 0
-0.137935 -0.235156 0.415991 76 0 153
-0.701871 0.072567 -0.425219 76 0 153
-0.703074 -0.246913 -0.425218 76 0 153
-0.631965 -0.342380 0.039869 76 0 153
0.757872 -0.294348 -0.001189 76 0 153
0.607230 0.367733 -0.168690 0 255 0
-0.188679 0.323428 -0.419756 0 255 0
0.313475 0.351345 -0.278071 0 255 0
0.785184 -0.138163 -0.389913 76 0 153
-0.047076 -0.384815 -0.419756 76 0 153
-0.485584 0.345883 0.225063 0 255 0
-0.405110 0.267006 0.410529 76 0 153
-0.071642 -0.342380 -0.022923 76 0 153
-0.738968 -0.288687 0.443304 76 0 153
-0.067506 0.346628 0.443304 0 255 0
-0.083887 0.367733 0.305155 0 255 0
-0.259930 0.367733 0.214697 0 255 0
-0.486981 -0.263839 -0.447068 76 0 153
0.699146 -0.048307 -0.441606 76 0 153
0.295047 0.345883 0.207940 0 255 0
0.582373 -0.342380 -0.434093 76 0 153
0.681603 -0.342380 0.429086 76 0 153
-0.230590 0.367733 0.364112 0 255 0
-0.517501 0.367733 0.195971 0 255 0
0.715327 -0.350333 -0.419756 76 0 153
-0.749091 0.345883 0.257783 0 255 0
-0.743794 -0.301462 0.410529 76 0 153
-0.533796 0.086539 -0.447069 76 0 153
-0.664499 -0.251284 -0.425218 76 0 153
-0.022629 0.285797 0.034115 0 255 0
0.251114 -0.400114 0.441747 76 0 153
-0.140594 0.118630 0.432378 76 0 153
0.567415 -0.293450 0.415990 76 0 153
-0.801618 0.136075 0.443304 76 0 153
-0.038225 0.186203 -0.419757 76 0 153
0.282390 -0.342380 -0.181630 76 0 153
-0.601814 0.367733 -0.404405 0 255 0
0.232120 -0.138428 0.437840 76 0 153
0.757872 -0.229445 0.132036 76 0 153
-0.577187 -0.342380 0.147489 76 0 153
0.455142 -0.342380 -0.244106 76 0 153
0.779722 0.038773 -0.349609 76 0 153
-0.041024 -0.342380 -0.065816 76 0 153
0.125117 0.367733 -0.343624 0 255 0
-0.405620 -0.350635 -0.097341 255 0 0
-0.744711 -0.203089 -0.419756 76 0 153
0.439523 -0.084971 0.415990 76 0 153
0.221864 -0.217470 -0.447068 76 0 153
0.121154 -0.327856 0.432378 76 0 153
0.354884 0.345883 -0.260359 0 255 0
0.752410 0.112985 0.356809 76 0 153
-0.065346 -0.271086 -0.447069 76 0 153
0.779722 -0.092353 0.305721 76 0 153
0.785184 -0.203980 -0.445266 76 0 153
0.638812 -0.325750 -0.425218 76 0 153
0.757872 0.179619 -0.157293 76 0 153
-0.287678 0.345883 0.173640 0 255 0
0.581549 0.186880 -0.425218 76 0 153
-0.353371 -0.342380 -0.218621 76 0 153
0.603109 0.029845 0.437840 76 0 153
-0.804375 0.135960 -0.276651 76 0 153
0.030939 0.152636 -0.452531 76 0 153
-0.345958 0.122146 -0.447069 76 0 153
-0.660048 0.020508 0.415991 76 0 153
0.711392 0.367733 -0.382056 0 255 0
0.757872 -0.158258 0.010660 76 0 153
0.628499 -0.248332 -0.447068 76 0 153
-0.068437 0.345883 -0.110941 0 255 0
-0.484259 -0.342380 0.364760 76 0 153
0.028913 0.279026 0.410529 76 0 153
-0.168069 0.367733 -0.174288 0 255 0
0.530782 -0.013975 0.415990 76 0 153
0.774259 -0.145910 -0.337625 76 0 153
-0.023251 -0.360180 -0.032844 204 51 127
0.757980 0.153714 -0.365132 76 0 153
-0.614590 0.363601 -0.452530 0 255 0
-0.114455 0.280071 -0.452531 76 0 153
0.511206 0.351345 0.413668 0 255 0
0.497000 0.024126 0.415990 76 0 153
-0.461951 -0.331455 -0.179760 76 0 153
0.658025 -0.229967 0.437840 76 0 153
0.092224 0.351345 0.172504 0 255 0
-0.237128 -0.195443 0.421453 76 0 153
-0.668906 -0.249187 0.415991 76 0 153
0.757872 0.110103 0.143675 76 0 153
0.779722 0.007665 -0.204645 76 0 153
0.438223 0.351345 0.157979 0 255 0
0.774259 0.052674 0.313283 76 0 153
0.417961 -0.331455 -0.196894 76 0 153
0.368280 -0.288370 -0.441606 76 0 153
0.053381 0.351345 -0.185665 0 255 0
0.774259 0.018523 0.058234 76 0 153
-0.021954 -0.364709 -0.419756 204 51 127
-0.567533 -0.342380 -0.240661 76 0 153
-0.739951 -0.331455 -0.452407 76 0 153
-0.777063 0.290655 0.204415 0 255 0
-0.465047 -0.124594 -0.430681 76 0 153
0.625970 -0.293223 -0.430680 76 0 153
0.779722 0.185186 -0.045309 76 0 153
0.574265 0.345883 -0.274343 0 255 0
0.145170 -0.397685 0.410529 76 0 153
0.327987 -0.236315 0.437840 76 0 153
0.779722 0.136416 0.331539 76 0 153
0.757872 -0.144155 -0.133677 76 0 153
-0.554617 -0.283766 0.421453 76 0 153
-0.782525 -0.308066 0.324103 76 0 153
0.752410 -0.372026 -0.309651 76 0 153
-0.497462 -0.331455 -0.132901 76 0 153
-0.405620 -0.370538 0.088036 255 0 0
0.500730 0.345883 -0.271435 0 255 0
0.639260 0.367733 0.114287 0 255 0
-0.782525 -0.182318 0.052443 76 0 153
-0.783852 0.351345 -0.069467 0 255 0
0.538786 -0.004304 -0.425218 76 0 153
0.574048 -0.011084 -0.425218 76 0 153
0.562729 0.345883 -0.310087 0 255 0
-0.659290 0.345883 -0.021561 0 255 0
-0.798913 -0.258265 0.414358 76 0 153
-0.200388 0.345883 0.212715 0 255 0
-0.139225 0.167121 0.437841 76 0 153
0.752410 -0.196600 0.380480 76 0 153
0.059032 0.345883 -0.321594 0 255 0
-0.113503 0.345883 -0.021862 0 255 0
0.157720 -0.339293 -0.452530 76 0 153
-0.026966 -0.190851 -0.419757 76 0 153
0.352634 0.083783 0.415990 76 0 153
0.593144 0.367733 -0.020118 0 255 0
-0.402028 -0.386079 0.035388 255 0 0
-0.639363 0.367733 0.173996 0 255 0
-0.429717 0.367733 0.227654 0 255 0
0.335848 -0.331455 -0.122192 76 0 153
0.574110 0.026478 0.415990 76 0 153
0.752410 -0.383078 0.377633 76 0 153
-0.778799 0.029068 0.443304 76 0 153
-0.598566 0.179017 -0.447069 76 0 153
0.316940 -0.262167 -0.425218 76 0 153
0.024407 -0.246548 -0.441606 76 0 153
0.753931 -0.182084 -0.365132 76 0 153
-0.293481 0.367733 0.306690 0 255 0
-0.116346 0.345883 -0.060069 0 255 0
-0.809837 0.190082 0.417928 76 0 153
0.106140 0.351345 0.204651 0 255 0
0.223716 0.367733 -0.025562 0 255 0
0.439788 0.345883 0.003117 0 255 0
0.785184 0.311099 0.097924 0 255 0
0.000136 -0.116270 0.443303 76 0 153
-0.581443 0.243130 0.410529 76 0 153
0.719635 -0.356662 -0.050269 76 0 153
-0.463351 -0.093363 0.415991 76 0 153
0.438335 0.367733 -0.303569 0 255 0
0.783870 0.285797 0.186314 76 0 153
-0.777063 0.367069 0.227758 0 255 0
0.149423 0.287700 -0.452530 76 0 153
0.766461 0.238382 -0.430681 76 0 153
-0.043583 -0.318628 0.443303 76 0 153
0.744373 0.211806 -0.452530 76 0 153
0.092616 -0.354557 -0.419756 76 0 153
-0.373173 0.002398 0.437841 76 0 153
0.536430 -0.112790 0.421453 76 0 153
0.754856 0.001745 0.443304 76 0 153
-0.288565 0.155967 0.415991 76 0 153
0.039594 -0.155562 0.437840 76 0 153
0.556808 0.092929 0.432378 76 0 153
-0.798913 0.109670 0.303237 76 0 153
-0.442087 0.352647 0.421453 0 255 0
-0.058305 -0.367749 0.443304 76 0 153
-0.293984 0.345883 0.024830 0 255 0
0.448973 0.367733 0.030819 0 255 0
-0.809837 -0.407594 0.328421 76 0 153
0.268805 0.345883 -0.210820 0 255 0
0.752410 0.065911 0.420381 76 0 153
-0.609512 -0.342380 -0.157024 76 0 153
0.438061 0.229459 0.443303 76 0 153
0.125791 -0.169573 0.437840 76 0 153
0.372656 -0.057596 0.437840 76 0 153
-0.774811 0.142994 -0.452530 76 0 153
-0.023251 -0.372018 0.299239 204 51 127
0.355376 0.246495 -0.452530 76 0 153
0.104273 -0.045503 0.415991 76 0 153
-0.782525 -0.035945 -0.167667 76 0 153
-0.095672 -0.271990 0.437841 76 0 153
-0.451883 -0.194618 0.437841 76 0 153
0.619060 -0.133608 -0.425218 76 0 153
-0.777063 0.295101 0.247347 0 255 0
-0.108545 0.367733 0.214572 0 255 0
0.037321 0.367733 -0.406776 0 255 0
-0.637154 -0.222922 -0.441606 76 0 153
-0.804375 -0.231760 -0.190816 76 0 153
0.195091 0.367733 0.379708 0 255 0
-0.670553 -0.342380 -0.181205 76 0 153
-0.804375 -0.109933 -0.286070 76 0 153
-0.678850 0.345883 -0.078862 0 255 0
0.165913 0.345883 0.112083 0 255 0
-0.700520 0.345883 -0.004015 0 255 0
-0.115071 -0.310678 0.415991 76 0 153
0.059961 0.367733 -0.114114 0 255 0
0.287217 0.171715 0.437840 76 0 153
0.752410 -0.200509 -0.391789 76 0 153
-0.166454 -0.144128 -0.447069 76 0 153
-0.732567 0.206701 -0.419756 76 0 153
-0.389476 -0.285400 0.421453 76 0 153
-0.515795 -0.401161 -0.452530 76 0 153
0.774259 -0.059945 0.155060 76 0 153
-0.412960 0.015553 -0.425219 76 0 153
0.672526 -0.331455 0.325534 76 0 153
-0.516714 -0.321460 0.421453 76 0 153
0.687752 0.182838 0.432378 76 0 153
-0.661061 0.367733 -0.258901 0 255 0
-0.210854 -0.342380 -0.255618 76 0 153
-0.472929 0.345883 -0.376505 0 255 0
0.009523 -0.362449 -0.131013 76 0 153
-0.782525 -0.281225 -0.264506 76 0 153
-0.138983 -0.018041 0.415991 76 0 153
0.486824 0.057829 0.437840 76 0 153
0.757872 0.031234 -0.330506 76 0 153
-0.196532 0.167422 0.421453 76 0 153
0.355359 -0.226188 -0.447068 76 0 153
-0.004783 0.317661 -0.455963 0 255 0
0.785184 0.311497 0.391917 0 255 0
0.004061 0.324936 0.367509 0 255 0
0.127787 0.345883 -0.089621 0 255 0
-0.558043 -0.233941 -0.447068 76 0 153
-0.622869 0.362270 -0.163244 0 255 0
-0.324731 0.105089 0.421453 76 0 153
-0.564699 0.362270 0.355310 0 255 0
-0.193206 0.367733 -0.254974 0 255 0
0.341271 0.001185 -0.441606 76 0 153
-0.324409 -0.016554 -0.425219 76 0 153
-0.359177 -0.371422 -0.419756 255 0 0
-0.804375 -0.187716 0.150727 76 0 153
-0.023251 -0.358110 0.201336 204 51 127
0.204084 0.367733 0.009765 0 255 0
-0.804375 0.187738 0.140270 76 0 153
-0.748643 0.336970 0.443304 0 255 0
-0.709450 0.017572 -0.441606 76 0 153
0.658330 -0.356465 0.443304 76 0 153
0.513180 -0.409114 0.428547 76 0 153
-0.756420 0.362270 0.058011 0 255 0
0.774259 -0.040121 -0.329523 76 0 153
-0.646059 -0.342380 0.241921 76 0 153
0.354244 -0.083691 0.415990 76 0 153
0.204010 0.238562 0.410529 76 0 153
-0.128733 -0.331455 0.036255 76 0 153
0.571182 -0.331455 -0.133555 76 0 153
-0.804375 0.059091 0.015909 76 0 153
0.740323 0.367733 0.117802 0 255 0
-0.625056 -0.331455 0.278483 76 0 153
-0.404191 0.345883 0.375047 0 255 0
0.578276 0.351345 -0.428131 0 255 0
0.499620 -0.128455 0.415990 76 0 153
-0.782525 -0.186070 -0.062034 76 0 153
0.057580 -0.331455 -0.050961 76 0 153
0.757872 -0.312926 -0.340068 76 0 153
-0.700342 0.167014 -0.430681 76 0 153
-0.748271 0.089539 -0.452530 76 0 153
-0.555752 0.367733 0.204514 0 255 0
0.533316 0.367733 0.044738 0 255 0
-0.213173 -0.252249 0.437841 76 0 153
-0.516054 0.241662 0.443303 76 0 153
-0.576568 0.127578 -0.447069 76 0 153
-0.782057 0.077615 -0.452530 76 0 153
0.489738 0.367733 -0.095020 0 255 0
0.570741 -0.375060 -0.452530 76 0 153
-0.628574 -0.413554 -0.429472 76 0 153
-0.038802 -0.331455 0.359841 76 0 153
0.075511 0.310388 -0.419756 0 255 0
0.214001 -0.331455 -0.378838 76 0 153
0.554678 -0.366815 0.410529 76 0 153
-0.524039 0.246977 -0.419757 76 0 153
0.719635 -0.364912 0.161691 76 0 153
-0.478738 0.017112 0.432378 76 0 153
-0.809837 0.175594 -0.371487 76 0 153
-0.804375 -0.228172 -0.249704 76 0 153
-0.372845 -0.355042 -0.154740 255 0 0
0.654308 0.345883 0.318530 0 255 0
0.757872 -0.203585 -0.051005 76 0 153
0.672146 -0.298086 0.437840 76 0 153
0.322133 -0.331455 0.388565 76 0 153
0.779722 -0.278079 0.108684 76 0 153
-0.809837 -0.384479 0.354642 76 0 153
0.779722 -0.212778 -0.298933 76 0 153
-0.782525 -0.007514 -0.107189 76 0 153
-0.777063 0.082945 0.386451 76 0 153
-0.507087 0.362270 -0.193523 0 255 0
-0.787224 0.198398 -0.185241 76 0 153
-0.065010 0.076158 0.437841 76 0 153
0.439150 -0.331455 0.277998 76 0 153
-0.189542 -0.342380 -0.369998 76 0 153
-0.760435 -0.331455 -0.269474 0 0 255
-0.401505 -0.342380 -0.278638 255 0 0
-0.351874 0.362270 -0.366591 0 255 0
-0.809837 -0.158603 -0.412089 76 0 153
-0.576897 -0.011065 0.415991 76 0 153
-0.221526 0.367733 0.334855 0 255 0
0.156766 0.367733 -0.200326 0 255 0
-0.798913 -0.042197 0.072166 76 0 153
-0.787988 0.203951 -0.026497 76 0 153
-0.541110 -0.380769 -0.452530 76 0 153
0.017956 0.367733 0.039484 0 255 0
0.779722 -0.157863 0.056838 76 0 153
0.663428 0.024345 0.415990 76 0 153
-0.105544 -0.039124 -0.441606 76 0 153
-0.343782 -0.336311 -0.452530 76 0 153
-0.440089 0.158225 0.415991 76 0 153
-0.743082 0.345883 -0.275649 0 255 0
0.399509 0.345883 0.342766 0 255 0
-0.092298 0.362270 -0.274350 0 255 0
0.353433 -0.331455 0.310708 153 0 76
-0.520198 0.351345 -0.105592 0 255 0
0.757872 0.049907 -0.188801 76 0 153
0.291003 -0.342380 -0.236737 76 0 153
-0.074573 0.040620 -0.425219 76 0 153
0.203817 -0.361055 -0.452530 76 0 153
0.220332 0.345883 -0.201729 0 255 0
-0.573296 -0.331455 -0.305659 76 0 153
0.634608 -0.088472 -0.430680 76 0 153
0.365535 -0.331455 -0.172757 153 0 76
-0.505493 0.370209 0.443304 0 255 0
0.475010 0.345883 0.104359 0 255 0
-0.401763 -0.342380 0.312657 76 0 153
0.166402 0.338002 -0.419756 0 255 0
-0.222661 0.367733 -0.315328 0 255 0
0.021724 0.345883 0.253464 0 255 0
-0.466638 0.228699 -0.452531 76 0 153
-0.123589 -0.331455 -0.324480 76 0 153
-0.646759 -0.367450 -0.452530 76 0 153
-0.509411 -0.213305 -0.425219 76 0 153
-0.028714 0.373167 0.182053 0 255 0
-0.174138 -0.216010 0.437841 76 0 153
0.650288 -0.342380 0.087319 76 0 153
-0.749326 -0.342380 -0.183181 76 0 153
-0.677260 0.345883 -0.378783 0 255 0
-0.391100 -0.342380 0.059297 255 0 0
-0.777063 0.334961 -0.400069 0 255 0
0.697786 0.138486 -0.441724 76 0 153
0.752410 0.203024 0.201349 76 0 153
-0.737993 0.285797 0.436611 0 255 0
0.522869 -0.409562 -0.449605 76 0 153
0.763335 -0.193493 0.351609 76 0 153
-0.660333 0.351345 -0.101007 0 255 0
-0.244211 0.367733 -0.216102 0 255 0
0.615479 0.367733 -0.293010 0 255 0
-0.743677 -0.342380 0.200658 76 0 153
0.757872 0.067848 -0.283686 76 0 153
0.359173 -0.386079 -0.308594 153 0 76
0.593907 -0.083217 0.415990 76 0 153
0.132741 0.351345 0.268740 0 255 0
0.422556 0.367733 0.344537 0 255 0
0.757872 -0.291134 0.334616 76 0 153
-0.353042 0.329694 -0.419756 0 255 0
-0.655658 -0.279805 0.415992 76 0 153
-0.317700 0.351345 0.153690 0 255 0
0.189655 -0.342380 -0.034720 76 0 153
-0.111306 -0.212781 0.415991 76 0 153
-0.313273 0.219529 -0.452531 76 0 153
