-0.515868 0.449167 -0.376118 0.000000 0.000000 1.000000
-0.267095 0.026150 -0.262693 0.000000 0.000000 1.000000
-0.627929 0.164554 -0.290871 0.000000 0.000000 1.000000
0.242892 -0.252799 0.289262 0.300000 0.000000 0.600000
-0.490329 0.654099 -0.403972 0.000000 0.000000 1.000000
-0.095818 0.499435 -0.362437 0.800000 0.200000 0.500000
-0.493851 -0.252799 0.052878 0.300000 0.000000 0.600000
0.251079 -0.252799 0.257916 0.300000 0.000000 0.600000
0.494595 0.494004 -0.388127 0.000000 0.000000 1.000000
-0.612452 0.255107 -0.297044 0.000000 0.000000 1.000000
-0.632958 0.450247 -0.349284 0.000000 0.000000 1.000000
-0.346397 0.642757 -0.418055 0.000000 0.000000 1.000000
-0.624031 -0.013801 -0.244359 0.000000 0.000000 1.000000
0.428206 -0.252799 0.517249 0.300000 0.000000 0.600000
0.330287 0.584540 -0.385303 0.000000 0.000000 1.000000
0.078380 -0.180564 -0.202731 0.000000 0.000000 1.000000
0.364780 -0.206273 0.132421 0.300000 0.600000 0.000000
-0.198007 -0.252799 -0.021841 0.300000 0.000000 0.600000
0.407857 0.162403 -0.299281 0.000000 0.000000 1.000000
-0.200117 -0.247529 -0.133541 0.300000 0.000000 0.600000
-0.502480 -0.204546 -0.113646 0.300000 0.000000 0.600000
0.654631 -0.204264 0.474493 0.300000 0.000000 0.600000
0.612133 -0.252022 -0.025094 0.300000 0.000000 0.600000
0.295277 -0.252799 0.169958 0.300000 0.000000 0.600000
-0.455235 -0.204262 0.432934 0.300000 0.000000 0.600000
-0.491090 -0.253600 -0.031896 0.300000 0.000000 0.600000
-0.447341 0.336856 -0.318874 0.800000 0.200000 0.500000
0.654828 -0.204598 0.120788 0.300000 0.000000 0.600000
0.356441 -0.252799 0.022119 0.300000 0.000000 0.600000
-0.222874 0.202703 -0.310001 0.000000 0.000000 1.000000
-0.526626 0.529207 -0.370478 0.800000 0.200000 0.500000
0.497849 0.098522 -0.255063 0.800000 0.200000 0.500000
-0.552585 -0.253434 -0.023020 0.300000 0.000000 0.600000
0.034506 -0.206505 0.729333 0.300000 0.000000 0.600000
-0.135673 -0.205109 0.654339 0.600000 0.000000 0.300000
-0.237590 0.537235 -0.399708 0.000000 0.000000 1.000000
-0.167247 -0.252799 0.369840 0.300000 0.000000 0.600000
0.554089 0.493429 -0.387968 0.000000 0.000000 1.000000
-0.107043 -0.252799 0.504416 0.300000 0.000000 0.600000
0.339905 -0.204279 -0.137517 0.300000 0.000000 0.600000
0.154563 0.127544 -0.289875 0.000000 0.000000 1.000000
-0.584146 0.221649 -0.288022 0.800000 0.200000 0.500000
-0.431781 -0.207003 0.313176 0.300000 0.000000 0.600000
-0.432610 -0.204262 0.690806 0.300000 0.000000 0.600000
-0.367783 -0.205252 0.385713 0.300000 0.000000 0.600000
0.003520 -0.206333 0.008581 0.300000 0.600000 0.000000
0.389299 -0.207705 0.217782 0.300000 0.600000 0.000000
0.061207 -0.252799 0.330059 0.300000 0.000000 0.600000
0.111011 -0.252799 0.209859 0.300000 0.000000 0.600000
-0.361990 0.620961 -0.418522 0.000000 0.000000 1.000000
0.497735 -0.252761 -0.085951 0.300000 0.000000 0.600000
-0.297911 -0.206333 0.237752 0.300000 0.600000 0.000000
0.163667 -0.177643 -0.204240 0.000000 0.000000 1.000000
0.124095 -0.242676 -0.149132 0.300000 0.000000 0.600000
0.045034 -0.206333 0.240495 0.300000 0.600000 0.000000
0.636776 -0.235764 0.735715 0.300000 0.000000 0.600000
-0.353595 0.466631 -0.353710 0.800000 0.200000 0.500000
0.449018 0.515373 -0.393847 0.000000 0.000000 1.000000
0.623032 0.017634 -0.258358 0.000000 0.000000 1.000000
0.191315 -0.252799 -0.062301 0.300000 0.000000 0.600000
0.126144 0.357632 -0.351515 0.000000 0.000000 1.000000
0.285465 -0.252799 -0.078899 0.300000 0.000000 0.600000
-0.633381 0.381350 -0.330831 0.000000 0.000000 1.000000
0.156987 -0.252799 0.495756 0.300000 0.000000 0.600000
-0.507535 0.529368 -0.370521 0.800000 0.200000 0.500000
0.379564 -0.210447 -0.045398 0.300000 0.000000 0.600000
0.496569 -0.182315 -0.201678 0.000000 0.000000 1.000000
0.226238 0.403367 -0.363777 0.000000 0.000000 1.000000
-0.491438 -0.209536 0.226065 0.300000 0.000000 0.600000
0.416442 -0.252799 0.545253 0.300000 0.000000 0.600000
-0.280260 -0.207125 0.312538 0.300000 0.000000 0.600000
-0.122995 0.421954 -0.368749 0.000000 0.000000 1.000000
0.462931 -0.252799 -0.060857 0.300000 0.000000 0.600000
-0.449842 -0.204262 0.673453 0.300000 0.000000 0.600000
-0.567318 -0.252748 0.021377 0.300000 0.000000 0.600000
-0.230689 0.527542 -0.370031 0.800000 0.200000 0.500000
0.524947 -0.089791 -0.231692 0.000000 0.000000 1.000000
-0.448328 -0.252799 0.301220 0.300000 0.000000 0.600000
0.264983 0.214100 -0.313104 0.000000 0.000000 1.000000
0.145803 -0.211870 -0.066712 0.300000 0.600000 0.000000
0.658994 0.490362 -0.360038 0.000000 0.000000 1.000000
0.292860 -0.252799 0.572088 0.300000 0.000000 0.600000
-0.060056 0.129380 -0.290368 0.000000 0.000000 1.000000
-0.373665 -0.252799 0.178286 0.300000 0.000000 0.600000
-0.276500 0.146668 -0.267978 0.800000 0.200000 0.500000
0.460535 -0.206367 0.029311 0.300000 0.600000 0.000000
-0.118888 -0.207365 0.062862 0.300000 0.600000 0.000000
-0.263783 -0.252799 0.126655 0.300000 0.000000 0.600000
-0.034916 -0.252799 0.169975 0.300000 0.000000 0.600000
-0.463165 -0.252799 0.618825 0.300000 0.000000 0.600000
-0.383896 -0.252799 -0.011955 0.300000 0.000000 0.600000
-0.194282 -0.203418 -0.149459 0.300000 0.000000 0.600000
0.350902 -0.206280 0.110070 0.300000 0.600000 0.000000
0.416179 0.001536 -0.256176 0.000000 0.000000 1.000000
0.145685 -0.209838 0.249320 0.300000 0.000000 0.600000
-0.627786 -0.244138 -0.121177 0.300000 0.000000 0.600000
-0.252837 -0.057472 -0.240354 0.000000 0.000000 1.000000
0.399662 -0.252799 0.014825 0.300000 0.000000 0.600000
-0.528890 0.287417 -0.332777 0.000000 0.000000 1.000000
-0.587931 0.364474 -0.326348 0.800000 0.200000 0.500000
-0.618109 0.553214 -0.376847 0.000000 0.000000 1.000000
0.657722 0.430790 -0.358897 0.000000 0.000000 1.000000
-0.243525 -0.034300 -0.246498 0.000000 0.000000 1.000000
0.666287 0.058327 -0.255087 0.000000 0.000000 1.000000
-0.231417 0.312736 -0.339484 0.000000 0.000000 1.000000
-0.256955 0.154081 -0.297028 0.000000 0.000000 1.000000
0.270882 0.646136 -0.401755 0.000000 0.000000 1.000000
0.652210 0.067534 -0.263993 0.000000 0.000000 1.000000
-0.235028 0.198161 -0.281774 0.800000 0.200000 0.500000
0.501959 0.671407 -0.411595 0.000000 0.000000 1.000000
-0.517709 -0.252799 0.176263 0.300000 0.000000 0.600000
-0.349810 -0.204725 0.599392 0.300000 0.000000 0.600000
-0.508972 -0.206613 0.149131 0.300000 0.000000 0.600000
0.428633 0.362492 -0.352816 0.000000 0.000000 1.000000
0.207360 0.580186 -0.384136 0.800000 0.200000 0.500000
-0.495292 -0.124177 -0.195406 0.000000 0.000000 1.000000
0.017701 0.087352 -0.279093 0.000000 0.000000 1.000000
-0.120191 0.630947 -0.397684 0.000000 0.000000 1.000000
-0.170008 -0.210757 0.129824 0.300000 0.000000 0.600000
0.048106 -0.208431 -0.089252 0.300000 0.600000 0.000000
-0.495856 -0.204262 0.351722 0.300000 0.000000 0.600000
0.392580 0.077129 -0.276381 0.000000 0.000000 1.000000
0.003797 -0.210341 0.029579 0.300000 0.000000 0.600000
-0.145849 -0.252799 0.175427 0.300000 0.000000 0.600000
-0.331291 -0.200200 -0.171954 0.300000 0.000000 0.600000
-0.278477 -0.206240 0.049017 0.300000 0.600000 0.000000
-0.451248 -0.168473 -0.183532 0.000000 0.000000 1.000000
0.200967 0.336692 -0.318830 0.800000 0.200000 0.500000
-0.081893 -0.206333 0.291802 0.300000 0.600000 0.000000
0.068757 -0.252799 0.011822 0.300000 0.000000 0.600000
0.279460 0.446104 -0.348148 0.800000 0.200000 0.500000
0.266649 -0.208000 -0.096495 0.300000 0.000000 0.600000
0.068013 0.269855 -0.300926 0.800000 0.200000 0.500000
-0.629403 0.070561 -0.265163 0.000000 0.000000 1.000000
0.422491 -0.211812 -0.037262 0.300000 0.600000 0.000000
-0.410595 -0.204262 0.534537 0.300000 0.000000 0.600000
-0.282439 -0.250072 -0.122033 0.300000 0.000000 0.600000
-0.123904 0.320323 -0.314486 0.800000 0.200000 0.500000
-0.195367 -0.204262 0.627032 0.300000 0.000000 0.600000
-0.211949 -0.218653 0.746753 0.300000 0.000000 0.600000
0.572610 -0.246932 -0.135936 0.300000 0.000000 0.600000
0.265585 0.151391 -0.269245 0.800000 0.200000 0.500000
-0.537786 0.166808 -0.273315 0.800000 0.200000 0.500000
0.067113 0.025337 -0.235413 0.800000 0.200000 0.500000
-0.027975 -0.252799 0.536481 0.300000 0.000000 0.600000
0.148885 -0.252799 0.372067 0.300000 0.000000 0.600000
0.356313 -0.252799 0.416420 0.300000 0.000000 0.600000
-0.438867 0.061247 -0.245023 0.800000 0.200000 0.500000
-0.239582 0.402285 -0.363494 0.000000 0.000000 1.000000
0.211867 -0.073735 -0.235985 0.000000 0.000000 1.000000
-0.530258 -0.204262 0.652362 0.300000 0.000000 0.600000
-0.472700 -0.252242 0.674719 0.300000 0.000000 0.600000
0.332404 -0.247202 -0.134853 0.300000 0.000000 0.600000
-0.067631 0.385571 -0.359077 0.000000 0.000000 1.000000
-0.218615 0.456067 -0.350878 0.800000 0.200000 0.500000
-0.602070 -0.250559 0.255284 0.300000 0.000000 0.600000
-0.056129 -0.218686 -0.175149 0.300000 0.000000 0.600000
0.548262 -0.199524 -0.190178 0.000000 0.000000 1.000000
-0.365839 -0.211053 -0.035433 0.300000 0.600000 0.000000
-0.264600 -0.098602 -0.229338 0.000000 0.000000 1.000000
-0.378384 0.044690 -0.267665 0.000000 0.000000 1.000000
-0.519791 0.082764 -0.277863 0.000000 0.000000 1.000000
0.237839 -0.172141 -0.182593 0.000000 0.000000 1.000000
0.310500 0.194443 -0.280777 0.800000 0.200000 0.500000
-0.144704 -0.206332 0.192446 0.300000 0.600000 0.000000
-0.503578 0.246661 -0.321780 0.000000 0.000000 1.000000
-0.023784 0.448977 -0.348935 0.800000 0.200000 0.500000
-0.577839 0.365101 -0.353362 0.000000 0.000000 1.000000
-0.226622 0.245626 -0.321503 0.000000 0.000000 1.000000
0.365931 0.104002 -0.283566 0.000000 0.000000 1.000000
0.481800 -0.204263 0.349893 0.300000 0.000000 0.600000
-0.562063 -0.150419 -0.215160 0.000000 0.000000 1.000000
0.609098 0.266948 -0.326658 0.000000 0.000000 1.000000
-0.054876 -0.053640 -0.214248 0.800000 0.200000 0.500000
-0.446279 -0.252799 0.050257 0.300000 0.000000 0.600000
0.324673 -0.205263 0.576768 0.300000 0.000000 0.600000
0.570840 -0.109745 -0.199209 0.000000 0.000000 1.000000
-0.457236 0.198458 -0.281853 0.800000 0.200000 0.500000
0.236663 0.371484 -0.355257 0.000000 0.000000 1.000000
-0.306761 -0.214662 -0.175715 0.300000 0.000000 0.600000
0.149104 0.393297 -0.333998 0.800000 0.200000 0.500000
-0.112018 -0.245784 -0.139949 0.300000 0.000000 0.600000
0.092572 -0.252799 0.587131 0.300000 0.000000 0.600000
-0.212675 -0.075550 -0.208443 0.000000 0.000000 1.000000
-0.558223 -0.252799 0.417845 0.300000 0.000000 0.600000
-0.206651 -0.209838 0.224534 0.300000 0.000000 0.600000
0.448020 0.318919 -0.314117 0.800000 0.200000 0.500000
-0.114993 0.075409 -0.248882 0.800000 0.200000 0.500000
-0.428952 -0.209226 0.083947 0.300000 0.600000 0.000000
-0.091165 -0.205789 0.320218 0.300000 0.000000 0.600000
0.001491 -0.210670 0.211525 0.300000 0.600000 0.000000
0.187156 -0.209990 0.012030 0.300000 0.000000 0.600000
0.276447 -0.229712 -0.172105 0.300000 0.000000 0.600000
0.052676 -0.199984 -0.162578 0.300000 0.000000 0.600000
0.573455 -0.252799 0.542137 0.300000 0.000000 0.600000
-0.480719 0.473980 -0.382691 0.000000 0.000000 1.000000
-0.522389 -0.107160 -0.227047 0.000000 0.000000 1.000000
-0.577289 0.583680 -0.411925 0.000000 0.000000 1.000000
-0.343378 0.596087 -0.415065 0.000000 0.000000 1.000000
-0.648380 -0.234706 0.279530 0.300000 0.000000 0.600000
-0.129063 0.516209 -0.366995 0.800000 0.200000 0.500000
-0.420954 -0.252799 0.088926 0.300000 0.000000 0.600000
-0.317263 -0.252757 0.656002 0.300000 0.000000 0.600000
-0.272160 -0.199601 -0.166532 0.300000 0.000000 0.600000
-0.291413 -0.206329 0.117659 0.300000 0.600000 0.000000
0.155235 -0.252799 0.635388 0.300000 0.000000 0.600000
-0.624790 -0.204262 0.508487 0.300000 0.000000 0.600000
0.192904 -0.252799 0.558282 0.300000 0.000000 0.600000
-0.439509 -0.252799 0.555005 0.300000 0.000000 0.600000
0.404741 -0.204292 0.434929 0.300000 0.000000 0.600000
0.377772 -0.205263 0.597413 0.300000 0.000000 0.600000
0.098528 0.652698 -0.416848 0.000000 0.000000 1.000000
-0.046930 -0.204721 0.354793 0.300000 0.000000 0.600000
-0.405701 -0.252799 0.484413 0.300000 0.000000 0.600000
0.240643 0.226687 -0.289359 0.800000 0.200000 0.500000
0.581133 -0.204931 0.195964 0.300000 0.000000 0.600000
0.208607 -0.204777 0.610023 0.300000 0.000000 0.600000
-0.519809 -0.181642 -0.180320 0.000000 0.000000 1.000000
0.614821 0.644931 -0.401433 0.000000 0.000000 1.000000
-0.016409 0.129146 -0.263256 0.800000 0.200000 0.500000
0.279427 -0.252799 0.403209 0.300000 0.000000 0.600000
-0.506857 -0.204262 0.516471 0.300000 0.000000 0.600000
-0.523726 -0.246337 -0.138294 0.300000 0.000000 0.600000
-0.277135 -0.005611 -0.227166 0.800000 0.200000 0.500000
-0.421727 0.608731 -0.417339 0.000000 0.000000 1.000000
0.082716 0.441750 -0.374130 0.000000 0.000000 1.000000
0.199747 -0.070970 -0.209671 0.000000 0.000000 1.000000
0.601349 0.373057 -0.328650 0.000000 0.000000 1.000000
-0.296542 -0.205263 0.612702 0.300000 0.000000 0.600000
-0.453420 0.257327 -0.324638 0.000000 0.000000 1.000000
0.039912 -0.101477 -0.201422 0.000000 0.000000 1.000000
-0.245156 -0.252799 0.064101 0.300000 0.000000 0.600000
0.488271 0.631295 -0.418690 0.000000 0.000000 1.000000
-0.369844 -0.252799 0.091047 0.300000 0.000000 0.600000
-0.350136 -0.252799 -0.023413 0.300000 0.000000 0.600000
0.296645 -0.153169 -0.214276 0.000000 0.000000 1.000000
-0.049595 -0.209838 0.277054 0.300000 0.000000 0.600000
0.490956 -0.204732 -0.113507 0.300000 0.000000 0.600000
-0.203838 0.177362 -0.303255 0.000000 0.000000 1.000000
0.317273 -0.205067 0.534928 0.300000 0.000000 0.600000
-0.232565 0.338091 -0.319205 0.800000 0.200000 0.500000
-0.176773 0.247902 -0.295111 0.800000 0.200000 0.500000
0.329798 -0.239679 0.728904 0.300000 0.000000 0.600000
-0.156383 -0.210839 -0.000960 0.300000 0.000000 0.600000
0.245211 0.066022 -0.273455 0.000000 0.000000 1.000000
0.546765 -0.204446 0.731415 0.300000 0.000000 0.600000
0.381090 -0.204286 -0.119393 0.300000 0.000000 0.600000
-0.635437 -0.241222 0.311407 0.300000 0.000000 0.600000
-0.287883 -0.239166 -0.157231 0.300000 0.000000 0.600000
0.604126 -0.249970 -0.121358 0.300000 0.000000 0.600000
-0.288109 -0.132188 -0.220260 0.000000 0.000000 1.000000
0.537416 -0.104654 -0.227721 0.000000 0.000000 1.000000
0.069605 -0.252799 0.425582 0.300000 0.000000 0.600000
0.335574 0.638042 -0.418577 0.000000 0.000000 1.000000
-0.114328 -0.210839 0.003574 0.300000 0.000000 0.600000
0.015179 -0.206697 0.430333 0.600000 0.300000 0.000000
0.006505 0.074103 -0.248529 0.800000 0.200000 0.500000
0.619372 -0.251172 0.264069 0.300000 0.000000 0.600000
0.119081 -0.206120 0.562644 0.600000 0.300000 0.000000
-0.462766 0.535986 -0.399372 0.000000 0.000000 1.000000
0.380245 0.178105 -0.303452 0.000000 0.000000 1.000000
-0.379689 -0.101727 -0.201355 0.000000 0.000000 1.000000
0.352188 0.376661 -0.356682 0.000000 0.000000 1.000000
0.175879 -0.208654 0.030051 0.300000 0.600000 0.000000
0.044801 -0.252799 0.221963 0.300000 0.000000 0.600000
0.323435 -0.206282 -0.006915 0.300000 0.600000 0.000000
-0.428307 0.648862 -0.402570 0.000000 0.000000 1.000000
-0.432218 -0.206333 0.039197 0.300000 0.600000 0.000000
-0.043826 0.650182 -0.402839 0.000000 0.000000 1.000000
0.133242 0.111881 -0.258592 0.800000 0.200000 0.500000
-0.373799 0.322113 -0.314957 0.800000 0.200000 0.500000
0.629335 0.320036 -0.338340 0.000000 0.000000 1.000000
0.187887 -0.203600 -0.144572 0.300000 0.000000 0.600000
-0.072724 0.562306 -0.406381 0.000000 0.000000 1.000000
-0.118234 0.027910 -0.236102 0.800000 0.200000 0.500000
-0.583726 -0.058019 -0.239821 0.000000 0.000000 1.000000
-0.100407 0.176035 -0.302907 0.000000 0.000000 1.000000
-0.274853 -0.252799 0.246091 0.300000 0.000000 0.600000
-0.249822 -0.166164 -0.184136 0.000000 0.000000 1.000000
-0.293966 -0.251435 0.684500 0.300000 0.000000 0.600000
0.002167 0.590726 -0.386963 0.000000 0.000000 1.000000
-0.632277 0.579697 -0.384005 0.000000 0.000000 1.000000
-0.021622 -0.206240 0.191609 0.300000 0.600000 0.000000
-0.422401 -0.206333 0.138647 0.300000 0.600000 0.000000
0.539502 -0.254933 -0.054977 0.300000 0.000000 0.600000
0.152028 0.506027 -0.364214 0.800000 0.200000 0.500000
0.589980 0.570106 -0.381418 0.000000 0.000000 1.000000
0.086345 0.116591 -0.259853 0.800000 0.200000 0.500000
-0.411599 0.293536 -0.307322 0.800000 0.200000 0.500000
-0.094439 -0.199697 -0.170249 0.300000 0.000000 0.600000
0.130690 0.483323 -0.358155 0.800000 0.200000 0.500000
-0.510045 0.641298 -0.400760 0.000000 0.000000 1.000000
-0.005440 -0.252799 0.073900 0.300000 0.000000 0.600000
-0.059252 0.040469 -0.239468 0.800000 0.200000 0.500000
0.319546 -0.013750 -0.224994 0.800000 0.200000 0.500000
-0.213262 -0.205263 0.690099 0.300000 0.000000 0.600000
-0.085309 -0.252799 0.585718 0.300000 0.000000 0.600000
0.601663 -0.184960 -0.200138 0.000000 0.000000 1.000000
-0.403156 0.108942 -0.257806 0.800000 0.200000 0.500000
0.338313 -0.206273 0.076216 0.300000 0.600000 0.000000
-0.128255 -0.252799 -0.078944 0.300000 0.000000 0.600000
0.467277 0.398318 -0.335341 0.800000 0.200000 0.500000
-0.075482 0.553167 -0.376835 0.800000 0.200000 0.500000
0.657635 -0.204596 0.063438 0.300000 0.000000 0.600000
-0.426111 -0.252799 -0.020771 0.300000 0.000000 0.600000
-0.178337 -0.018915 -0.223608 0.800000 0.200000 0.500000
0.211451 0.005957 -0.257361 0.000000 0.000000 1.000000
0.396329 0.324352 -0.342610 0.000000 0.000000 1.000000
0.645878 -0.167998 -0.202721 0.000000 0.000000 1.000000
0.466681 0.491016 -0.387304 0.000000 0.000000 1.000000
-0.109360 0.613322 -0.417911 0.000000 0.000000 1.000000
-0.008140 0.668013 -0.408460 0.000000 0.000000 1.000000
-0.107460 -0.205865 0.734590 0.300000 0.000000 0.600000
0.212795 -0.252799 0.126188 0.300000 0.000000 0.600000
0.647631 0.001890 -0.229263 0.000000 0.000000 1.000000
0.491426 -0.252799 0.043413 0.300000 0.000000 0.600000
-0.060912 -0.206307 0.144528 0.300000 0.600000 0.000000
0.474590 0.587793 -0.386176 0.000000 0.000000 1.000000
-0.135610 0.540910 -0.400696 0.000000 0.000000 1.000000
0.206569 -0.119738 -0.196574 0.000000 0.000000 1.000000
0.592637 0.646863 -0.401950 0.000000 0.000000 1.000000
-0.368291 0.603391 -0.390309 0.000000 0.000000 1.000000
-0.299752 -0.252799 0.134236 0.300000 0.000000 0.600000
0.021324 -0.252799 0.345184 0.300000 0.000000 0.600000
-0.531618 -0.204262 0.541700 0.300000 0.000000 0.600000
0.033759 0.330641 -0.317210 0.800000 0.200000 0.500000
-0.472230 0.268128 -0.327561 0.000000 0.000000 1.000000
-0.036825 -0.010084 -0.253016 0.000000 0.000000 1.000000
-0.058982 -0.252799 0.138833 0.300000 0.000000 0.600000
0.477079 -0.208201 0.306857 0.300000 0.000000 0.600000
-0.326237 0.671608 -0.411889 0.000000 0.000000 1.000000
-0.343658 0.420445 -0.341335 0.800000 0.200000 0.500000
-0.167136 0.285888 -0.332367 0.000000 0.000000 1.000000
-0.485171 -0.210418 -0.172838 0.000000 0.000000 1.000000
-0.097949 0.193212 -0.280448 0.800000 0.200000 0.500000
-0.143793 0.373801 -0.355895 0.000000 0.000000 1.000000
0.490875 0.546260 -0.374997 0.800000 0.200000 0.500000
-0.193645 0.638650 -0.418525 0.000000 0.000000 1.000000
-0.543906 -0.252799 0.343310 0.300000 0.000000 0.600000
0.676303 -0.230384 0.409948 0.300000 0.000000 0.600000
0.381223 -0.252799 -0.066952 0.300000 0.000000 0.600000
-0.483119 0.563181 -0.379520 0.800000 0.200000 0.500000
-0.653941 -0.206613 0.029470 0.300000 0.000000 0.600000
0.148584 -0.206120 0.562000 0.600000 0.300000 0.000000
-0.383476 -0.252799 -0.058812 0.300000 0.000000 0.600000
0.641891 0.443005 -0.368446 0.000000 0.000000 1.000000
0.484807 -0.210839 -0.018454 0.300000 0.000000 0.600000
-0.106577 0.277464 -0.302960 0.800000 0.200000 0.500000
-0.417183 0.357528 -0.324485 0.800000 0.200000 0.500000
-0.646997 -0.235653 0.361289 0.300000 0.000000 0.600000
0.390395 0.365429 -0.353603 0.000000 0.000000 1.000000
0.410901 0.199780 -0.309222 0.000000 0.000000 1.000000
-0.012933 -0.047151 -0.243124 0.000000 0.000000 1.000000
-0.272289 -0.204859 0.498006 0.300000 0.000000 0.600000
0.207470 0.046610 -0.241107 0.800000 0.200000 0.500000
-0.462305 -0.206333 0.063468 0.300000 0.600000 0.000000
-0.620279 -0.075962 -0.208569 0.000000 0.000000 1.000000
-0.393440 0.575483 -0.409887 0.000000 0.000000 1.000000
-0.067403 0.224637 -0.288808 0.800000 0.200000 0.500000
0.496752 -0.204400 0.729586 0.300000 0.000000 0.600000
-0.212539 -0.204263 0.535352 0.300000 0.000000 0.600000
0.112271 -0.177183 -0.181202 0.000000 0.000000 1.000000
-0.449765 -0.252799 -0.004564 0.300000 0.000000 0.600000
-0.434677 -0.252799 0.577724 0.300000 0.000000 0.600000
0.576161 0.328879 -0.316738 0.800000 0.200000 0.500000
-0.360160 0.349699 -0.349388 0.000000 0.000000 1.000000
-0.030953 -0.162181 -0.211261 0.000000 0.000000 1.000000
0.163997 0.450933 -0.376586 0.000000 0.000000 1.000000
0.312895 -0.235133 -0.165010 0.300000 0.000000 0.600000
-0.064863 -0.206682 0.601326 0.600000 0.300000 0.000000
0.056977 -0.252799 0.402142 0.300000 0.000000 0.600000
-0.574348 0.516389 -0.367043 0.800000 0.200000 0.500000
-0.370173 -0.026434 -0.248606 0.000000 0.000000 1.000000
0.537640 0.384726 -0.331716 0.800000 0.200000 0.500000
-0.206304 -0.252799 0.560318 0.300000 0.000000 0.600000
0.339180 -0.184312 -0.179467 0.000000 0.000000 1.000000
0.430645 -0.252799 0.371330 0.300000 0.000000 0.600000
0.230904 -0.203099 -0.147022 0.300000 0.000000 0.600000
-0.329699 0.191932 -0.280105 0.800000 0.200000 0.500000
0.587948 0.441011 -0.373897 0.000000 0.000000 1.000000
-0.180404 0.463812 -0.379965 0.000000 0.000000 1.000000
-0.548857 -0.204262 0.577604 0.300000 0.000000 0.600000
0.451584 -0.252799 0.571219 0.300000 0.000000 0.600000
-0.409031 0.562724 -0.406491 0.000000 0.000000 1.000000
0.060123 -0.235321 0.737380 0.300000 0.000000 0.600000
-0.136702 -0.252799 0.548483 0.300000 0.000000 0.600000
0.439526 -0.210839 -0.013696 0.300000 0.000000 0.600000
-0.411636 0.171223 -0.301644 0.000000 0.000000 1.000000
0.373879 -0.252799 0.101448 0.300000 0.000000 0.600000
-0.266367 0.426080 -0.342846 0.800000 0.200000 0.500000
-0.098380 -0.207120 0.449300 0.600000 0.300000 0.000000
0.325574 0.115698 -0.286754 0.000000 0.000000 1.000000
0.657726 0.385892 -0.332172 0.000000 0.000000 1.000000
0.027663 -0.206121 0.507507 0.600000 0.300000 0.000000
0.185089 0.581857 -0.411574 0.000000 0.000000 1.000000
0.447829 0.158957 -0.271249 0.800000 0.200000 0.500000
0.658656 -0.204313 0.453435 0.300000 0.000000 0.600000
-0.258271 0.238018 -0.319495 0.000000 0.000000 1.000000
-0.585452 -0.252217 0.031099 0.300000 0.000000 0.600000
0.203609 -0.204340 0.372785 0.300000 0.000000 0.600000
0.675806 0.418690 -0.342040 0.000000 0.000000 1.000000
0.603387 -0.252430 0.101271 0.300000 0.000000 0.600000
0.158748 0.067481 -0.273846 0.000000 0.000000 1.000000
0.272682 -0.175410 -0.181842 0.000000 0.000000 1.000000
-0.040613 0.439640 -0.346443 0.800000 0.200000 0.500000
-0.202726 -0.252799 0.353039 0.300000 0.000000 0.600000
0.457058 -0.247815 -0.132392 0.300000 0.000000 0.600000
-0.278387 0.303718 -0.337066 0.000000 0.000000 1.000000
-0.426327 -0.204686 0.730908 0.300000 0.000000 0.600000
0.054636 -0.252799 0.135645 0.300000 0.000000 0.600000
-0.428171 -0.206333 0.109077 0.300000 0.600000 0.000000
0.545620 0.578002 -0.383551 0.800000 0.200000 0.500000
-0.113356 -0.209838 0.263411 0.300000 0.000000 0.600000
0.342975 0.420733 -0.341412 0.800000 0.200000 0.500000
0.457672 0.334411 -0.318219 0.800000 0.200000 0.500000
0.238708 -0.206333 -0.074921 0.300000 0.600000 0.000000
0.171510 -0.030149 -0.247610 0.000000 0.000000 1.000000
-0.427708 -0.124352 -0.222366 0.000000 0.000000 1.000000
0.426282 0.457044 -0.351141 0.800000 0.200000 0.500000
-0.225684 0.627879 -0.396862 0.000000 0.000000 1.000000
0.432061 -0.252799 0.591966 0.300000 0.000000 0.600000
0.500387 0.037867 -0.265833 0.000000 0.000000 1.000000
0.209165 0.361220 -0.325475 0.800000 0.200000 0.500000
0.181613 -0.252799 0.619761 0.300000 0.000000 0.600000
-0.599245 -0.250895 -0.077316 0.300000 0.000000 0.600000
-0.149074 0.636233 -0.399102 0.000000 0.000000 1.000000
-0.371078 -0.252799 0.149025 0.300000 0.000000 0.600000
0.031754 -0.206258 0.003124 0.300000 0.600000 0.000000
0.547694 -0.252646 -0.095485 0.300000 0.000000 0.600000
0.654714 0.620381 -0.394854 0.000000 0.000000 1.000000
-0.460237 -0.248624 -0.129148 0.300000 0.000000 0.600000
0.598779 -0.252621 -0.084258 0.300000 0.000000 0.600000
-0.362885 0.212536 -0.312684 0.000000 0.000000 1.000000
0.007098 0.652340 -0.403421 0.000000 0.000000 1.000000
-0.458378 -0.104466 -0.200622 0.000000 0.000000 1.000000
-0.093940 -0.252799 0.186189 0.300000 0.000000 0.600000
-0.143777 -0.210830 0.108730 0.300000 0.000000 0.600000
-0.075081 -0.004168 -0.254644 0.000000 0.000000 1.000000
-0.464775 0.033734 -0.264726 0.000000 0.000000 1.000000
-0.654974 -0.207622 0.388249 0.300000 0.000000 0.600000
0.275457 -0.252799 0.223778 0.300000 0.000000 0.600000
0.102551 0.638036 -0.399585 0.000000 0.000000 1.000000
-0.480803 -0.099653 -0.229058 0.000000 0.000000 1.000000
0.199751 -0.249737 -0.124287 0.300000 0.000000 0.600000
0.229762 -0.251080 0.687471 0.300000 0.000000 0.600000
0.283492 -0.252124 -0.103987 0.300000 0.000000 0.600000
-0.082933 0.083323 -0.251003 0.800000 0.200000 0.500000
0.290683 -0.252799 0.504193 0.300000 0.000000 0.600000
0.405938 0.185053 -0.278222 0.800000 0.200000 0.500000
-0.481799 -0.148435 -0.188885 0.000000 0.000000 1.000000
-0.461852 -0.204314 0.333615 0.300000 0.000000 0.600000
0.481352 -0.252799 0.234192 0.300000 0.000000 0.600000
0.273349 -0.252799 0.127453 0.300000 0.000000 0.600000
-0.361726 -0.131766 -0.193373 0.000000 0.000000 1.000000
-0.136362 0.617431 -0.418239 0.000000 0.000000 1.000000
-0.551182 -0.250407 -0.119777 0.300000 0.000000 0.600000
-0.186556 -0.252799 0.462353 0.300000 0.000000 0.600000
0.242197 -0.019318 -0.223500 0.800000 0.200000 0.500000
0.403105 -0.208916 0.096152 0.300000 0.600000 0.000000
-0.498167 -0.090922 -0.204294 0.000000 0.000000 1.000000
0.040875 0.428372 -0.343460 0.800000 0.200000 0.500000
0.385159 -0.252799 0.612211 0.300000 0.000000 0.600000
-0.602870 0.589720 -0.411447 0.000000 0.000000 1.000000
0.625898 0.517079 -0.391794 0.000000 0.000000 1.000000
0.143268 0.148849 -0.295594 0.000000 0.000000 1.000000
0.642209 -0.204262 0.436550 0.300000 0.000000 0.600000
0.299390 -0.206333 0.170561 0.300000 0.600000 0.000000
0.295578 -0.204405 0.430053 0.300000 0.000000 0.600000
0.558592 0.381451 -0.330857 0.800000 0.200000 0.500000
0.343117 -0.205177 0.423642 0.300000 0.000000 0.600000
-0.294461 -0.132789 -0.193098 0.000000 0.000000 1.000000
0.087667 -0.252799 0.344379 0.300000 0.000000 0.600000
0.358179 -0.252799 0.325195 0.300000 0.000000 0.600000
0.490363 -0.206271 0.051478 0.300000 0.600000 0.000000
0.364177 0.334468 -0.345378 0.000000 0.000000 1.000000
-0.297553 -0.252799 0.412574 0.300000 0.000000 0.600000
0.610325 -0.252106 0.333257 0.300000 0.000000 0.600000
0.178209 0.320860 -0.341661 0.000000 0.000000 1.000000
-0.584574 -0.204718 0.074610 0.300000 0.000000 0.600000
-0.433823 -0.236752 -0.161921 0.300000 0.000000 0.600000
0.675896 0.369936 -0.331173 0.000000 0.000000 1.000000
0.356919 -0.252799 -0.047292 0.300000 0.000000 0.600000
-0.548324 0.144638 -0.267433 0.800000 0.200000 0.500000
-0.570654 -0.204403 0.315685 0.300000 0.000000 0.600000
0.113418 0.561950 -0.379186 0.800000 0.200000 0.500000
0.469109 -0.252799 0.381371 0.300000 0.000000 0.600000
-0.259360 -0.252799 0.490880 0.300000 0.000000 0.600000
-0.060704 0.514699 -0.393666 0.000000 0.000000 1.000000
-0.291030 0.148850 -0.295595 0.000000 0.000000 1.000000
0.364298 0.006221 -0.257432 0.000000 0.000000 1.000000
0.151230 0.475745 -0.383163 0.000000 0.000000 1.000000
-0.424832 -0.207582 0.217816 0.300000 0.600000 0.000000
0.111919 0.516184 -0.366988 0.800000 0.200000 0.500000
0.003115 0.053486 -0.270088 0.000000 0.000000 1.000000
0.362085 -0.205686 0.320298 0.300000 0.000000 0.600000
0.401178 -0.252799 0.586144 0.300000 0.000000 0.600000
-0.018192 -0.252799 -0.001947 0.300000 0.000000 0.600000
-0.645833 -0.030176 -0.230545 0.000000 0.000000 1.000000
0.634807 -0.248494 0.570575 0.300000 0.000000 0.600000
-0.239015 -0.206333 0.268132 0.300000 0.600000 0.000000
0.471207 -0.239476 -0.156497 0.300000 0.000000 0.600000
0.233785 -0.252799 0.608237 0.300000 0.000000 0.600000
0.092245 0.429836 -0.343853 0.800000 0.200000 0.500000
0.222320 -0.206310 0.145431 0.300000 0.600000 0.000000
-0.046637 -0.252799 0.536356 0.300000 0.000000 0.600000
0.380443 -0.252799 0.431416 0.300000 0.000000 0.600000
-0.032715 -0.207031 -0.102259 0.300000 0.000000 0.600000
0.254107 0.097966 -0.254917 0.800000 0.200000 0.500000
0.465596 -0.195471 -0.176592 0.000000 0.000000 1.000000
0.270936 -0.252799 0.258195 0.300000 0.000000 0.600000
-0.096992 -0.207120 0.526716 0.600000 0.300000 0.000000
0.660202 0.511241 -0.365730 0.000000 0.000000 1.000000
-0.445811 -0.252799 0.139419 0.300000 0.000000 0.600000
-0.461121 0.062857 -0.272607 0.000000 0.000000 1.000000
0.527089 0.413639 -0.366520 0.000000 0.000000 1.000000
-0.310147 0.492372 -0.387678 0.000000 0.000000 1.000000
0.000523 0.236881 -0.319197 0.000000 0.000000 1.000000
-0.171187 -0.252799 0.633661 0.300000 0.000000 0.600000
-0.371935 -0.252799 0.489775 0.300000 0.000000 0.600000
0.363518 0.107047 -0.257307 0.800000 0.200000 0.500000
-0.582880 0.343362 -0.320622 0.800000 0.200000 0.500000
-0.515732 -0.204262 0.337767 0.300000 0.000000 0.600000
0.397093 -0.036062 -0.218968 0.800000 0.200000 0.500000
0.064840 -0.206312 0.181864 0.300000 0.600000 0.000000
0.180425 -0.073149 -0.236143 0.000000 0.000000 1.000000
0.551392 -0.252799 0.069910 0.300000 0.000000 0.600000
0.572628 -0.204307 -0.089486 0.300000 0.000000 0.600000
-0.293222 0.459317 -0.378785 0.000000 0.000000 1.000000
-0.122813 -0.252799 0.145202 0.300000 0.000000 0.600000
0.328288 -0.252799 0.433428 0.300000 0.000000 0.600000
0.517779 -0.192018 -0.195693 0.000000 0.000000 1.000000
-0.297401 0.597965 -0.388883 0.000000 0.000000 1.000000
-0.275742 -0.206273 0.070049 0.300000 0.600000 0.000000
0.063693 -0.252586 -0.095927 0.300000 0.000000 0.600000
0.493455 -0.210839 -0.054795 0.300000 0.000000 0.600000
-0.208494 -0.026252 -0.248654 0.000000 0.000000 1.000000
0.312865 -0.252799 0.260860 0.300000 0.000000 0.600000
0.607702 -0.204263 -0.110542 0.300000 0.000000 0.600000
0.613981 -0.204262 0.605872 0.300000 0.000000 0.600000
-0.545135 0.547023 -0.402336 0.000000 0.000000 1.000000
-0.373908 -0.209604 0.299284 0.300000 0.000000 0.600000
-0.320541 0.559618 -0.405676 0.000000 0.000000 1.000000
0.549875 -0.204380 -0.077924 0.300000 0.000000 0.600000
0.253417 0.544161 -0.401568 0.000000 0.000000 1.000000
0.059833 -0.152418 -0.187794 0.000000 0.000000 1.000000
0.490209 0.606270 -0.416914 0.000000 0.000000 1.000000
-0.243020 0.053403 -0.270065 0.000000 0.000000 1.000000
0.162386 -0.247445 -0.133876 0.300000 0.000000 0.600000
0.600593 0.577476 -0.410170 0.000000 0.000000 1.000000
-0.017693 -0.205053 0.703978 0.600000 0.000000 0.300000
0.038842 0.200600 -0.309438 0.000000 0.000000 1.000000
-0.221903 -0.252799 -0.021658 0.300000 0.000000 0.600000
0.523096 0.359603 -0.352042 0.000000 0.000000 1.000000
0.003754 -0.252799 0.149395 0.300000 0.000000 0.600000
0.249731 -0.209856 0.121922 0.300000 0.000000 0.600000
0.629476 -0.204263 -0.086378 0.300000 0.000000 0.600000
0.200343 -0.252799 0.308522 0.300000 0.000000 0.600000
0.558411 -0.250451 0.692720 0.300000 0.000000 0.600000
-0.464839 0.332587 -0.344877 0.000000 0.000000 1.000000
0.455616 -0.204262 0.477836 0.300000 0.000000 0.600000
0.501295 0.047966 -0.241469 0.800000 0.200000 0.500000
0.581252 0.647385 -0.417525 0.000000 0.000000 1.000000
0.236083 -0.252799 -0.008423 0.300000 0.000000 0.600000
-0.111516 -0.252799 0.019859 0.300000 0.000000 0.600000
0.593680 -0.204262 0.602491 0.300000 0.000000 0.600000
-0.223047 -0.193469 -0.177187 0.000000 0.000000 1.000000
-0.489012 -0.211435 0.095761 0.300000 0.600000 0.000000
-0.582771 0.220400 -0.314434 0.000000 0.000000 1.000000
-0.564766 -0.168185 -0.183610 0.000000 0.000000 1.000000
-0.227035 -0.211270 0.028278 0.300000 0.600000 0.000000
-0.111718 -0.206297 0.178819 0.300000 0.600000 0.000000
-0.213233 -0.252799 0.304085 0.300000 0.000000 0.600000
0.488452 -0.252799 0.137606 0.300000 0.000000 0.600000
-0.525752 -0.252799 0.329238 0.300000 0.000000 0.600000
-0.209087 -0.150558 -0.215124 0.000000 0.000000 1.000000
-0.276231 0.358257 -0.324681 0.800000 0.200000 0.500000
0.122623 -0.252799 0.349313 0.300000 0.000000 0.600000
-0.155743 -0.206333 0.146242 0.300000 0.600000 0.000000
0.037920 0.614498 -0.418005 0.000000 0.000000 1.000000
-0.510471 -0.142850 -0.190401 0.000000 0.000000 1.000000
-0.216735 -0.204300 0.360799 0.300000 0.000000 0.600000
-0.374545 -0.252799 0.540470 0.300000 0.000000 0.600000
-0.161801 0.579268 -0.383890 0.800000 0.200000 0.500000
-0.346018 0.164410 -0.272684 0.800000 0.200000 0.500000
-0.283704 -0.205263 0.659404 0.300000 0.000000 0.600000
0.383391 -0.204609 0.433336 0.300000 0.000000 0.600000
0.172630 -0.206318 0.215345 0.300000 0.600000 0.000000
-0.590692 -0.206345 0.743297 0.300000 0.000000 0.600000
0.191122 0.633868 -0.398467 0.000000 0.000000 1.000000
0.501873 -0.252799 0.025138 0.300000 0.000000 0.600000
-0.088458 -0.204733 0.697587 0.600000 0.000000 0.300000
-0.451447 0.500388 -0.389839 0.000000 0.000000 1.000000
-0.222467 -0.204851 -0.123520 0.300000 0.000000 0.600000
-0.316174 -0.252799 0.291961 0.300000 0.000000 0.600000
0.205934 0.253098 -0.323506 0.000000 0.000000 1.000000
-0.107267 -0.206325 -0.105456 0.300000 0.000000 0.600000
0.104298 -0.209838 0.264497 0.300000 0.000000 0.600000
-0.268728 -0.252799 0.581118 0.300000 0.000000 0.600000
0.071334 -0.252799 0.538757 0.300000 0.000000 0.600000
-0.444309 -0.252799 0.499649 0.300000 0.000000 0.600000
0.253853 0.075695 -0.248959 0.800000 0.200000 0.500000
-0.220807 -0.252799 0.080952 0.300000 0.000000 0.600000
-0.166074 0.641417 -0.400492 0.000000 0.000000 1.000000
0.434061 -0.176461 -0.204838 0.000000 0.000000 1.000000
0.491650 0.418404 -0.367798 0.000000 0.000000 1.000000
0.207368 -0.013366 -0.225097 0.800000 0.200000 0.500000
-0.359369 -0.252799 0.425130 0.300000 0.000000 0.600000
0.439632 0.544440 -0.374518 0.800000 0.200000 0.500000
-0.534475 -0.022354 -0.222687 0.800000 0.200000 0.500000
-0.382337 -0.192540 -0.177444 0.000000 0.000000 1.000000
-0.125724 0.182688 -0.277574 0.800000 0.200000 0.500000
0.284749 -0.212009 0.746632 0.300000 0.000000 0.600000
0.182410 -0.205728 0.585050 0.300000 0.000000 0.600000
0.202043 -0.228973 -0.172352 0.300000 0.000000 0.600000
-0.161699 -0.208166 0.307048 0.300000 0.000000 0.600000
-0.207428 0.135147 -0.264889 0.800000 0.200000 0.500000
0.320171 -0.204845 0.654909 0.300000 0.000000 0.600000
0.459121 -0.252799 0.202666 0.300000 0.000000 0.600000
0.308679 0.640564 -0.400263 0.000000 0.000000 1.000000
0.020689 -0.252799 0.494772 0.300000 0.000000 0.600000
0.143748 0.250587 -0.295831 0.800000 0.200000 0.500000
0.101309 -0.206744 -0.103191 0.300000 0.000000 0.600000
0.301171 0.085616 -0.278627 0.000000 0.000000 1.000000
0.590134 0.202427 -0.282916 0.000000 0.000000 1.000000
0.047712 -0.206311 -0.034441 0.300000 0.600000 0.000000
0.010457 -0.034264 -0.219461 0.800000 0.200000 0.500000
0.400794 0.322245 -0.314992 0.800000 0.200000 0.500000
-0.392293 -0.240131 -0.154993 0.300000 0.000000 0.600000
-0.086610 0.264104 -0.299416 0.800000 0.200000 0.500000
-0.364416 0.185004 -0.305259 0.000000 0.000000 1.000000
-0.523456 -0.204609 0.215707 0.300000 0.000000 0.600000
-0.286437 -0.252799 0.042932 0.300000 0.000000 0.600000
0.674879 -0.206177 0.401808 0.300000 0.000000 0.600000
-0.146491 -0.162413 -0.185127 0.000000 0.000000 1.000000
-0.522765 -0.160084 -0.211884 0.000000 0.000000 1.000000
-0.340406 0.142584 -0.266883 0.800000 0.200000 0.500000
0.587868 -0.252764 0.040008 0.300000 0.000000 0.600000
0.374142 -0.252799 0.551906 0.300000 0.000000 0.600000
0.014569 0.068868 -0.274215 0.000000 0.000000 1.000000
-0.166793 -0.205759 0.418568 0.300000 0.000000 0.600000
-0.402170 -0.252799 0.555468 0.300000 0.000000 0.600000
-0.543984 -0.254548 0.616559 0.300000 0.000000 0.600000
0.150678 -0.252799 0.189435 0.300000 0.000000 0.600000
0.533671 -0.252799 0.414402 0.300000 0.000000 0.600000
-0.033834 -0.210839 0.024778 0.300000 0.000000 0.600000
0.181103 -0.209838 0.255061 0.300000 0.000000 0.600000
-0.272735 0.513416 -0.393323 0.000000 0.000000 1.000000
-0.383360 -0.204262 0.623785 0.300000 0.000000 0.600000
0.647750 -0.244956 0.010141 0.300000 0.000000 0.600000
0.659600 0.264016 -0.313411 0.000000 0.000000 1.000000
0.057344 -0.252799 -0.058977 0.300000 0.000000 0.600000
-0.458746 0.084959 -0.278451 0.000000 0.000000 1.000000
-0.157897 -0.210839 -0.037287 0.300000 0.000000 0.600000
-0.488987 0.491228 -0.387363 0.000000 0.000000 1.000000
-0.144407 -0.122120 -0.195947 0.000000 0.000000 1.000000
-0.375826 -0.080441 -0.207132 0.000000 0.000000 1.000000
-0.098301 -0.207120 0.467031 0.600000 0.300000 0.000000
-0.526560 -0.251402 0.684776 0.300000 0.000000 0.600000
-0.037044 0.350566 -0.322602 0.800000 0.200000 0.500000
-0.050913 -0.204886 -0.138484 0.300000 0.000000 0.600000
0.272027 -0.095309 -0.203088 0.000000 0.000000 1.000000
-0.330895 -0.210033 0.174771 0.300000 0.600000 0.000000
-0.568496 0.642982 -0.418029 0.000000 0.000000 1.000000
0.031282 -0.067917 -0.237547 0.000000 0.000000 1.000000
-0.244474 -0.204400 0.527378 0.300000 0.000000 0.600000
-0.293135 -0.204262 0.528275 0.300000 0.000000 0.600000
0.404494 -0.204900 0.732905 0.300000 0.000000 0.600000
0.660610 0.350425 -0.322713 0.000000 0.000000 1.000000
0.407679 0.068192 -0.274036 0.000000 0.000000 1.000000
-0.081817 0.148809 -0.295582 0.000000 0.000000 1.000000
0.185550 0.043931 -0.240392 0.800000 0.200000 0.500000
-0.265092 -0.181868 -0.202068 0.000000 0.000000 1.000000
0.435843 -0.206333 0.171103 0.300000 0.600000 0.000000
-0.079134 -0.206469 0.414905 0.600000 0.300000 0.000000
-0.103811 0.324025 -0.315460 0.800000 0.200000 0.500000
0.308335 0.470713 -0.381815 0.000000 0.000000 1.000000
0.020208 -0.208639 0.217565 0.300000 0.600000 0.000000
-0.142625 0.561216 -0.378989 0.800000 0.200000 0.500000
-0.200410 -0.251151 -0.114772 0.300000 0.000000 0.600000
-0.077950 -0.252799 0.563607 0.300000 0.000000 0.600000
0.098343 -0.204159 -0.141834 0.300000 0.000000 0.600000
-0.234385 0.158410 -0.271104 0.800000 0.200000 0.500000
0.457530 0.255237 -0.324078 0.000000 0.000000 1.000000
-0.219755 0.096938 -0.281662 0.000000 0.000000 1.000000
0.382213 -0.206258 -0.014764 0.300000 0.600000 0.000000
0.518060 -0.252799 0.324708 0.300000 0.000000 0.600000
0.282683 -0.027462 -0.248330 0.000000 0.000000 1.000000
-0.511204 0.510345 -0.392502 0.000000 0.000000 1.000000
0.205625 -0.204364 0.327982 0.300000 0.000000 0.600000
0.163897 -0.252799 0.336393 0.300000 0.000000 0.600000
-0.209266 -0.252799 0.011522 0.300000 0.000000 0.600000
-0.585725 -0.204364 -0.043892 0.300000 0.000000 0.600000
-0.342123 -0.252799 0.316382 0.300000 0.000000 0.600000
-0.296111 -0.204498 0.555469 0.300000 0.000000 0.600000
0.068476 -0.252799 0.063548 0.300000 0.000000 0.600000
0.005588 -0.252799 0.009814 0.300000 0.000000 0.600000
-0.557800 0.111069 -0.258375 0.800000 0.200000 0.500000
0.077298 -0.012329 -0.225375 0.800000 0.200000 0.500000
-0.308270 -0.206331 0.079156 0.300000 0.600000 0.000000
0.623272 -0.250708 0.046591 0.300000 0.000000 0.600000
-0.412681 -0.252799 0.422347 0.300000 0.000000 0.600000
-0.531783 -0.034233 -0.246516 0.000000 0.000000 1.000000
0.547883 -0.201811 -0.168562 0.300000 0.000000 0.600000
-0.092001 0.648520 -0.402393 0.000000 0.000000 1.000000
-0.041170 0.149665 -0.268782 0.800000 0.200000 0.500000
-0.236137 -0.205205 0.491934 0.300000 0.000000 0.600000
0.204550 -0.206333 0.232897 0.300000 0.600000 0.000000
-0.159752 0.472296 -0.355230 0.800000 0.200000 0.500000
-0.018408 0.640920 -0.418265 0.000000 0.000000 1.000000
-0.516425 0.586351 -0.385789 0.000000 0.000000 1.000000
0.492770 0.259225 -0.298135 0.800000 0.200000 0.500000
0.316634 -0.206333 0.066908 0.300000 0.600000 0.000000
0.671080 0.256848 -0.298211 0.000000 0.000000 1.000000
0.626314 -0.204930 0.068015 0.300000 0.000000 0.600000
-0.287535 -0.252799 0.619056 0.300000 0.000000 0.600000
0.575452 0.546788 -0.402272 0.000000 0.000000 1.000000
0.350913 -0.252799 0.622101 0.300000 0.000000 0.600000
-0.585797 -0.021391 -0.222945 0.800000 0.200000 0.500000
0.470559 -0.204511 0.698747 0.300000 0.000000 0.600000
0.606411 -0.204931 0.019339 0.300000 0.000000 0.600000
0.587738 -0.252765 0.283775 0.300000 0.000000 0.600000
0.128217 -0.062754 -0.211855 0.800000 0.200000 0.500000
0.629028 0.269175 -0.324973 0.000000 0.000000 1.000000
0.248451 -0.206668 0.142200 0.300000 0.600000 0.000000
-0.078410 0.463972 -0.352998 0.800000 0.200000 0.500000
-0.476253 0.257932 -0.297796 0.800000 0.200000 0.500000
-0.158189 -0.252799 0.648612 0.300000 0.000000 0.600000
0.246184 -0.204262 0.454840 0.300000 0.000000 0.600000
0.208549 -0.252799 0.008667 0.300000 0.000000 0.600000
-0.338564 -0.252799 0.205979 0.300000 0.000000 0.600000
0.117664 -0.252799 0.555423 0.300000 0.000000 0.600000
-0.031091 -0.141884 -0.217590 0.000000 0.000000 1.000000
-0.462881 -0.252799 0.456685 0.300000 0.000000 0.600000
-0.113283 -0.251948 -0.106658 0.300000 0.000000 0.600000
-0.048781 -0.252799 0.348991 0.300000 0.000000 0.600000
-0.323940 0.310864 -0.311974 0.800000 0.200000 0.500000
0.127650 -0.204368 0.728309 0.300000 0.000000 0.600000
0.511246 0.240738 -0.320208 0.000000 0.000000 1.000000
0.403698 0.539777 -0.373291 0.800000 0.200000 0.500000
-0.272203 0.413799 -0.366563 0.000000 0.000000 1.000000
-0.227686 -0.120998 -0.223265 0.000000 0.000000 1.000000
0.053196 -0.206302 0.168754 0.300000 0.600000 0.000000
-0.463475 -0.145587 -0.189666 0.000000 0.000000 1.000000
0.524805 -0.214533 -0.172589 0.000000 0.000000 1.000000
-0.119966 -0.107176 -0.227043 0.000000 0.000000 1.000000
0.060220 0.154469 -0.270067 0.800000 0.200000 0.500000
0.247788 -0.208769 0.293608 0.300000 0.600000 0.000000
-0.615519 -0.204262 -0.110406 0.300000 0.000000 0.600000
0.332026 -0.252799 0.608457 0.300000 0.000000 0.600000
0.431717 0.125249 -0.262188 0.800000 0.200000 0.500000
-0.536143 0.167969 -0.300772 0.000000 0.000000 1.000000
0.418561 -0.064048 -0.238586 0.000000 0.000000 1.000000
-0.266011 -0.209447 0.150758 0.300000 0.600000 0.000000
0.107608 -0.251208 -0.114385 0.300000 0.000000 0.600000
-0.396385 -0.206333 0.065605 0.300000 0.600000 0.000000
0.449198 0.347777 -0.348873 0.000000 0.000000 1.000000
0.121380 -0.252799 0.223964 0.300000 0.000000 0.600000
-0.373741 0.136551 -0.292288 0.000000 0.000000 1.000000
0.078065 -0.211735 0.737938 0.300000 0.000000 0.600000
0.563119 0.578086 -0.383574 0.800000 0.200000 0.500000
0.058300 -0.252799 0.109036 0.300000 0.000000 0.600000
-0.535138 -0.079390 -0.234468 0.000000 0.000000 1.000000
0.255044 0.026616 -0.235756 0.800000 0.200000 0.500000
-0.397097 -0.204262 0.449958 0.300000 0.000000 0.600000
0.624390 0.636060 -0.418601 0.000000 0.000000 1.000000
0.215140 -0.154516 -0.213830 0.000000 0.000000 1.000000
0.514352 0.084705 -0.251373 0.800000 0.200000 0.500000
0.679475 -0.212412 0.633801 0.300000 0.000000 0.600000
-0.558490 -0.055151 -0.240979 0.000000 0.000000 1.000000
-0.210374 -0.252799 0.519889 0.300000 0.000000 0.600000
-0.599783 0.433735 -0.344890 0.800000 0.200000 0.500000
0.331296 -0.252799 0.574232 0.300000 0.000000 0.600000
0.281134 -0.206256 0.047822 0.300000 0.600000 0.000000
0.582798 -0.204931 0.232801 0.300000 0.000000 0.600000
0.371363 -0.204923 0.730208 0.300000 0.000000 0.600000
0.651402 0.547220 -0.375248 0.000000 0.000000 1.000000
0.623049 -0.204930 0.103572 0.300000 0.000000 0.600000
-0.454783 -0.208576 0.150924 0.300000 0.600000 0.000000
-0.238084 0.306016 -0.310674 0.800000 0.200000 0.500000
-0.160467 -0.206271 0.175476 0.300000 0.600000 0.000000
-0.545081 -0.244311 -0.144388 0.300000 0.000000 0.600000
0.025173 -0.013255 -0.225126 0.800000 0.200000 0.500000
-0.022627 -0.209805 0.296599 0.300000 0.000000 0.600000
0.352677 -0.211406 0.216505 0.300000 0.600000 0.000000
-0.012535 -0.252799 0.044884 0.300000 0.000000 0.600000
0.427700 -0.252799 0.484061 0.300000 0.000000 0.600000
-0.064104 0.264850 -0.326659 0.000000 0.000000 1.000000
-0.644899 -0.204529 0.210924 0.300000 0.000000 0.600000
-0.520633 -0.252799 0.532675 0.300000 0.000000 0.600000
-0.516258 -0.252799 0.307699 0.300000 0.000000 0.600000
-0.229226 -0.205263 0.444237 0.300000 0.000000 0.600000
-0.029009 -0.087825 -0.232216 0.000000 0.000000 1.000000
-0.554625 0.378656 -0.357226 0.000000 0.000000 1.000000
0.348881 -0.206333 0.275007 0.300000 0.600000 0.000000
-0.517095 0.470038 -0.381634 0.000000 0.000000 1.000000
0.390835 -0.206774 0.018287 0.300000 0.600000 0.000000
-0.267885 -0.252799 0.001887 0.300000 0.000000 0.600000
0.171591 -0.251769 0.681710 0.300000 0.000000 0.600000
-0.191304 0.144773 -0.294492 0.000000 0.000000 1.000000
0.410707 -0.206333 0.279714 0.300000 0.600000 0.000000
-0.629960 0.399641 -0.335696 0.000000 0.000000 1.000000
0.679899 -0.222341 0.578881 0.300000 0.000000 0.600000
-0.161490 -0.118771 -0.196828 0.000000 0.000000 1.000000
-0.025305 -0.238118 -0.159383 0.300000 0.000000 0.600000
0.104674 -0.204274 0.340978 0.300000 0.000000 0.600000
0.666993 0.311556 -0.322760 0.000000 0.000000 1.000000
0.599834 -0.252668 0.620502 0.300000 0.000000 0.600000
-0.617711 0.190389 -0.279767 0.000000 0.000000 1.000000
0.213787 0.066887 -0.246551 0.800000 0.200000 0.500000
-0.646186 -0.235566 0.702107 0.300000 0.000000 0.600000
0.023442 0.379944 -0.330462 0.800000 0.200000 0.500000
0.321531 -0.252799 0.346353 0.300000 0.000000 0.600000
-0.635758 -0.204302 0.134486 0.300000 0.000000 0.600000
-0.179267 -0.204493 0.654565 0.300000 0.000000 0.600000
-0.083819 -0.252799 0.647632 0.300000 0.000000 0.600000
0.164436 -0.252799 0.288510 0.300000 0.000000 0.600000
-0.376821 -0.206308 -0.015494 0.300000 0.600000 0.000000
0.332964 0.086931 -0.278980 0.000000 0.000000 1.000000
0.228538 -0.252799 0.453671 0.300000 0.000000 0.600000
0.283077 -0.245938 0.711866 0.300000 0.000000 0.600000
0.552844 -0.252959 0.661572 0.300000 0.000000 0.600000
-0.538401 -0.204262 0.315445 0.300000 0.000000 0.600000
0.467338 0.266768 -0.300116 0.800000 0.200000 0.500000
0.384502 -0.250633 0.691204 0.300000 0.000000 0.600000
0.635427 -0.248359 0.115498 0.300000 0.000000 0.600000
0.186239 -0.205576 0.506316 0.300000 0.000000 0.600000
-0.078944 -0.206333 0.257495 0.300000 0.600000 0.000000
0.167853 -0.252799 0.010478 0.300000 0.000000 0.600000
-0.104274 -0.252799 0.382209 0.300000 0.000000 0.600000
-0.552195 -0.204399 0.268222 0.300000 0.000000 0.600000
-0.642531 0.148360 -0.280121 0.000000 0.000000 1.000000
-0.540468 -0.252799 0.149333 0.300000 0.000000 0.600000
-0.654410 -0.160405 -0.187591 0.000000 0.000000 1.000000
0.033207 -0.206269 0.198885 0.300000 0.600000 0.000000
-0.650448 0.009854 -0.231839 0.000000 0.000000 1.000000
0.389931 -0.252799 0.646258 0.300000 0.000000 0.600000
-0.519735 -0.204602 0.255848 0.300000 0.000000 0.600000
-0.123584 -0.206333 0.166030 0.300000 0.600000 0.000000
-0.372956 -0.252799 -0.078531 0.300000 0.000000 0.600000
0.209857 -0.252799 0.104042 0.300000 0.000000 0.600000
0.484711 0.510402 -0.392517 0.000000 0.000000 1.000000
0.587979 -0.145186 -0.189775 0.000000 0.000000 1.000000
0.451026 -0.204262 0.461085 0.300000 0.000000 0.600000
0.515619 -0.209227 0.221189 0.300000 0.000000 0.600000
0.672526 -0.205507 -0.107259 0.300000 0.000000 0.600000
-0.168168 -0.047148 -0.243125 0.000000 0.000000 1.000000
0.005449 0.582041 -0.411623 0.000000 0.000000 1.000000
0.346126 -0.204298 0.337489 0.300000 0.000000 0.600000
-0.586321 -0.252176 0.436982 0.300000 0.000000 0.600000
0.472168 0.646727 -0.401914 0.000000 0.000000 1.000000
-0.329969 0.414291 -0.366695 0.000000 0.000000 1.000000
0.641508 -0.073218 -0.209257 0.000000 0.000000 1.000000
-0.637464 0.052024 -0.242642 0.000000 0.000000 1.000000
-0.294233 -0.035852 -0.219026 0.800000 0.200000 0.500000
0.583042 -0.204589 0.037979 0.300000 0.000000 0.600000
0.605900 0.158567 -0.297735 0.000000 0.000000 1.000000
0.656493 -0.224402 -0.169384 0.300000 0.000000 0.600000
-0.047009 -0.206125 0.727368 0.300000 0.000000 0.600000
0.288776 -0.207648 0.309786 0.300000 0.000000 0.600000
-0.017698 -0.207119 0.445649 0.600000 0.300000 0.000000
0.064873 -0.204291 0.338588 0.300000 0.000000 0.600000
