ply
format ascii 1.0
element vertex 1248
property float x
property float y
property float z
property uchar red
property uchar green
property uchar blue
end_header
-0.570847 -0.208271 0.706054 153 0 76
0.362594 0.227325 -0.282979 153 0 76
-0.033134 0.601757 -0.413670 204 51 127
-0.428271 -0.208271 0.437194 0 127 127
0.037368 -0.039698 -0.245618 204 51 127
0.348420 0.351850 -0.317070 153 0 76
-0.607520 -0.208271 0.030368 153 0 76
0.061181 -0.231080 -0.103362 153 0 76
-0.077570 -0.210863 0.015881 153 0 76
-0.558842 -0.251016 0.123458 153 0 76
-0.272799 0.509835 -0.358999 153 0 76
0.230250 -0.208271 0.486111 153 0 76
-0.542746 0.303992 -0.303513 153 0 76
-0.534190 -0.209019 0.036703 0 127 127
0.427647 0.347608 -0.315896 153 0 76
0.604979 -0.208271 0.056505 153 0 76
-0.067013 -0.251016 -0.119334 153 0 76
-0.137007 -0.251016 -0.011904 153 0 76
-0.072736 0.185686 -0.306447 204 51 127
0.674099 -0.224843 0.463853 153 0 76
0.480516 0.001145 -0.256660 204 51 127
-0.376244 -0.251016 0.599978 153 0 76
0.224979 -0.208271 0.526236 153 0 76
0.071645 -0.057003 -0.240977 204 51 127
0.283515 -0.215723 -0.113208 153 0 76
0.481106 -0.251016 0.361986 153 0 76
-0.167097 -0.208271 -0.054014 153 0 76
-0.430799 -0.208271 0.212013 0 127 127
0.565824 -0.209019 0.046361 0 127 127
-0.110791 -0.174410 -0.163410 153 0 76
-0.490433 -0.208271 0.641727 153 0 76
0.191443 -0.251016 0.304152 153 0 76
-0.158890 -0.012060 -0.253148 204 51 127
0.643013 -0.157261 -0.190281 204 51 127
0.307902 -0.251016 0.602772 153 0 76
0.069992 -0.017121 -0.216866 153 0 76
0.252895 -0.251016 0.168844 153 0 76
-0.221733 -0.251016 0.632014 153 0 76
0.248255 0.440747 -0.340389 153 0 76
-0.017110 -0.209019 0.102600 0 127 127
-0.215027 -0.251016 -0.094497 153 0 76
0.447604 0.556462 -0.406472 204 51 127
0.001254 0.227074 -0.317596 204 51 127
-0.066772 -0.251016 0.445398 153 0 76
-0.350042 -0.208271 0.294562 0 127 127
-0.390189 0.049130 -0.235143 153 0 76
-0.483452 0.399635 -0.329248 153 0 76
0.574381 -0.230268 0.749833 153 0 76
0.003244 -0.127119 -0.222071 204 51 127
-0.206861 -0.209019 0.085715 0 127 127
0.503951 -0.209019 0.017290 0 127 127
-0.234961 -0.071451 -0.237079 204 51 127
-0.005692 0.272741 -0.329982 204 51 127
0.498461 0.060849 -0.237901 153 0 76
-0.526100 -0.251016 0.611798 153 0 76
-0.387970 -0.251016 0.552685 153 0 76
0.515879 -0.251016 0.385449 153 0 76
-0.266567 -0.209019 0.021030 0 127 127
0.219838 -0.209019 0.231275 0 127 127
0.067929 0.570603 -0.410363 204 51 127
-0.618265 -0.230450 -0.192931 153 0 76
0.240899 0.168063 -0.301687 204 51 127
0.134679 -0.208534 0.365803 0 127 127
0.013223 -0.251016 0.467461 153 0 76
0.108162 -0.208271 0.055903 0 127 127
-0.119899 -0.251016 0.277960 153 0 76
0.341018 0.333929 -0.346430 204 51 127
0.247592 -0.152743 -0.215116 204 51 127
-0.482085 -0.250815 -0.159468 153 0 76
-0.214983 -0.251016 0.485347 153 0 76
0.554677 -0.208271 0.136163 0 127 127
-0.633167 -0.139558 -0.217998 204 51 127
0.378397 -0.208287 0.334784 0 127 127
0.497246 0.017695 -0.261102 204 51 127
-0.027799 -0.210404 0.554271 76 0 153
0.569471 -0.251016 0.645099 153 0 76
0.292319 -0.066552 -0.238437 204 51 127
0.576723 -0.220285 -0.198411 153 0 76
0.536894 -0.251016 -0.020357 153 0 76
0.018071 -0.231454 -0.168308 153 0 76
0.469542 0.577523 -0.377308 204 51 127
-0.445621 0.046213 -0.268873 204 51 127
-0.637957 -0.239967 0.715415 153 0 76
-0.638490 -0.249612 -0.119814 153 0 76
-0.638818 -0.104824 -0.203901 204 51 127
0.004810 -0.177719 -0.208450 204 51 127
0.188809 -0.209019 0.201890 0 127 127
0.652361 -0.208271 0.292735 153 0 76
0.289197 -0.208271 0.647205 153 0 76
0.039515 0.337029 -0.312358 153 0 76
-0.487982 -0.228884 0.462178 153 0 76
0.059958 0.491188 -0.388858 204 51 127
0.097130 -0.208271 0.737353 153 0 76
0.100996 0.578420 -0.407190 204 51 127
-0.551517 -0.251016 0.570791 153 0 76
-0.372521 -0.208271 0.027103 0 127 127
0.614661 0.534836 -0.400662 204 51 127
-0.637089 -0.208271 0.490795 153 0 76
0.451954 0.281188 -0.332258 204 51 127
-0.495055 -0.251016 0.057932 153 0 76
0.247010 -0.209019 0.078777 0 127 127
0.140422 0.401044 -0.364548 204 51 127
0.492406 -0.209019 0.159296 0 127 127
0.417574 -0.251016 0.625151 153 0 76
-0.489123 -0.186150 -0.135329 153 0 76
-0.477604 0.263262 -0.327430 204 51 127
0.674099 -0.211764 0.035369 153 0 76
0.624024 0.653126 -0.417298 204 51 127
0.302128 0.619722 -0.388637 204 51 127
0.293987 0.172444 -0.267965 153 0 76
0.571190 -0.208271 0.746061 153 0 76
0.131681 -0.208271 0.709068 153 0 76
-0.479349 -0.251016 0.102412 153 0 76
-0.205830 0.632313 -0.420154 204 51 127
0.085664 -0.159089 -0.190462 204 51 127
0.173839 -0.251016 0.589683 153 0 76
-0.398674 -0.251016 0.648378 153 0 76
0.611277 -0.208271 0.587652 153 0 76
-0.343594 -0.251016 0.298736 153 0 76
0.529154 -0.251016 0.302404 153 0 76
0.235687 -0.251016 0.602644 153 0 76
0.354444 -0.102175 -0.194016 204 51 127
0.177866 -0.251016 0.264495 153 0 76
0.007125 -0.249218 0.678240 153 0 76
0.392825 -0.251016 -0.104140 153 0 76
-0.109403 -0.251016 0.453116 153 0 76
0.380334 -0.201146 -0.098450 153 0 76
0.088985 0.603282 -0.406810 204 51 127
0.647548 -0.208271 0.647334 153 0 76
0.572639 0.513360 -0.360666 153 0 76
-0.637966 -0.251015 0.608330 153 0 76
0.188652 -0.207916 -0.072791 153 0 76
-0.070065 -0.222139 0.462178 153 0 76
0.440398 -0.251016 -0.114140 153 0 76
-0.140680 0.352486 -0.351501 204 51 127
0.657023 -0.251016 0.095809 153 0 76
-0.590498 -0.023161 -0.250140 204 51 127
-0.252666 0.308845 -0.304822 153 0 76
-0.433530 -0.251016 0.194874 153 0 76
-0.596652 0.235692 -0.285015 153 0 76
0.665425 -0.208271 0.688896 153 0 76
-0.207580 -0.208271 0.617289 153 0 76
-0.151441 0.543666 -0.403018 204 51 127
-0.318589 -0.053566 -0.207031 153 0 76
-0.038052 -0.208271 0.033229 0 127 127
0.549094 -0.244651 -0.176956 153 0 76
0.628318 -0.207614 -0.074174 153 0 76
0.668328 -0.251016 0.375449 153 0 76
-0.001720 -0.251016 0.108246 153 0 76
-0.557171 -0.208483 0.306769 0 127 127
0.072594 0.654844 -0.400158 0 0 255
0.660038 -0.251016 0.521763 153 0 76
0.358155 -0.208271 0.142225 0 127 127
-0.624039 0.482749 -0.386450 204 51 127
0.365890 -0.251016 -0.055201 153 0 76
-0.516793 0.666550 -0.401554 204 51 127
-0.547919 -0.202465 -0.200116 153 0 76
0.016820 0.600432 -0.417741 204 51 127
-0.079113 -0.208271 -0.007065 153 0 76
-0.225747 -0.232554 -0.191296 153 0 76
0.066263 -0.251016 0.515402 153 0 76
-0.102013 -0.012889 -0.218012 153 0 76
0.420054 -0.188202 -0.194039 153 0 76
0.342809 0.141942 -0.294702 204 51 127
0.654849 0.604224 -0.399432 204 51 127
-0.366030 -0.233291 0.015881 153 0 76
-0.428270 -0.251016 0.298685 153 0 76
0.135057 0.100311 -0.283429 204 51 127
-0.369392 -0.251016 0.227448 153 0 76
-0.228288 -0.209019 0.161777 0 127 127
0.051734 -0.208271 0.107377 0 127 127
-0.341655 0.109545 -0.251143 153 0 76
-0.637957 -0.250694 0.135257 153 0 76
0.015654 -0.251016 0.539418 153 0 76
-0.180161 -0.209019 0.183449 0 127 127
-0.036071 0.644897 -0.400105 0 0 255
-0.363832 -0.251016 0.384669 153 0 76
-0.121032 -0.251016 -0.032620 153 0 76
0.430307 0.588524 -0.415063 204 51 127
-0.637957 -0.233434 0.639105 153 0 76
-0.346077 0.639289 -0.419767 204 51 127
0.173927 -0.135862 -0.186462 127 0 127
0.571969 0.293980 -0.301455 153 0 76
0.193841 -0.201708 -0.126093 127 0 127
0.229330 0.198579 -0.275055 153 0 76
-0.107619 -0.250604 0.665845 153 0 76
-0.171867 -0.178086 -0.182539 153 0 76
-0.524688 -0.232498 -0.191344 153 0 76
-0.572723 -0.251016 0.414535 153 0 76
-0.053625 0.351066 -0.351108 204 51 127
0.667820 0.495891 -0.356135 204 51 127
0.053923 -0.251016 -0.105974 153 0 76
0.394322 0.380388 -0.324157 153 0 76
-0.121877 -0.251016 0.070514 153 0 76
-0.051495 0.057629 -0.271907 204 51 127
-0.098456 -0.251016 0.639726 153 0 76
0.569965 0.114994 -0.252467 153 0 76
-0.199657 -0.011085 -0.253411 204 51 127
-0.347291 -0.251016 0.141120 153 0 76
0.589857 -0.209019 0.368063 0 127 127
0.584334 -0.251016 0.434748 153 0 76
-0.634452 -0.251016 0.420054 153 0 76
-0.385874 0.527445 -0.398711 204 51 127
0.627632 -0.208271 0.124278 153 0 76
0.368146 -0.209019 0.073579 0 127 127
0.429564 -0.251016 0.061657 153 0 76
0.674099 -0.212182 0.501585 153 0 76
-0.175009 -0.208271 -0.007420 153 0 76
-0.420123 -0.209019 0.290401 0 127 127
-0.373217 -0.251016 -0.068932 153 0 76
-0.256516 -0.251016 0.172727 153 0 76
-0.174109 -0.208568 0.557355 76 0 153
-0.273587 -0.209019 0.237293 0 127 127
0.406574 -0.251016 0.509463 153 0 76
0.227880 -0.226826 -0.132378 127 0 127
-0.488713 -0.251016 0.348352 153 0 76
0.116491 -0.251016 0.021200 153 0 76
-0.584143 -0.208271 0.503005 153 0 76
0.157283 -0.251016 0.373761 153 0 76
0.351935 -0.208271 0.028703 0 127 127
0.610208 -0.036401 -0.211598 153 0 76
0.500796 -0.236158 -0.188006 153 0 76
0.656189 -0.208271 0.117289 153 0 76
-0.113311 -0.208271 0.126395 0 127 127
-0.048644 -0.222689 -0.197415 153 0 76
-0.417285 -0.208271 0.645669 153 0 76
0.086336 -0.124701 -0.203623 127 0 127
0.054148 0.644096 -0.405699 0 0 255
0.531448 0.422532 -0.370411 204 51 127
-0.488486 0.450332 -0.342932 153 0 76
-0.046607 -0.246750 0.690991 153 0 76
-0.494170 -0.087071 -0.232831 204 51 127
0.404269 0.298411 -0.302681 153 0 76
0.459633 -0.226362 0.752639 153 0 76
0.021450 -0.251016 0.358233 153 0 76
-0.275738 -0.231547 0.745940 153 0 76
-0.637957 -0.231671 0.472882 153 0 76
0.364076 -0.187626 -0.132324 153 0 76
-0.180059 0.204638 -0.277211 153 0 76
-0.094855 -0.251016 0.357083 153 0 76
0.275832 -0.102879 -0.228607 204 51 127
0.346085 -0.190869 -0.177680 153 0 76
-0.621866 -0.251016 -0.083948 153 0 76
-0.137764 -0.251016 0.635110 153 0 76
0.161481 -0.208271 -0.012116 153 0 76
-0.063973 -0.209019 0.433327 0 127 127
-0.143164 -0.179366 -0.193075 204 51 127
0.382901 0.492691 -0.389264 204 51 127
-0.160066 -0.038939 -0.210915 153 0 76
0.643535 0.335137 -0.346756 204 51 127
0.011915 -0.251016 -0.103155 153 0 76
-0.623967 -0.208271 0.569057 153 0 76
-0.316251 -0.251016 0.131312 153 0 76
0.313561 -0.208271 -0.057968 153 0 76
-0.147971 -0.251016 -0.108261 153 0 76
0.437502 0.628452 -0.420358 204 51 127
-0.188323 0.236233 -0.320067 204 51 127
0.475586 -0.053050 -0.242021 204 51 127
-0.592819 -0.077917 -0.200670 204 51 127
0.036445 -0.208271 0.004547 153 0 76
0.350091 0.585624 -0.411000 204 51 127
-0.032094 0.170255 -0.302278 204 51 127
-0.439690 -0.230417 -0.192955 153 0 76
-0.027258 -0.236158 -0.188006 153 0 76
-0.297388 -0.244631 0.462178 153 0 76
0.026110 -0.251016 0.425183 153 0 76
-0.542604 -0.208271 0.113656 0 127 127
0.019613 -0.208271 0.733529 153 0 76
-0.055776 -0.208271 -0.047003 153 0 76
0.148576 -0.210366 0.550172 76 0 153
0.181300 0.599138 -0.417514 204 51 127
0.446933 0.600375 -0.408745 204 51 127
-0.601462 -0.237962 0.722961 153 0 76
0.417754 -0.189969 -0.127316 153 0 76
-0.557171 -0.231888 0.432915 153 0 76
0.025517 -0.208271 0.167249 0 127 127
-0.161837 -0.251016 0.581411 153 0 76
0.135794 -0.082092 -0.199284 153 0 76
0.442101 -0.251016 -0.034162 153 0 76
0.326649 -0.159050 -0.173651 127 0 127
-0.310315 -0.208271 -0.036067 153 0 76
0.081324 0.670216 -0.410785 204 51 127
-0.023991 -0.209019 0.150441 0 127 127
-0.410248 -0.195417 -0.196821 204 51 127
-0.351095 -0.251016 0.251038 153 0 76
0.118147 -0.189984 -0.205084 204 51 127
0.284298 0.598601 -0.409948 204 51 127
0.315678 -0.112895 -0.204209 127 0 127
0.262639 0.588620 -0.380304 204 51 127
0.380006 0.595508 -0.416769 204 51 127
0.397454 -0.222156 0.015881 153 0 76
-0.147575 0.073248 -0.276091 204 51 127
0.487448 -0.208271 0.683311 153 0 76
0.188976 -0.208271 0.288850 0 127 127
-0.429325 -0.208271 -0.024915 153 0 76
0.602531 -0.224859 0.249268 153 0 76
0.172054 -0.251016 0.541149 153 0 76
0.172294 0.604148 -0.396501 204 51 127
0.088014 -0.119030 -0.224286 204 51 127
-0.313355 -0.251016 0.234013 153 0 76
-0.084915 -0.251016 0.054384 153 0 76
-0.175263 -0.251016 0.003055 153 0 76
0.283977 -0.235810 0.730671 153 0 76
0.654565 -0.208271 0.711327 153 0 76
-0.639587 0.366585 -0.337809 204 51 127
-0.335821 -0.251016 0.623528 153 0 76
-0.599377 0.494309 -0.354795 204 51 127
-0.390079 -0.251016 0.614508 153 0 76
-0.024078 -0.178733 -0.183934 153 0 76
-0.637957 -0.220436 -0.078641 153 0 76
0.030501 0.058736 -0.272199 204 51 127
0.460722 -0.209019 0.446589 0 127 127
-0.066337 -0.209019 0.361692 0 127 127
-0.612957 -0.208271 0.279387 153 0 76
-0.127160 -0.249666 -0.164748 153 0 76
-0.333268 -0.208294 0.071649 0 127 127
-0.073274 -0.251016 0.277459 153 0 76
0.513150 0.596153 -0.411608 204 51 127
0.433055 -0.238992 0.719272 153 0 76
-0.569546 0.487838 -0.387954 204 51 127
-0.004903 -0.251016 0.504374 153 0 76
-0.557171 -0.215645 0.096401 153 0 76
-0.244314 -0.209019 0.287606 0 127 127
0.668355 0.509586 -0.393229 204 51 127
-0.432652 -0.208271 0.729879 153 0 76
-0.503901 -0.222221 0.015881 153 0 76
-0.437306 -0.251016 0.161009 153 0 76
-0.294951 -0.251016 0.150664 153 0 76
-0.610032 0.652614 -0.397513 204 51 127
0.195006 -0.208271 0.352949 0 127 127
-0.105934 -0.206447 0.629541 76 0 153
0.243784 -0.234777 0.734371 153 0 76
-0.025431 0.286464 -0.298713 153 0 76
0.390284 -0.208271 0.050896 0 127 127
0.606070 0.171596 -0.302640 204 51 127
0.178312 -0.209019 0.319233 0 127 127
-0.354774 0.315521 -0.306625 153 0 76
0.004675 0.261863 -0.292086 153 0 76
0.620957 0.367713 -0.355617 204 51 127
-0.433526 -0.208271 0.386803 0 127 127
0.604833 0.499226 -0.391028 204 51 127
-0.153251 -0.251016 0.247597 153 0 76
-0.542891 -0.251016 0.180605 153 0 76
0.007789 -0.251016 0.013598 153 0 76
0.245109 -0.251016 -0.107877 153 0 76
-0.055473 -0.236386 0.728605 153 0 76
-0.074909 -0.251016 0.646987 153 0 76
0.654639 -0.251016 0.019873 153 0 76
-0.466908 0.279372 -0.296800 153 0 76
0.288750 -0.208559 0.328455 0 127 127
0.098241 0.188477 -0.307217 204 51 127
0.400169 0.645344 -0.418708 204 51 127
0.546959 -0.098659 -0.194828 204 51 127
0.577717 -0.251016 0.239464 153 0 76
0.087906 -0.251016 0.505067 153 0 76
0.206732 -0.209019 0.132632 0 127 127
-0.457720 -0.251016 0.358085 153 0 76
-0.084143 -0.251016 -0.151920 153 0 76
-0.034789 -0.249818 0.673869 153 0 76
0.034464 -0.217617 0.752755 153 0 76
0.518027 -0.174574 -0.192339 204 51 127
0.400627 0.224762 -0.316972 204 51 127
-0.176489 -0.251016 0.208818 153 0 76
-0.125193 0.625652 -0.390236 204 51 127
0.078213 0.546688 -0.368948 153 0 76
-0.074145 0.414269 -0.368182 204 51 127
0.346387 -0.209019 0.204488 0 127 127
-0.010766 0.107779 -0.250559 153 0 76
-0.430516 -0.251016 0.408293 153 0 76
0.413870 -0.235733 0.015881 153 0 76
0.337716 -0.187499 -0.132874 127 0 127
0.084037 -0.251016 -0.129937 153 0 76
0.615923 -0.251016 0.297688 153 0 76
-0.183865 -0.225758 0.462178 153 0 76
0.250952 -0.208271 0.674698 153 0 76
0.196175 -0.208271 0.441971 0 127 127
-0.171341 -0.208701 0.500575 76 0 153
0.256793 0.462876 -0.381254 204 51 127
-0.007668 0.516157 -0.395674 204 51 127
0.096014 -0.220583 -0.114052 153 0 76
-0.252622 0.360172 -0.318663 153 0 76
0.006015 -0.209019 0.122653 0 127 127
-0.159849 0.657474 -0.416052 204 51 127
-0.580096 -0.251016 -0.005689 153 0 76
0.297963 -0.251016 0.150693 153 0 76
-0.330087 -0.251016 -0.087502 153 0 76
0.523290 -0.251016 0.197146 153 0 76
0.317468 0.342788 -0.314471 153 0 76
0.009668 0.498252 -0.390765 204 51 127
0.192844 -0.209019 0.388682 0 127 127
0.307359 -0.251016 0.173973 153 0 76
-0.262845 -0.251016 -0.056285 153 0 76
0.480707 -0.251016 0.000645 153 0 76
-0.453999 -0.209019 0.247296 0 127 127
0.606274 -0.208271 0.339451 153 0 76
-0.309354 -0.208271 0.640159 153 0 76
0.228402 -0.147905 -0.216421 204 51 127
-0.431817 0.520867 -0.396944 204 51 127
-0.116611 -0.098322 -0.194906 204 51 127
-0.298281 -0.251016 0.280323 153 0 76
-0.637237 0.174142 -0.273329 204 51 127
0.667287 -0.233210 0.296532 153 0 76
-0.188902 0.383340 -0.324896 153 0 76
-0.353748 0.021043 -0.262005 204 51 127
0.633018 0.207844 -0.277599 204 51 127
0.563691 0.473371 -0.384101 204 51 127
0.026355 -0.209757 -0.073260 153 0 76
0.206159 0.125886 -0.255386 153 0 76
0.346085 -0.224365 -0.175523 127 0 127
0.084330 -0.251016 -0.014876 153 0 76
-0.034505 -0.251016 0.007120 153 0 76
0.569216 -0.248505 0.682570 153 0 76
-0.112312 -0.208271 0.731438 153 0 76
0.276309 -0.213802 -0.186911 127 0 127
0.264414 -0.208271 -0.026058 153 0 76
0.604366 0.175378 -0.268743 153 0 76
-0.203417 -0.251016 0.057721 153 0 76
-0.131197 0.058200 -0.272058 204 51 127
0.539021 -0.251016 -0.156166 153 0 76
-0.425504 -0.251016 -0.026201 153 0 76
-0.405128 0.296881 -0.301567 153 0 76
0.187582 0.445590 -0.341669 153 0 76
0.270843 -0.208271 0.111240 0 127 127
-0.466948 -0.209019 0.217194 0 127 127
0.651266 -0.227883 0.245883 153 0 76
-0.564242 0.452720 -0.343590 153 0 76
-0.246503 -0.209019 0.218856 0 127 127
0.337903 -0.204905 -0.085531 153 0 76
-0.637957 -0.218784 -0.003984 153 0 76
-0.637957 -0.235964 0.028562 153 0 76
0.291624 0.028551 -0.229123 153 0 76
-0.626976 -0.208271 0.103084 153 0 76
-0.540753 -0.208271 0.069920 0 127 127
0.456360 0.087192 -0.245015 153 0 76
0.141076 -0.040339 -0.210537 153 0 76
-0.383787 -0.209019 0.383553 0 127 127
0.342827 -0.251016 0.507110 153 0 76
0.270258 -0.251016 0.591100 153 0 76
-0.450675 -0.089144 -0.232273 204 51 127
-0.448946 -0.208271 0.680463 153 0 76
0.220661 -0.018549 -0.251398 204 51 127
0.203883 -0.251016 0.060497 153 0 76
-0.536423 -0.208271 0.557337 153 0 76
0.497465 -0.206741 -0.043392 153 0 76
0.549352 0.604970 -0.399559 204 51 127
0.280576 -0.251016 0.609952 153 0 76
-0.349865 -0.251016 0.220629 153 0 76
-0.151591 -0.209019 0.352439 0 127 127
0.157150 -0.208271 0.201571 0 127 127
-0.261951 0.603747 -0.406464 204 51 127
0.295301 -0.251016 0.326071 153 0 76
0.180310 0.158229 -0.264175 153 0 76
0.047661 -0.177060 -0.150534 127 0 127
-0.334449 -0.209019 0.145873 0 127 127
0.088907 -0.208271 -0.017177 153 0 76
-0.446800 -0.251016 -0.023799 153 0 76
0.371313 -0.251016 -0.135560 153 0 76
0.289162 -0.209019 0.146740 0 127 127
-0.368992 -0.208271 0.718797 153 0 76
0.287638 -0.209019 0.247507 0 127 127
0.009265 -0.230353 0.749691 153 0 76
-0.557171 -0.230146 0.409914 153 0 76
-0.072602 -0.247738 0.686560 153 0 76
0.051480 -0.216602 -0.186258 127 0 127
0.278769 -0.222760 0.462178 153 0 76
-0.251175 -0.251016 0.061438 153 0 76
0.112380 0.408658 -0.366652 204 51 127
0.366997 0.040886 -0.232513 153 0 76
0.588770 -0.209019 0.102022 0 127 127
0.255608 -0.232102 -0.137794 127 0 127
-0.256194 -0.247148 0.689263 153 0 76
-0.437736 -0.209019 0.100883 0 127 127
-0.207670 -0.247288 0.688623 153 0 76
0.090389 -0.209019 0.353312 0 127 127
-0.489362 -0.251016 0.138174 153 0 76
-0.267618 0.396287 -0.363264 204 51 127
0.264354 -0.208271 0.584724 153 0 76
-0.417121 0.109675 -0.251181 153 0 76
-0.008704 -0.251016 0.481683 153 0 76
-0.138606 0.613944 -0.419784 204 51 127
-0.593872 0.243465 -0.322029 204 51 127
-0.515864 -0.208271 0.307391 0 127 127
0.429586 -0.251016 0.234663 153 0 76
0.317982 -0.208271 0.299038 0 127 127
-0.353960 -0.209019 0.390302 0 127 127
0.037654 -0.208271 0.190984 0 127 127
0.512417 -0.208271 0.272573 0 127 127
-0.241100 -0.249854 -0.164021 153 0 76
0.639490 -0.130575 -0.221114 204 51 127
-0.290294 0.268910 -0.328950 204 51 127
-0.020462 -0.251016 0.063150 153 0 76
0.437554 -0.202157 -0.095141 153 0 76
0.149648 -0.209785 0.583170 76 0 153
0.004318 -0.209019 0.383500 0 127 127
0.135203 0.569259 -0.375045 153 0 76
-0.469339 -0.251016 0.235839 153 0 76
-0.614097 -0.251016 0.579163 153 0 76
0.618712 -0.208271 0.279387 153 0 76
-0.617731 0.025992 -0.263300 204 51 127
0.079166 -0.251016 -0.053314 153 0 76
0.053256 -0.209019 0.442226 0 127 127
-0.484367 -0.208271 -0.026204 153 0 76
0.391796 -0.209019 0.228677 0 127 127
0.587617 -0.251016 0.146882 153 0 76
0.217876 0.029041 -0.229255 153 0 76
0.446350 0.423214 -0.370595 204 51 127
0.591043 0.096822 -0.247615 153 0 76
0.480342 0.354311 -0.317749 153 0 76
0.222939 0.371973 -0.356746 204 51 127
0.010970 -0.236130 0.729523 153 0 76
0.614913 -0.251016 0.601624 153 0 76
-0.419198 -0.251016 -0.120853 153 0 76
0.175956 -0.251016 0.170124 153 0 76
0.190619 0.321448 -0.343072 204 51 127
0.327797 -0.251016 0.095537 153 0 76
-0.078832 0.627398 -0.420413 204 51 127
-0.603764 0.397072 -0.328558 204 51 127
-0.310470 -0.209019 0.369281 0 127 127
-0.119611 -0.208271 0.220224 0 127 127
-0.136833 -0.208271 0.442962 0 127 127
0.346085 -0.225334 -0.111767 153 0 76
0.093737 0.514495 -0.395225 204 51 127
0.196845 -0.208271 -0.051595 153 0 76
0.599235 -0.208271 0.666076 153 0 76
-0.383734 -0.208271 0.499375 153 0 76
0.313066 -0.159303 -0.201906 127 0 127
-0.306302 0.576720 -0.404441 204 51 127
0.310084 0.580916 -0.388047 204 51 127
-0.257831 -0.209019 0.103134 0 127 127
0.018147 0.058620 -0.237299 153 0 76
-0.409726 0.533568 -0.365450 153 0 76
0.072621 -0.251016 0.171069 153 0 76
-0.379493 0.637539 -0.419879 204 51 127
0.508758 0.374439 -0.322661 153 0 76
0.447119 0.466921 -0.347914 153 0 76
0.648147 -0.220975 0.374025 153 0 76
0.596407 -0.208271 0.212399 0 127 127
0.542403 0.192845 -0.308421 204 51 127
-0.250540 -0.209019 0.129501 0 127 127
-0.117062 -0.209019 0.320244 0 127 127
0.135109 -0.209019 0.399855 0 127 127
0.397407 -0.208271 0.656691 153 0 76
-0.222941 -0.251016 0.537770 153 0 76
0.258469 -0.251016 0.315795 153 0 76
-0.291665 -0.251016 0.093312 153 0 76
0.107267 -0.251016 0.196338 153 0 76
0.157637 -0.208271 0.689513 153 0 76
0.412733 -0.209019 0.346842 0 127 127
0.376090 -0.221163 0.462178 153 0 76
0.118163 -0.251016 0.090712 153 0 76
0.632080 -0.251016 0.195812 153 0 76
0.623348 -0.208271 0.033661 153 0 76
-0.400126 -0.250870 -0.159163 153 0 76
0.245691 -0.251016 0.521963 153 0 76
-0.602413 -0.208271 -0.064627 153 0 76
0.547677 0.589220 -0.411846 204 51 127
0.311260 -0.209019 0.188499 0 127 127
0.672721 -0.217471 0.319011 153 0 76
0.527178 -0.251016 -0.060399 153 0 76
-0.075057 -0.208271 -0.055963 153 0 76
0.212628 -0.199072 -0.104663 153 0 76
0.433319 -0.174885 -0.173392 153 0 76
0.627859 -0.251016 0.025515 153 0 76
0.002954 -0.225597 0.015881 153 0 76
-0.082536 0.572640 -0.393834 204 51 127
-0.208523 0.492042 -0.389088 204 51 127
0.666945 0.026641 -0.263109 204 51 127
-0.559424 -0.208271 0.380708 153 0 76
0.218838 -0.231843 0.015881 153 0 76
0.608730 -0.208271 0.534076 153 0 76
-0.395926 0.267622 -0.328604 204 51 127
-0.194354 -0.208271 0.368972 0 127 127
-0.358641 0.111731 -0.286472 204 51 127
0.032523 0.105291 -0.284744 204 51 127
-0.020852 -0.251016 -0.103465 153 0 76
0.579212 -0.251016 0.367867 153 0 76
-0.417104 -0.251016 0.520630 153 0 76
0.085021 0.116608 -0.287788 204 51 127
0.571582 -0.204792 -0.000154 153 0 76
-0.612474 -0.250361 0.668887 153 0 76
-0.233666 0.035506 -0.265979 204 51 127
-0.473679 0.113778 -0.252373 153 0 76
-0.257368 -0.172363 -0.209896 204 51 127
-0.233561 -0.208271 0.011905 153 0 76
-0.583966 0.140981 -0.259805 153 0 76
0.161277 -0.249508 0.676290 153 0 76
-0.507574 -0.181870 -0.143584 153 0 76
0.055950 -0.251016 0.145866 153 0 76
-0.333924 -0.208271 0.044098 0 127 127
0.577701 -0.219841 0.462178 153 0 76
0.674528 -0.243426 -0.174877 153 0 76
0.315852 -0.251016 0.137236 153 0 76
-0.260622 -0.242786 -0.179958 153 0 76
0.165373 -0.198450 -0.199963 127 0 127
0.142383 0.656072 -0.416454 204 51 127
0.636271 -0.251016 0.491004 153 0 76
0.417109 -0.209019 0.307442 0 127 127
0.545293 0.554235 -0.405870 204 51 127
0.352931 0.113055 -0.251954 153 0 76
0.092016 0.483083 -0.351816 153 0 76
0.291269 -0.177800 -0.147354 127 0 127
-0.075186 -0.244632 -0.176987 153 0 76
0.274891 -0.238178 -0.160438 127 0 127
0.644109 0.322177 -0.308418 204 51 127
0.654562 0.654083 -0.417002 204 51 127
-0.299676 -0.216474 0.015881 153 0 76
-0.516732 0.026818 -0.229261 153 0 76
-0.329213 -0.208271 0.239488 0 127 127
-0.565726 0.405144 -0.365683 204 51 127
0.397400 0.554487 -0.371032 153 0 76
-0.501801 0.009602 -0.258918 204 51 127
-0.447069 -0.209019 0.462124 0 127 127
0.120134 -0.209019 0.419299 0 127 127
0.116312 -0.209019 0.304855 0 127 127
-0.586939 0.373894 -0.357255 204 51 127
-0.035320 -0.208271 0.255322 0 127 127
-0.524429 -0.246053 0.693838 153 0 76
-0.595250 -0.242355 -0.180595 153 0 76
-0.309413 -0.251016 0.525581 153 0 76
0.108091 -0.209019 0.121618 0 127 127
-0.195192 0.657087 -0.416163 204 51 127
0.593169 -0.251016 0.213437 153 0 76
-0.477663 -0.251016 -0.067798 153 0 76
0.664387 -0.232246 0.177674 153 0 76
0.039193 -0.136772 -0.219424 204 51 127
0.144307 -0.134604 -0.187157 127 0 127
0.564758 -0.209019 0.320592 0 127 127
-0.008847 0.314672 -0.341282 204 51 127
0.211246 -0.208271 0.600722 153 0 76
-0.319776 0.365327 -0.354975 204 51 127
0.327308 0.211064 -0.313337 204 51 127
-0.197946 0.085586 -0.244581 153 0 76
0.484219 0.043556 -0.233233 153 0 76
0.581904 -0.208271 0.604046 153 0 76
-0.129283 0.317913 -0.307271 153 0 76
0.157222 0.615128 -0.387542 204 51 127
-0.194486 -0.195140 -0.115181 153 0 76
-0.157540 0.530243 -0.364552 153 0 76
-0.344587 -0.244195 0.700635 153 0 76
0.276107 0.646768 -0.395936 204 51 127
0.596235 -0.221124 0.456345 153 0 76
-0.440491 -0.209019 0.020028 0 127 127
-0.618938 -0.251016 0.161232 153 0 76
-0.023372 -0.251016 0.274992 153 0 76
-0.525992 0.397399 -0.363566 204 51 127
-0.141927 -0.207437 0.634024 76 0 153
-0.370227 -0.208271 0.453844 0 127 127
0.267904 -0.245127 0.697297 153 0 76
-0.398168 -0.209019 0.279754 0 127 127
0.203615 -0.184165 -0.206687 204 51 127
-0.637957 -0.222650 0.411101 153 0 76
0.327018 -0.208271 -0.037305 153 0 76
-0.237803 -0.208271 0.436869 0 127 127
0.593457 -0.228392 0.751814 153 0 76
-0.039559 -0.251016 0.092724 153 0 76
-0.508406 0.291606 -0.300107 153 0 76
0.408089 -0.249209 -0.166401 153 0 76
0.425445 -0.232983 -0.190924 153 0 76
-0.209506 0.102087 -0.283898 204 51 127
0.255239 0.191373 -0.273067 153 0 76
-0.529092 -0.127819 -0.189777 204 51 127
0.520255 -0.251016 0.124369 153 0 76
0.150603 -0.140129 -0.218518 204 51 127
-0.146395 -0.210406 0.529281 76 0 153
0.038249 -0.239648 0.716923 153 0 76
-0.549809 0.139812 -0.259885 153 0 76
-0.246523 -0.251016 -0.029112 153 0 76
-0.377485 0.217579 -0.280270 153 0 76
-0.050481 0.340741 -0.313358 153 0 76
0.143189 -0.179919 -0.142213 127 0 127
0.593767 -0.251016 0.480043 153 0 76
0.036042 0.127972 -0.290863 204 51 127
0.613363 0.421990 -0.335770 153 0 76
-0.287100 -0.209019 0.112434 0 127 127
0.454038 -0.234645 -0.189489 153 0 76
0.485582 -0.201514 -0.097255 153 0 76
0.150898 -0.188407 -0.180904 127 0 127
0.120679 -0.177228 -0.163747 127 0 127
-0.150272 0.193478 -0.308596 204 51 127
-0.018884 -0.208271 -0.011059 153 0 76
-0.046604 0.275838 -0.330816 204 51 127
-0.298968 -0.251016 0.195266 153 0 76
0.353768 -0.197265 -0.198828 153 0 76
0.629164 -0.093493 -0.231099 204 51 127
-0.314646 0.527199 -0.398646 204 51 127
0.605110 -0.251016 0.554299 153 0 76
-0.420437 0.216040 -0.279906 153 0 76
0.064856 -0.209019 0.121695 0 127 127
-0.337757 0.093949 -0.281749 204 51 127
0.453584 -0.208271 0.361937 0 127 127
-0.301773 0.597098 -0.382611 204 51 127
0.447883 -0.247382 0.462178 153 0 76
-0.351977 0.376828 -0.323161 153 0 76
-0.637957 -0.230711 0.143691 153 0 76
-0.405530 0.094231 -0.247262 153 0 76
0.051329 0.590084 -0.411948 204 51 127
-0.001324 -0.206936 0.651540 153 76 0
0.392561 -0.182628 -0.189010 153 0 76
-0.448164 0.110427 -0.286121 204 51 127
-0.528935 -0.237363 0.015881 153 0 76
0.614584 0.223164 -0.281725 204 51 127
0.080947 0.029876 -0.229480 153 0 76
-0.635798 -0.233626 -0.064463 153 0 76
-0.134087 -0.208661 0.388296 0 127 127
-0.637957 -0.235268 0.302050 153 0 76
0.124330 -0.251016 0.179539 153 0 76
-0.040075 0.371459 -0.321710 153 0 76
-0.176849 0.026877 -0.263588 204 51 127
0.652455 -0.208271 0.626031 153 0 76
0.257164 -0.035453 -0.211854 153 0 76
0.588737 0.062267 -0.273132 204 51 127
-0.623819 -0.208271 0.359690 153 0 76
0.037983 -0.165727 -0.211682 204 51 127
0.018071 -0.241543 -0.127544 153 0 76
-0.428131 -0.251016 0.643250 153 0 76
0.002074 -0.209019 0.081673 0 127 127
-0.620190 -0.208271 0.197853 153 0 76
0.249312 0.067072 -0.239551 153 0 76
0.399404 -0.223107 -0.197242 153 0 76
-0.112742 -0.251016 0.206165 153 0 76
0.387774 -0.208271 0.571428 153 0 76
-0.428848 -0.251016 0.252144 153 0 76
-0.231438 -0.102962 -0.193834 204 51 127
-0.201205 -0.218913 0.752755 153 0 76
0.314562 -0.244625 0.699094 153 0 76
-0.453533 -0.208271 0.587031 153 0 76
0.480002 0.607828 -0.386106 204 51 127
0.112365 -0.209404 0.530026 76 0 153
0.097510 -0.209019 0.449281 0 127 127
0.074893 -0.208914 0.501245 76 0 153
-0.600045 -0.196329 -0.198440 153 0 76
0.487091 -0.208271 -0.061193 153 0 76
-0.256261 -0.201327 -0.199892 204 51 127
-0.380840 0.450719 -0.377940 204 51 127
-0.020662 -0.209019 0.214624 0 127 127
0.521535 0.170130 -0.267352 153 0 76
0.346781 0.417169 -0.368964 204 51 127
-0.498779 -0.209019 0.120979 0 127 127
0.464695 -0.208764 0.241292 0 127 127
-0.546786 0.418546 -0.334421 153 0 76
0.526234 -0.208553 0.031684 0 127 127
-0.150748 -0.176660 -0.154101 153 0 76
-0.618707 0.344370 -0.349203 204 51 127
0.522307 0.109936 -0.251129 153 0 76
0.378168 0.665252 -0.401084 204 51 127
-0.087096 -0.209424 0.541277 76 0 153
-0.333612 -0.251016 0.155870 153 0 76
0.103315 -0.251016 -0.040476 153 0 76
0.044595 -0.209019 0.379440 0 127 127
-0.393882 0.568589 -0.374861 153 0 76
-0.453479 0.139417 -0.259776 153 0 76
-0.461601 -0.209019 0.058789 0 127 127
0.131218 0.247557 -0.288572 153 0 76
-0.530771 -0.209019 0.230793 0 127 127
0.270084 -0.208271 0.009725 153 0 76
-0.491682 -0.208271 0.285808 0 127 127
0.083836 -0.208271 0.700269 153 0 76
-0.186829 -0.208271 0.114863 0 127 127
0.336839 -0.251016 0.605816 153 0 76
0.622924 -0.222875 0.260064 153 0 76
-0.465998 0.039828 -0.267150 204 51 127
-0.355955 0.392950 -0.362364 204 51 127
0.501928 -0.251016 0.309472 153 0 76
0.216828 0.000853 -0.221722 153 0 76
0.660047 -0.230803 0.028977 153 0 76
0.667495 -0.233279 0.087147 153 0 76
0.019301 0.304268 -0.303587 153 0 76
0.461783 0.396344 -0.328824 153 0 76
-0.084530 -0.155258 -0.214448 204 51 127
0.182271 -0.231466 -0.136969 127 0 127
0.040277 -0.128468 -0.190547 127 0 127
-0.437713 -0.208271 0.549629 153 0 76
0.107976 -0.251016 0.454517 153 0 76
0.019148 -0.251016 -0.021629 153 0 76
0.437306 0.646593 -0.396406 204 51 127
0.259442 -0.251016 0.348924 153 0 76
0.515564 -0.251016 0.429145 153 0 76
-0.564727 0.366556 -0.320386 153 0 76
0.506582 0.129789 -0.291366 204 51 127
-0.055449 -0.209019 0.111975 0 127 127
-0.316996 -0.209019 0.203307 0 127 127
0.153302 -0.209019 0.314783 0 127 127
0.617506 0.256423 -0.325590 204 51 127
0.593905 -0.251016 0.040254 153 0 76
0.570262 0.516251 -0.395699 204 51 127
0.308520 -0.244842 -0.125708 153 0 76
-0.187503 -0.209019 0.209154 0 127 127
-0.610977 -0.208271 0.666573 153 0 76
0.660133 0.470041 -0.348361 204 51 127
0.162607 -0.150814 -0.202327 127 0 127
-0.537043 -0.251016 0.373548 153 0 76
0.620007 -0.251016 0.510655 153 0 76
0.157501 -0.251016 0.445628 153 0 76
0.229873 -0.209019 0.204235 0 127 127
0.602531 -0.234592 0.211905 153 0 76
-0.462240 -0.250746 0.663568 153 0 76
-0.062872 -0.210404 0.578623 76 0 153
-0.154605 -0.192803 -0.204303 204 51 127
-0.502895 -0.251016 0.526388 153 0 76
-0.197078 -0.251016 0.603112 153 0 76
-0.139711 0.025082 -0.263096 204 51 127
-0.449141 0.066852 -0.274365 204 51 127
0.670558 -0.191530 -0.123865 153 0 76
0.302500 0.205242 -0.311780 204 51 127
0.554767 0.434409 -0.339050 153 0 76
-0.300768 -0.019574 -0.216187 153 0 76
0.089531 -0.251016 0.484963 153 0 76
0.240452 -0.044056 -0.209551 153 0 76
-0.126838 -0.208271 -0.018631 153 0 76
0.552504 -0.208271 0.503761 153 0 76
-0.022253 0.208301 -0.277684 153 0 76
0.165760 -0.208271 0.430102 0 127 127
-0.472297 0.627375 -0.391398 204 51 127
-0.309938 0.484425 -0.352172 153 0 76
-0.181068 0.294759 -0.300979 153 0 76
-0.107239 -0.207853 0.649661 76 0 153
0.259378 -0.208271 0.727778 153 0 76
0.390214 -0.251016 0.030592 153 0 76
-0.153638 -0.251016 0.532261 153 0 76
0.669887 -0.234074 0.222470 153 0 76
0.379831 0.000142 -0.221530 153 0 76
0.242494 -0.168454 -0.168455 127 0 127
0.674099 -0.210475 0.589558 153 0 76
-0.155293 -0.208271 0.107969 0 127 127
-0.557388 -0.251016 -0.150975 153 0 76
0.363503 0.088878 -0.280348 204 51 127
-0.208053 -0.133040 -0.220431 204 51 127
0.233492 0.084719 -0.244347 153 0 76
0.583875 -0.170006 -0.210532 204 51 127
-0.635105 -0.251016 0.351509 153 0 76
0.071061 -0.208271 0.161851 0 127 127
-0.354311 -0.119460 -0.224170 204 51 127
0.498866 -0.208401 0.227160 0 127 127
-0.391421 -0.208271 -0.016124 153 0 76
-0.506545 -0.209019 0.346448 0 127 127
0.650692 -0.251016 -0.040872 153 0 76
-0.288089 0.515778 -0.395571 204 51 127
-0.319065 0.226450 -0.317427 204 51 127
-0.203546 0.604396 -0.403770 204 51 127
-0.270210 -0.251016 0.028244 153 0 76
-0.019719 -0.208271 0.708930 153 0 76
0.090332 -0.209404 0.599501 76 0 153
-0.231618 -0.208271 0.124725 0 127 127
-0.590300 0.339264 -0.312960 153 0 76
-0.207118 -0.251016 -0.123806 153 0 76
-0.320804 0.125398 -0.290162 204 51 127
0.674099 -0.221006 -0.134250 153 0 76
0.477599 0.019266 -0.226620 153 0 76
-0.572898 -0.208271 0.079447 153 0 76
-0.265925 0.503046 -0.392065 204 51 127
-0.324072 -0.251016 0.550220 153 0 76
-0.583480 0.561940 -0.407967 204 51 127
-0.637957 -0.208867 0.148030 153 0 76
0.400885 -0.251016 0.271302 153 0 76
0.345212 -0.151975 -0.215323 204 51 127
-0.280138 -0.208271 0.276036 0 127 127
-0.408673 0.240637 -0.321256 204 51 127
-0.564622 -0.250185 0.670605 153 0 76
0.207455 -0.208271 0.515825 153 0 76
0.454145 -0.009152 -0.219020 153 0 76
0.061456 -0.209404 0.585789 76 0 153
0.520656 -0.054740 -0.241575 204 51 127
-0.610087 -0.208271 0.591212 153 0 76
0.513177 -0.193313 -0.119680 153 0 76
0.584518 0.668037 -0.411976 204 51 127
0.212114 0.536933 -0.401215 204 51 127
-0.037288 -0.251016 0.420952 153 0 76
-0.053315 0.085697 -0.244611 153 0 76
0.249717 -0.251016 0.287479 153 0 76
0.643080 -0.208271 0.072155 153 0 76
0.390940 0.512594 -0.359760 153 0 76
0.573332 -0.241005 0.712063 153 0 76
0.659915 0.188607 -0.307157 204 51 127
-0.514445 0.445359 -0.376494 204 51 127
0.654387 0.432168 -0.372929 204 51 127
0.295238 -0.209019 0.291733 0 127 127
-0.521113 0.328431 -0.310071 153 0 76
0.376961 0.160072 -0.299551 204 51 127
-0.411072 0.617023 -0.419995 204 51 127
0.135773 -0.251016 0.596644 153 0 76
0.239426 -0.208271 0.695514 153 0 76
-0.267842 -0.208271 0.508198 153 0 76
0.508298 -0.208271 0.386697 0 127 127
0.606357 -0.249991 0.672493 153 0 76
0.495697 -0.209019 0.058874 0 127 127
0.486312 -0.251016 -0.046445 153 0 76
-0.389510 0.654097 -0.397920 204 51 127
-0.441922 -0.209019 0.326510 0 127 127
0.372347 -0.229803 0.750522 153 0 76
-0.115262 -0.210404 0.607610 76 0 153
-0.557171 -0.227039 0.224214 153 0 76
0.559911 -0.208271 0.688852 153 0 76
-0.142019 -0.251016 0.365330 153 0 76
0.319029 0.117995 -0.253260 153 0 76
-0.197298 0.431659 -0.337962 153 0 76
0.121698 -0.235949 0.730173 153 0 76
-0.560478 -0.177872 -0.151176 153 0 76
0.606880 -0.208271 0.081548 153 0 76
-0.595310 -0.208271 0.108776 153 0 76
0.215013 -0.209019 0.255622 0 127 127
-0.115102 0.589077 -0.387635 204 51 127
-0.548069 0.356595 -0.352620 204 51 127
0.265686 -0.209019 0.288777 0 127 127
0.130755 -0.139876 -0.202870 127 0 127
-0.202416 0.417890 -0.369159 204 51 127
-0.270615 -0.209019 0.377977 0 127 127
0.009329 -0.209019 0.342958 0 127 127
-0.524826 -0.208271 0.697951 153 0 76
-0.039568 -0.069523 -0.237614 204 51 127
-0.391869 0.025991 -0.263343 204 51 127
0.435034 -0.234212 0.015881 153 0 76
0.643028 -0.225143 0.179420 153 0 76
-0.621969 -0.251016 0.556823 153 0 76
-0.354115 -0.251016 0.560692 153 0 76
0.484343 0.566461 -0.374273 153 0 76
-0.286445 -0.136823 -0.189435 204 51 127
0.642434 -0.034584 -0.212088 204 51 127
0.069895 -0.177178 -0.149633 127 0 127
0.360909 0.581600 -0.387586 204 51 127
0.251698 -0.156902 -0.190245 204 51 127
0.586082 -0.208603 0.015931 153 0 76
0.499702 -0.209019 0.092461 0 127 127
-0.133196 0.085442 -0.244542 153 0 76
0.412697 -0.032071 -0.212765 153 0 76
0.287325 -0.209019 0.222515 0 127 127
0.674099 -0.245064 0.629837 153 0 76
-0.631057 0.451615 -0.377869 204 51 127
0.472967 -0.223741 0.015881 153 0 76
0.384185 -0.049888 -0.208006 153 0 76
0.435130 -0.251016 0.408789 153 0 76
-0.415506 -0.208439 0.077818 0 127 127
-0.023106 -0.251016 0.195961 153 0 76
-0.410211 0.657511 -0.416041 204 51 127
0.117392 -0.251016 -0.081965 153 0 76
0.610013 -0.251016 0.624843 153 0 76
0.106096 0.465670 -0.382028 204 51 127
0.378243 -0.209019 0.420873 0 127 127
-0.486495 0.030822 -0.230431 153 0 76
-0.634294 -0.208271 0.242327 153 0 76
-0.262898 -0.251016 0.293433 153 0 76
0.152758 0.335951 -0.346976 204 51 127
0.673028 -0.224337 -0.171293 153 0 76
-0.165988 -0.208271 0.738685 153 0 76
0.486019 0.075776 -0.276773 204 51 127
-0.246477 -0.251016 -0.076850 153 0 76
0.190494 -0.251016 0.348721 153 0 76
0.647995 -0.217471 0.344286 153 0 76
0.645852 -0.251016 0.332599 153 0 76
-0.409947 -0.208271 0.465544 153 0 76
0.035311 -0.208271 0.282746 0 127 127
-0.541388 -0.195382 -0.114567 153 0 76
0.375884 -0.251016 0.528485 153 0 76
-0.056221 0.435911 -0.373956 204 51 127
-0.576685 -0.208271 0.595577 153 0 76
-0.067844 -0.208052 0.657395 76 0 153
0.118910 -0.208271 0.746609 153 0 76
-0.182012 -0.024344 -0.214867 153 0 76
-0.028039 -0.209019 0.171083 0 127 127
-0.235842 0.547196 -0.369083 153 0 76
-0.384199 0.210333 -0.313144 204 51 127
0.616223 -0.208271 0.318182 153 0 76
-0.133699 0.259522 -0.291453 153 0 76
0.418707 0.601338 -0.408092 204 51 127
-0.116727 0.001994 -0.222031 153 0 76
0.168748 0.277292 -0.331207 204 51 127
0.393181 -0.208271 0.444889 0 127 127
0.520288 0.070840 -0.275441 204 51 127
-0.166543 0.489990 -0.353646 153 0 76
-0.039885 -0.251016 0.302179 153 0 76
-0.115469 -0.194944 -0.196643 204 51 127
0.605778 0.405549 -0.331415 153 0 76
-0.251149 -0.209019 0.321778 0 127 127
-0.360441 -0.213714 -0.200163 153 0 76
-0.262622 -0.200728 -0.099701 153 0 76
-0.325218 -0.251016 0.337800 153 0 76
-0.180587 -0.251016 0.646926 153 0 76
0.477015 -0.209019 0.402033 0 127 127
-0.626638 -0.222919 -0.034275 153 0 76
0.420465 0.227818 -0.317796 204 51 127
-0.457532 -0.247261 0.688745 153 0 76
-0.388730 0.581586 -0.387570 204 51 127
-0.194529 -0.251016 -0.059012 153 0 76
-0.367812 -0.209019 0.249107 0 127 127
0.330288 -0.208271 0.577747 153 0 76
0.035799 0.628291 -0.415372 204 51 127
0.225001 -0.208271 0.050143 0 127 127
0.187455 -0.251016 0.408314 153 0 76
-0.332250 -0.251016 0.284019 153 0 76
-0.124351 -0.240329 0.714482 153 0 76
0.204866 -0.070164 -0.202550 153 0 76
0.644552 -0.251016 -0.079671 153 0 76
-0.123889 -0.249708 0.674749 153 0 76
-0.256639 -0.251016 -0.096676 153 0 76
0.594749 0.402377 -0.364917 204 51 127
0.313950 0.179782 -0.269929 153 0 76
-0.195069 -0.208271 0.688734 153 0 76
-0.530150 -0.251016 0.588728 153 0 76
0.042963 -0.209404 0.550296 76 0 153
0.631739 -0.208271 0.234375 153 0 76
-0.278585 -0.240195 0.462178 153 0 76
0.628185 0.437564 -0.339548 204 51 127
-0.541345 -0.208271 -0.068017 153 0 76
-0.422426 -0.059235 -0.240388 204 51 127
0.400549 0.599193 -0.417524 204 51 127
0.469863 -0.188793 -0.194493 153 0 76
0.187914 -0.098916 -0.194769 204 51 127
0.611159 -0.208271 0.396434 153 0 76
-0.011613 -0.251016 -0.139742 153 0 76
0.346085 -0.122927 -0.202446 127 0 127
-0.138560 -0.227365 0.752342 153 0 76
-0.381698 -0.251016 0.027904 153 0 76
0.366130 -0.250907 0.660098 153 0 76
0.674099 -0.224982 0.534454 153 0 76
-0.383332 0.589785 -0.411516 204 51 127
-0.085096 -0.174818 -0.172881 153 0 76
-0.351007 -0.229524 0.750853 153 0 76
-0.499457 -0.208271 0.567134 153 0 76
-0.278585 -0.251016 0.275872 153 0 76
0.547241 -0.251016 0.409378 153 0 76
-0.424055 -0.208271 0.579675 153 0 76
0.162566 -0.208271 0.357457 0 127 127
-0.251650 -0.208271 -0.003552 153 0 76
-0.425669 -0.208271 -0.001945 153 0 76
0.135201 -0.208548 0.512563 76 0 153
-0.623101 -0.171527 -0.191990 204 51 127
-0.429309 -0.251016 0.608803 153 0 76
0.631752 -0.208271 -0.009398 153 0 76
0.668220 0.053877 -0.268919 204 51 127
0.200975 0.525305 -0.363219 153 0 76
-0.320670 0.663804 -0.414236 204 51 127
0.609913 -0.081144 -0.199545 153 0 76
-0.349407 -0.209019 0.226631 0 127 127
0.337161 -0.209019 0.166948 0 127 127
0.558128 -0.180347 -0.186038 153 0 76
0.130977 -0.251016 0.350596 153 0 76
0.371475 -0.208271 0.539165 153 0 76
-0.524613 -0.186718 -0.134172 153 0 76
0.652626 0.547230 -0.369092 204 51 127
-0.046027 -0.251016 0.175786 153 0 76
-0.112986 -0.208271 0.107901 0 127 127
0.386906 -0.183095 -0.141267 153 0 76
0.458571 -0.209019 0.071580 0 127 127
-0.301267 -0.208690 0.326318 0 127 127
0.004204 -0.106331 -0.227695 204 51 127
-0.463034 -0.208271 0.505562 153 0 76
0.675594 0.168941 -0.283036 204 51 127
-0.356704 0.569230 -0.375037 153 0 76
-0.003836 0.444612 -0.341410 153 0 76
-0.524650 -0.251016 -0.078125 153 0 76
-0.006772 0.538451 -0.366764 153 0 76
-0.460440 -0.251016 0.205092 153 0 76
-0.168120 -0.208975 0.519570 76 0 153
-0.567917 -0.208271 0.511819 153 0 76
-0.386140 -0.202939 -0.092571 153 0 76
0.163840 -0.010922 -0.218542 153 0 76
0.050722 -0.251016 0.344977 153 0 76
0.552366 -0.251016 0.081843 153 0 76
0.210708 -0.224858 0.462178 153 0 76
0.137714 -0.176421 -0.192623 204 51 127
0.365332 -0.048938 -0.243125 204 51 127
-0.108528 0.595251 -0.416706 204 51 127
0.521743 -0.251016 0.024431 153 0 76
-0.441850 0.011584 -0.259453 204 51 127
-0.312315 -0.251016 -0.066799 153 0 76
-0.113452 -0.209019 0.461624 0 127 127
-0.557171 -0.244571 0.106272 153 0 76
-0.092890 0.281821 -0.332429 204 51 127
0.493538 -0.197106 -0.197458 204 51 127
-0.187173 -0.025203 -0.249574 204 51 127
-0.241991 -0.212227 0.752755 153 0 76
-0.265362 0.138619 -0.259556 153 0 76
-0.358628 -0.251016 0.335479 153 0 76
0.648274 -0.004515 -0.220273 204 51 127
0.302604 0.348571 -0.350417 204 51 127
-0.106214 -0.251016 0.610124 153 0 76
-0.537357 -0.209019 0.156479 0 127 127
0.485718 -0.251016 -0.085906 153 0 76
0.458427 -0.251016 0.061403 153 0 76
-0.341322 0.586018 -0.379944 204 51 127
-0.059371 -0.209019 0.249428 0 127 127
0.502479 -0.251016 0.119580 153 0 76
0.139760 0.395697 -0.328187 153 0 76
0.637338 -0.223471 0.095296 153 0 76
0.095506 -0.208271 0.308843 0 127 127
0.606077 0.572543 -0.393915 204 51 127
-0.104665 -0.251016 0.159063 153 0 76
0.180489 0.231248 -0.284121 153 0 76
-0.003633 -0.251016 0.225106 153 0 76
0.594572 -0.251016 0.093839 153 0 76
-0.234643 -0.208271 0.378642 0 127 127
-0.084123 -0.251016 0.103347 153 0 76
-0.365173 0.663935 -0.414199 204 51 127
-0.138478 -0.209019 0.424652 0 127 127
0.096345 -0.251016 0.049031 153 0 76
0.014133 -0.208271 0.466560 153 0 76
0.633255 0.256238 -0.290723 204 51 127
0.238342 0.498407 -0.390807 204 51 127
0.440645 -0.251016 0.161784 153 0 76
0.602531 -0.237471 0.278977 153 0 76
-0.562761 -0.066183 -0.204007 153 0 76
0.004024 -0.251016 0.304292 153 0 76
-0.201526 -0.208271 0.729807 153 0 76
0.617812 -0.251016 -0.034470 153 0 76
-0.282733 -0.208017 -0.072328 153 0 76
0.672479 -0.234936 0.063728 153 0 76
0.090338 -0.251016 0.409743 153 0 76
0.484609 0.326442 -0.309679 153 0 76
-0.271584 0.576157 -0.403814 204 51 127
0.284179 -0.251016 0.488082 153 0 76
0.230885 -0.251016 0.473221 153 0 76
0.271656 0.033283 -0.230417 153 0 76
0.504827 -0.001689 -0.221036 153 0 76
0.631165 0.429020 -0.372137 204 51 127
-0.437278 -0.208271 0.254825 0 127 127
-0.106663 -0.234849 -0.189313 153 0 76
-0.490553 -0.251016 -0.020523 153 0 76
-0.045044 -0.141849 -0.218055 204 51 127
0.296887 -0.251016 0.572539 153 0 76
0.674099 -0.228642 0.711344 153 0 76
0.446419 -0.025196 -0.214631 153 0 76
0.371243 -0.251016 0.389008 153 0 76
0.041437 -0.209019 0.042273 0 127 127
-0.593259 -0.208271 0.472312 153 0 76
-0.118743 -0.251016 0.558308 153 0 76
0.661661 -0.231339 0.273461 153 0 76
-0.271645 -0.209019 0.046441 0 127 127
0.083330 -0.251016 0.268725 153 0 76
0.622924 -0.220582 0.205109 153 0 76
-0.152407 0.241982 -0.286719 153 0 76
0.171368 -0.209012 0.253216 0 127 127
0.674099 -0.243163 -0.066970 153 0 76
0.497317 0.309669 -0.339959 204 51 127
-0.294487 0.590561 -0.415560 204 51 127
0.107910 -0.208427 0.673882 76 0 153
0.473183 0.581355 -0.409996 204 51 127
0.298648 -0.251016 0.535576 153 0 76
0.034429 -0.209478 -0.187488 127 0 127
0.122405 -0.251016 0.470104 153 0 76
-0.186378 -0.251016 0.398442 153 0 76
-0.176774 -0.251016 0.282661 153 0 76
-0.447018 0.442013 -0.340724 153 0 76
-0.513338 0.263446 -0.327480 204 51 127
-0.572620 -0.208271 0.556190 153 0 76
0.455986 -0.209019 0.395579 0 127 127
0.195401 -0.144068 -0.217456 204 51 127
0.169322 -0.251016 0.637053 153 0 76
-0.141363 -0.251016 0.227342 153 0 76
-0.075495 0.366905 -0.320480 153 0 76
-0.002117 0.403927 -0.365347 204 51 127
0.349730 -0.209019 0.056093 0 127 127
-0.344003 -0.251016 -0.117652 153 0 76
-0.311476 -0.251016 0.010981 153 0 76
-0.104739 -0.251016 0.424399 153 0 76
-0.471599 -0.251016 0.270770 153 0 76
-0.601462 -0.208271 0.063070 153 0 76
0.127613 -0.069720 -0.237559 204 51 127
-0.135581 0.604849 -0.400476 204 51 127
-0.341091 0.303537 -0.303390 153 0 76
0.396749 -0.251016 0.451495 153 0 76
0.542276 -0.209019 0.313837 0 127 127
0.424157 -0.251016 0.095982 153 0 76
-0.461222 -0.184181 -0.139196 153 0 76
-0.617739 0.486468 -0.352726 204 51 127
-0.205475 -0.251016 0.453093 153 0 76
0.533304 -0.208271 0.489797 153 0 76
-0.560353 0.086188 -0.245091 153 0 76
-0.496801 -0.251016 0.440426 153 0 76
0.631557 -0.208271 0.013145 153 0 76
0.362087 0.015879 -0.260611 204 51 127
-0.030945 0.177722 -0.269373 153 0 76
0.296389 -0.251016 0.229097 153 0 76
-0.280407 -0.251016 0.389812 153 0 76
0.319112 0.616485 -0.419958 204 51 127
0.335594 -0.227303 0.015881 153 0 76
0.616721 0.135646 -0.292989 204 51 127
0.526410 0.072431 -0.240970 153 0 76
-0.057134 -0.251016 0.344676 153 0 76
-0.590029 -0.233694 0.738248 153 0 76
0.325708 -0.251016 0.396835 153 0 76
-0.416729 -0.126169 -0.222334 204 51 127
0.028475 -0.209019 0.350345 0 127 127
-0.045651 0.166101 -0.266284 153 0 76
-0.113854 -0.208271 -0.067023 153 0 76
-0.033162 -0.208570 0.668984 76 0 153
-0.061929 -0.178331 -0.150067 153 0 76
0.182142 0.535938 -0.366090 153 0 76
-0.454127 -0.206031 -0.081043 153 0 76
-0.418815 -0.175758 -0.156281 153 0 76
0.280537 0.307310 -0.304881 153 0 76
0.511735 -0.251016 0.506756 153 0 76
0.193032 -0.208271 -0.012310 153 0 76
0.658839 0.576389 -0.411808 204 51 127
0.167276 -0.208271 0.109679 0 127 127
-0.009730 -0.195165 -0.115116 153 0 76
0.124169 -0.250741 0.663657 153 0 76
-0.351031 -0.208271 0.713565 153 0 76
-0.620520 0.309341 -0.304998 204 51 127
-0.233410 0.293785 -0.300710 153 0 76
0.059760 -0.251016 0.202081 153 0 76
0.138798 -0.013058 -0.252879 204 51 127
-0.305636 -0.251016 -0.033891 153 0 76
-0.184905 0.250870 -0.289119 153 0 76
-0.357414 -0.215949 0.015881 153 0 76
-0.097135 0.634903 -0.420018 204 51 127
0.281472 -0.108856 -0.201732 127 0 127
0.177734 -0.105337 -0.227958 204 51 127
0.534228 -0.206741 -0.050232 153 0 76
0.123569 -0.208271 0.217502 0 127 127
-0.015196 -0.209019 0.249797 0 127 127
-0.346270 -0.234925 0.462178 153 0 76
0.426415 0.130097 -0.291450 204 51 127
0.493830 -0.186904 -0.133794 153 0 76
0.070764 -0.218731 -0.085929 153 0 76
0.181459 -0.251016 -0.105170 153 0 76
0.080484 -0.208271 0.294032 0 127 127
-0.593478 -0.208271 0.696720 153 0 76
0.583368 -0.208271 0.634082 153 0 76
0.627976 -0.192433 -0.196826 153 0 76
0.624371 -0.217471 0.149900 153 0 76
0.296332 0.121903 -0.254313 153 0 76
0.214201 -0.209019 0.090411 0 127 127
0.512194 0.017434 -0.226126 153 0 76
-0.265647 -0.251016 0.257529 153 0 76
-0.199812 -0.205348 -0.083814 153 0 76
0.168964 -0.251016 0.607603 153 0 76
0.300614 -0.209019 0.261791 0 127 127
-0.041362 -0.251016 0.566986 153 0 76
-0.296776 0.537320 -0.401318 204 51 127
-0.314493 0.400347 -0.329440 153 0 76
0.202844 0.147790 -0.261357 153 0 76
0.427167 -0.251016 0.357525 153 0 76
-0.291172 0.336193 -0.312132 153 0 76
0.166876 -0.208557 0.523942 76 0 153
0.619735 0.602227 -0.394590 204 51 127
0.086632 -0.251016 0.527269 153 0 76
-0.364514 0.605126 -0.398450 204 51 127
-0.088435 -0.127051 -0.222090 204 51 127
0.483944 -0.251016 -0.119880 153 0 76
-0.396958 -0.207988 -0.072458 153 0 76
0.079358 -0.251016 0.023488 153 0 76
0.337575 -0.208271 0.689894 153 0 76
0.527173 -0.251016 0.155509 153 0 76
-0.091075 -0.251016 -0.056647 153 0 76
-0.188472 -0.179157 -0.148433 153 0 76
0.470073 -0.251016 0.260283 153 0 76
0.147853 0.493178 -0.354491 153 0 76
0.674099 -0.216497 -0.113063 153 0 76
0.572626 0.550469 -0.369950 153 0 76
