ply
format ascii 1.0
element vertex 1247
property float x
property float y
property float z
property uchar red
property uchar green
property uchar blue
end_header
0.670673 0.558255 -0.405021 204 51 127
-0.448028 0.211443 -0.311444 204 51 127
0.012562 -0.208271 0.057311 0 127 127
-0.074153 0.646415 -0.397839 204 51 127
0.097923 0.234666 -0.317710 204 51 127
0.243871 -0.251016 0.318974 153 0 76
0.315323 -0.251016 0.207408 153 0 76
-0.115747 -0.208271 0.667573 76 0 153
-0.303942 0.533697 -0.371422 153 0 76
0.674099 -0.241076 0.449749 153 0 76
0.579530 -0.231152 0.015881 153 0 76
-0.032982 -0.122070 -0.221456 204 51 127
-0.570714 0.312651 -0.338752 204 51 127
0.626597 0.227129 -0.315677 204 51 127
0.436564 -0.208271 0.730935 153 0 76
0.503958 -0.247273 0.688693 153 0 76
0.134740 0.239189 -0.318931 204 51 127
-0.468914 0.490319 -0.359717 153 0 76
0.321880 -0.223629 -0.129934 153 0 76
-0.323206 0.368840 -0.330038 153 0 76
-0.460651 -0.208271 0.594941 153 0 76
-0.373225 0.434967 -0.371756 204 51 127
-0.560079 -0.060555 -0.214178 153 0 76
-0.454915 -0.251016 0.626932 153 0 76
0.399496 0.407074 -0.340354 153 0 76
0.353469 0.529790 -0.370367 153 0 76
0.380046 -0.208271 0.579883 153 0 76
0.550268 -0.251016 0.238597 153 0 76
-0.062309 0.403939 -0.336410 153 0 76
-0.518388 -0.089633 -0.206333 204 51 127
-0.504055 -0.240825 0.712708 153 0 76
0.436409 0.515036 -0.393360 204 51 127
0.004495 0.177766 -0.275384 153 0 76
-0.088212 -0.224169 0.752755 153 0 76
-0.603375 -0.251016 0.012008 153 0 76
-0.111054 -0.208271 0.380879 0 127 127
-0.228198 -0.176003 -0.155686 153 0 76
0.557701 -0.208271 0.515809 153 0 76
-0.264333 0.395952 -0.361229 204 51 127
-0.454871 -0.094300 -0.205073 153 0 76
-0.637957 -0.106745 -0.223175 204 51 127
-0.042966 0.001977 -0.254926 204 51 127
-0.300882 0.446425 -0.350972 153 0 76
0.506700 -0.250721 -0.159993 153 0 76
0.166935 0.376594 -0.356005 204 51 127
0.420611 0.334437 -0.313661 153 0 76
0.162754 -0.251016 -0.024336 153 0 76
-0.356823 -0.251016 0.427533 153 0 76
0.547037 0.074357 -0.274455 204 51 127
-0.361722 0.635743 -0.394959 204 51 127
-0.597129 0.634443 -0.418913 204 51 127
0.348502 -0.071826 -0.211137 153 0 76
-0.041887 0.662774 -0.402253 204 51 127
-0.546371 0.307157 -0.306300 153 0 76
0.498866 -0.208954 0.240184 0 127 127
-0.118026 0.175834 -0.270867 153 0 76
-0.576505 -0.237829 0.723439 153 0 76
0.090815 0.430719 -0.370609 204 51 127
0.040820 -0.208271 -0.013316 153 0 76
0.384273 -0.208271 -0.009777 153 0 76
-0.490492 -0.209019 0.097415 0 127 127
0.555327 -0.247640 0.687014 153 0 76
-0.612196 0.229731 -0.285409 204 51 127
-0.469403 -0.208271 0.065308 0 127 127
0.033513 -0.207150 0.648149 76 0 153
0.648763 -0.251016 -0.157177 153 0 76
0.111140 -0.251016 -0.130157 153 0 76
-0.323747 -0.209019 0.188566 0 127 127
0.287750 -0.251016 -0.131472 153 0 76
-0.250487 0.314080 -0.312164 153 0 76
0.405346 -0.209019 0.084060 0 127 127
0.355287 0.181837 -0.303456 204 51 127
-0.637957 -0.222032 0.575709 153 0 76
-0.372271 -0.251016 0.526218 153 0 76
0.036319 0.613420 -0.418510 204 51 127
-0.147285 0.077615 -0.275335 204 51 127
-0.108736 -0.251016 0.651851 153 0 76
-0.099797 -0.209019 0.119699 0 127 127
0.170267 -0.209019 0.440094 0 127 127
-0.391960 0.475489 -0.355716 153 0 76
-0.474500 0.145839 -0.293743 204 51 127
-0.434956 -0.209019 0.180082 0 127 127
0.634227 -0.028194 -0.215816 204 51 127
-0.613787 0.573807 -0.409218 204 51 127
0.302918 -0.200861 -0.099303 153 0 76
0.672740 -0.146114 -0.214968 204 51 127
-0.556453 -0.251016 -0.093680 153 0 76
0.021866 -0.251016 0.567370 153 0 76
-0.235463 -0.251016 0.135961 153 0 76
-0.217552 0.599152 -0.415976 204 51 127
0.402716 -0.251016 0.241260 153 0 76
0.614762 0.295332 -0.303110 153 0 76
-0.157034 -0.251016 0.330056 153 0 76
-0.297109 -0.231949 0.462178 153 0 76
-0.099029 -0.209019 0.176756 0 127 127
0.307265 -0.251016 0.643839 153 0 76
0.229810 0.184828 -0.277290 153 0 76
0.103852 -0.251016 0.355930 153 0 76
0.345013 0.326417 -0.318591 153 0 76
-0.349555 -0.251016 -0.142283 153 0 76
0.274910 -0.103300 -0.199547 127 0 127
0.320304 0.176428 -0.275023 153 0 76
-0.061629 -0.251016 0.509186 153 0 76
0.323228 0.285115 -0.300353 153 0 76
-0.321630 -0.251016 0.315640 153 0 76
0.273752 0.647127 -0.417223 204 51 127
0.343455 -0.251016 0.161236 153 0 76
-0.074131 0.273424 -0.304293 153 0 76
-0.309077 -0.251016 0.537338 153 0 76
-0.073380 -0.226476 0.462178 153 0 76
0.406011 -0.208271 0.402937 0 127 127
0.141304 0.086810 -0.277816 204 51 127
0.538550 -0.209019 0.300988 0 127 127
0.453837 -0.251016 0.436669 153 0 76
-0.315866 -0.251016 0.574305 153 0 76
-0.637957 -0.234961 0.600783 153 0 76
-0.231187 -0.251016 0.635770 153 0 76
0.153635 0.623214 -0.391579 204 51 127
-0.199123 -0.208271 0.474449 153 0 76
-0.060541 -0.251016 0.653539 153 0 76
0.434597 -0.208271 0.594760 153 0 76
0.049196 -0.237458 -0.148035 127 0 127
-0.262310 0.470344 -0.350332 153 0 76
0.143311 -0.230152 0.015881 153 0 76
-0.533578 0.112107 -0.253672 153 0 76
-0.354993 -0.209019 0.445409 0 127 127
-0.436012 -0.208271 0.550840 153 0 76
0.187587 0.155193 -0.296267 204 51 127
0.264867 -0.209019 0.209737 0 127 127
0.397319 -0.235026 0.015881 153 0 76
-0.063395 -0.208271 0.135897 0 127 127
-0.498127 0.565655 -0.383143 204 51 127
-0.352270 -0.251016 0.337294 153 0 76
0.259425 0.115422 -0.285536 204 51 127
0.576793 0.079693 -0.252020 153 0 76
-0.152676 -0.247650 0.686973 153 0 76
-0.355212 0.329878 -0.319525 153 0 76
0.012926 0.131652 -0.262942 153 0 76
-0.376466 -0.208271 0.536278 153 0 76
0.205909 -0.251016 0.580837 153 0 76
-0.279782 0.341561 -0.322678 153 0 76
-0.240064 -0.251016 -0.127444 153 0 76
-0.579907 0.174780 -0.270582 153 0 76
0.602531 -0.230489 0.090594 153 0 76
0.547666 -0.209019 0.225323 0 127 127
0.571506 -0.251016 0.619242 153 0 76
0.568579 0.371805 -0.330838 153 0 76
0.391418 -0.251016 0.423774 153 0 76
-0.301731 0.282189 -0.330533 204 51 127
0.634424 -0.223471 0.000275 153 0 76
0.449537 -0.251016 0.155433 153 0 76
0.368210 -0.251016 0.194667 153 0 76
0.079996 -0.208271 0.725840 153 0 76
-0.424984 -0.251016 0.526715 153 0 76
0.457164 -0.245691 0.695196 153 0 76
-0.181364 -0.110252 -0.224644 204 51 127
-0.422207 -0.251016 0.604997 153 0 76
-0.442917 -0.208271 0.636119 153 0 76
0.600118 -0.208271 0.486906 153 0 76
-0.158013 -0.208271 0.158798 0 127 127
-0.536267 -0.208271 0.496003 153 0 76
-0.331140 -0.234034 0.015881 153 0 76
0.103528 0.020401 -0.259897 204 51 127
0.289401 -0.251016 0.143248 153 0 76
-0.380865 -0.208271 0.019234 0 127 127
-0.460210 -0.208271 0.730735 153 0 76
-0.631726 0.573401 -0.378138 204 51 127
0.624934 0.394330 -0.329821 153 0 76
0.189015 -0.209019 0.123352 0 127 127
0.156329 0.555961 -0.404402 204 51 127
0.078247 0.345682 -0.347665 204 51 127
-0.350632 -0.251016 0.079557 153 0 76
-0.068107 -0.015454 -0.250223 204 51 127
-0.234371 0.467403 -0.380508 204 51 127
0.143757 -0.209019 0.189036 0 127 127
-0.292815 0.264546 -0.301897 153 0 76
0.158581 -0.251016 0.295315 153 0 76
-0.428744 0.157880 -0.266022 153 0 76
0.491574 -0.251016 0.294526 153 0 76
-0.531892 0.506699 -0.367235 153 0 76
0.455135 -0.251016 0.250903 153 0 76
0.588236 -0.105894 -0.225820 204 51 127
-0.511123 -0.209019 0.267088 0 127 127
-0.420292 -0.208271 0.036888 0 127 127
0.201290 0.115531 -0.261690 153 0 76
-0.594082 -0.208271 0.338533 153 0 76
-0.637957 0.368225 -0.352864 204 51 127
-0.199919 -0.251016 -0.105555 153 0 76
0.567685 -0.209019 0.433769 0 127 127
-0.002404 -0.168312 -0.208979 204 51 127
-0.549730 0.471829 -0.357826 153 0 76
-0.216896 0.491783 -0.360112 153 0 76
-0.221424 -0.217135 0.015881 153 0 76
0.266202 0.210918 -0.311303 204 51 127
0.545957 0.533286 -0.367314 153 0 76
-0.230918 -0.208271 0.724264 153 0 76
-0.216751 0.375138 -0.355613 204 51 127
-0.406361 0.523550 -0.395657 204 51 127
-0.064346 0.338926 -0.318868 153 0 76
-0.105224 0.320258 -0.313831 153 0 76
0.644229 -0.217471 0.118102 153 0 76
-0.073166 0.120642 -0.255975 153 0 76
-0.474409 0.633584 -0.394377 204 51 127
0.673492 -0.251016 0.337981 153 0 76
-0.426529 -0.119461 -0.222160 204 51 127
0.350016 -0.230411 0.749572 153 0 76
-0.146687 -0.229794 0.462178 153 0 76
-0.315440 -0.251016 -0.057874 153 0 76
0.427248 0.635671 -0.418809 204 51 127
0.602531 -0.220536 0.038285 153 0 76
0.120526 -0.208271 0.209732 0 127 127
0.239303 0.322264 -0.341346 204 51 127
0.231703 -0.046882 -0.241743 204 51 127
0.607339 0.657450 -0.414710 204 51 127
0.115687 0.365478 -0.329131 153 0 76
0.376681 -0.250779 0.663000 153 0 76
-0.404723 -0.251016 0.544722 153 0 76
0.216407 -0.224429 -0.093972 153 0 76
0.481963 0.550475 -0.402922 204 51 127
-0.540380 -0.251016 -0.040027 153 0 76
0.420555 0.433396 -0.371332 204 51 127
-0.069459 0.007892 -0.229548 153 0 76
-0.347013 -0.251016 0.177255 153 0 76
-0.534060 0.132770 -0.290217 204 51 127
0.292633 -0.251016 -0.052031 153 0 76
-0.637957 0.265270 -0.325549 204 51 127
-0.338614 -0.151798 -0.213434 204 51 127
0.241811 0.225072 -0.284152 153 0 76
-0.122246 -0.251016 0.598242 153 0 76
0.339380 -0.234131 0.462178 153 0 76
-0.201336 -0.244595 -0.177046 153 0 76
0.569655 -0.186160 -0.135309 153 0 76
-0.550145 0.170118 -0.300294 204 51 127
-0.470337 -0.251016 0.011665 153 0 76
0.460556 -0.234787 0.734333 153 0 76
-0.539544 0.255067 -0.296241 153 0 76
-0.202696 -0.251016 0.367569 153 0 76
-0.524495 0.173177 -0.274146 153 0 76
0.473121 0.117321 -0.255079 153 0 76
0.350234 0.644911 -0.417595 204 51 127
-0.015746 -0.208271 0.412856 0 127 127
-0.022188 -0.251016 0.598209 153 0 76
0.349346 -0.021882 -0.248488 204 51 127
-0.435121 -0.208271 0.709871 153 0 76
0.065305 -0.251016 0.645536 153 0 76
0.422724 -0.208271 0.380868 0 127 127
-0.566417 0.278141 -0.329441 204 51 127
0.196412 -0.090839 -0.198913 153 0 76
0.563558 0.214705 -0.285351 153 0 76
-0.495702 -0.251016 0.487685 153 0 76
-0.562437 0.089335 -0.251524 153 0 76
0.172976 -0.000248 -0.254326 204 51 127
0.572284 0.645732 -0.397655 204 51 127
-0.457543 -0.251016 0.089215 153 0 76
0.404292 -0.209019 0.283693 0 127 127
-0.333841 0.001505 -0.227825 153 0 76
0.045683 -0.251016 0.090910 153 0 76
-0.397568 -0.199100 -0.198917 204 51 127
0.418929 -0.209019 0.035254 0 127 127
-0.177309 -0.209019 0.060379 0 127 127
0.501193 -0.240250 -0.183470 153 0 76
-0.449318 -0.190299 -0.126594 153 0 76
0.641594 0.381149 -0.357234 204 51 127
0.367109 0.369842 -0.327210 153 0 76
-0.229428 0.522372 -0.395339 204 51 127
-0.099461 -0.243961 0.701474 153 0 76
0.196012 -0.209019 0.287078 0 127 127
0.493532 -0.209019 0.278598 0 127 127
-0.006020 0.438795 -0.372788 204 51 127
0.166340 0.041017 -0.265460 204 51 127
-0.557216 0.145597 -0.269803 153 0 76
-0.307468 -0.208271 0.702653 153 0 76
-0.595773 -0.148657 -0.191331 204 51 127
-0.189876 0.195486 -0.283264 153 0 76
0.530149 0.095314 -0.256235 153 0 76
0.618325 -0.251016 0.154021 153 0 76
0.077330 0.567526 -0.380549 204 51 127
-0.495038 -0.251016 0.652767 153 0 76
0.311972 0.194948 -0.306993 204 51 127
0.252179 -0.209019 0.041824 0 127 127
0.390284 0.190266 -0.305730 204 51 127
-0.335321 -0.251016 0.594673 153 0 76
-0.013147 -0.208271 0.110162 0 127 127
-0.152824 0.233817 -0.286512 153 0 76
0.285081 -0.208271 0.545759 153 0 76
0.195812 -0.236228 -0.145078 127 0 127
0.092140 0.569301 -0.408002 204 51 127
0.499449 0.494074 -0.360730 153 0 76
0.284040 0.240485 -0.319280 204 51 127
-0.102359 0.325813 -0.342304 204 51 127
0.602769 0.400571 -0.362475 204 51 127
0.218526 0.399773 -0.362260 204 51 127
-0.584345 -0.250174 0.670715 153 0 76
-0.478586 -0.251016 0.406440 153 0 76
0.399426 0.460561 -0.351688 153 0 76
-0.220116 -0.079559 -0.205953 153 0 76
-0.314205 0.613411 -0.388934 204 51 127
-0.113384 -0.233595 0.738604 153 0 76
0.346085 -0.202539 -0.173094 153 0 76
0.620354 0.089944 -0.251688 204 51 127
-0.439286 -0.208271 0.228840 0 127 127
-0.153903 -0.251016 -0.144857 153 0 76
0.012322 -0.251016 0.165832 153 0 76
-0.491884 -0.208271 0.629295 153 0 76
-0.509897 0.249598 -0.321739 204 51 127
0.273841 -0.221429 -0.114258 153 0 76
0.494574 -0.209019 0.082507 0 127 127
-0.508906 0.005893 -0.255983 204 51 127
0.674099 -0.213416 0.209189 153 0 76
0.347603 -0.251016 0.615922 153 0 76
0.421209 0.057620 -0.242966 153 0 76
0.173213 -0.208271 0.207077 0 127 127
-0.494933 0.037701 -0.233596 153 0 76
0.171956 -0.208271 0.488477 153 0 76
-0.148701 -0.251016 0.434370 153 0 76
-0.470108 -0.251016 0.140283 153 0 76
0.268055 -0.245978 0.694120 153 0 76
-0.494856 -0.208271 0.601504 153 0 76
-0.500941 -0.251016 -0.040583 153 0 76
-0.032111 -0.088172 -0.199632 204 51 127
-0.238933 0.495949 -0.388210 204 51 127
-0.045426 -0.209019 0.425704 0 127 127
-0.359267 0.288349 -0.332195 204 51 127
0.115218 0.104618 -0.282621 204 51 127
0.024714 0.449556 -0.344723 153 0 76
-0.353108 0.591109 -0.413886 204 51 127
0.080427 -0.204851 -0.109956 153 0 76
0.103817 -0.251016 0.162952 153 0 76
0.076798 -0.208271 0.489030 153 0 76
0.264535 -0.141229 -0.216286 127 0 127
0.112727 -0.216285 -0.186390 127 0 127
-0.230360 -0.209019 0.259564 0 127 127
-0.475643 -0.174332 -0.164007 153 0 76
-0.264984 -0.208271 -0.065824 153 0 76
-0.015336 -0.209019 0.313622 0 127 127
0.176820 -0.208271 0.032116 0 127 127
0.193394 -0.219359 -0.185110 127 0 127
-0.492118 0.595011 -0.414939 204 51 127
-0.500182 0.337167 -0.345367 204 51 127
-0.286988 0.049125 -0.267648 204 51 127
-0.351012 0.020370 -0.232915 153 0 76
0.338053 0.479985 -0.360027 153 0 76
-0.016137 0.057878 -0.243036 153 0 76
0.562376 -0.209019 0.138554 0 127 127
-0.104572 -0.251016 0.088997 153 0 76
0.306904 0.403916 -0.363377 204 51 127
0.313526 -0.251016 0.160428 153 0 76
0.232198 -0.232926 -0.118247 153 0 76
-0.296236 -0.250014 0.672281 153 0 76
0.122848 -0.209019 0.404031 0 127 127
0.667319 0.486035 -0.354565 204 51 127
-0.359055 -0.174587 -0.171127 153 0 76
0.037592 -0.209019 0.356642 0 127 127
-0.053591 0.029691 -0.235431 153 0 76
-0.098487 0.524515 -0.395917 204 51 127
0.540945 0.274240 -0.301415 153 0 76
-0.521413 0.285587 -0.300480 153 0 76
0.233587 -0.251016 0.422737 153 0 76
0.663689 -0.208271 0.534713 153 0 76
-0.023275 -0.210107 0.547637 76 0 153
0.487227 -0.029820 -0.219373 153 0 76
-0.144438 -0.136622 -0.217529 204 51 127
0.094928 0.478334 -0.359582 153 0 76
-0.388013 0.234209 -0.290613 153 0 76
0.503192 -0.228359 0.015881 153 0 76
0.485931 0.087752 -0.278070 204 51 127
0.583382 -0.167642 -0.209159 204 51 127
-0.315018 -0.209019 0.051404 0 127 127
-0.613834 -0.002369 -0.253753 204 51 127
-0.588961 -0.208271 -0.028918 153 0 76
-0.536434 0.595349 -0.384060 204 51 127
0.131226 -0.209019 0.048711 0 127 127
0.472698 -0.232328 0.015881 153 0 76
-0.301899 -0.208271 -0.031660 153 0 76
-0.092832 0.268269 -0.326777 204 51 127
-0.610174 -0.084682 -0.200574 204 51 127
0.115272 -0.208271 0.745066 153 0 76
-0.576045 -0.251016 0.354983 153 0 76
0.110640 -0.251016 0.610001 153 0 76
-0.623875 -0.251016 0.508706 153 0 76
-0.400488 0.075500 -0.250889 153 0 76
-0.573203 0.030446 -0.262607 204 51 127
-0.314456 -0.251016 0.406425 153 0 76
0.072952 0.255743 -0.292428 153 0 76
0.148398 -0.147167 -0.214684 204 51 127
-0.339003 -0.251016 0.264780 153 0 76
-0.274725 0.547774 -0.402193 204 51 127
0.132348 -0.209019 0.321368 0 127 127
0.371678 0.162231 -0.267196 153 0 76
0.534546 -0.184609 -0.195705 153 0 76
-0.176416 -0.251016 0.280659 153 0 76
-0.399337 -0.208271 0.632521 153 0 76
0.674099 -0.056773 -0.213789 204 51 127
0.331196 -0.209019 0.306906 0 127 127
0.192704 0.651125 -0.416353 204 51 127
-0.136989 0.059677 -0.243521 153 0 76
-0.415536 0.246453 -0.289921 153 0 76
0.452813 0.452711 -0.352668 153 0 76
-0.002241 0.104228 -0.282515 204 51 127
-0.557355 -0.251016 0.506916 153 0 76
-0.613808 -0.208271 0.464443 153 0 76
-0.052385 0.528530 -0.370027 153 0 76
0.310941 0.057129 -0.269807 204 51 127
-0.095563 -0.209312 0.513327 76 0 153
0.038917 0.565680 -0.376055 153 0 76
-0.161192 -0.251016 -0.028632 153 0 76
-0.355416 -0.209049 0.751188 153 0 76
-0.295241 0.186708 -0.277797 153 0 76
-0.281893 -0.116453 -0.222971 204 51 127
-0.165159 -0.209019 0.300039 0 127 127
-0.513726 -0.204936 -0.085418 153 0 76
-0.351681 -0.209019 0.030768 0 127 127
0.284932 -0.209019 0.357458 0 127 127
0.096056 0.654955 -0.400143 204 51 127
-0.243570 -0.251016 -0.100618 153 0 76
0.369631 0.039325 -0.234034 153 0 76
0.584024 0.197538 -0.276723 153 0 76
0.054236 -0.209019 0.162097 0 127 127
-0.400314 0.153741 -0.295875 204 51 127
-0.502015 -0.065382 -0.205782 153 0 76
0.321839 -0.208271 0.034908 0 127 127
0.318065 0.580437 -0.411006 204 51 127
0.538541 -0.208271 0.569736 153 0 76
-0.283102 -0.169420 -0.208680 204 51 127
0.671363 -0.177915 -0.182127 153 0 76
-0.002023 0.235392 -0.317906 204 51 127
-0.527862 -0.039983 -0.212635 153 0 76
0.024279 -0.208271 0.008271 153 0 76
0.512698 0.150709 -0.264088 153 0 76
-0.605287 0.179487 -0.302822 204 51 127
-0.450735 0.339978 -0.346125 204 51 127
-0.522145 -0.208271 0.651429 153 0 76
0.121855 -0.227788 -0.133114 127 0 127
-0.576349 -0.251016 0.282560 153 0 76
-0.613871 -0.251016 -0.033773 153 0 76
0.109359 0.050688 -0.237100 153 0 76
0.161597 0.159747 -0.266526 153 0 76
0.166163 -0.208271 -0.050515 153 0 76
0.618705 0.014076 -0.258191 204 51 127
0.185530 0.059853 -0.270542 204 51 127
-0.342563 0.634391 -0.418915 204 51 127
-0.329983 -0.251016 0.429802 153 0 76
0.219434 -0.225083 0.015881 153 0 76
0.485073 -0.251016 0.341074 153 0 76
0.571545 0.233294 -0.317340 204 51 127
0.522361 0.465399 -0.379967 204 51 127
0.293124 -0.209019 0.330972 0 127 127
-0.465252 0.277832 -0.305482 153 0 76
0.002892 -0.251016 0.478570 153 0 76
0.221007 0.605896 -0.417407 204 51 127
0.335561 0.077827 -0.251517 153 0 76
0.154165 -0.251016 0.633692 153 0 76
-0.085973 0.067658 -0.245675 153 0 76
-0.507313 -0.116305 -0.192042 204 51 127
0.291311 -0.251016 0.251904 153 0 76
0.228714 -0.023012 -0.224308 153 0 76
0.047568 0.233484 -0.317391 204 51 127
-0.043094 0.473789 -0.382231 204 51 127
-0.181202 0.261564 -0.324968 204 51 127
0.193604 -0.176788 -0.160446 127 0 127
0.251601 -0.182688 -0.138024 127 0 127
0.424901 0.509502 -0.367991 153 0 76
-0.276501 -0.251016 0.166553 153 0 76
0.484649 -0.251016 0.411775 153 0 76
0.091868 -0.251016 0.105014 153 0 76
0.194705 0.076411 -0.251135 153 0 76
-0.183717 -0.208271 -0.030661 153 0 76
-0.120530 0.631821 -0.419048 204 51 127
0.157128 -0.208271 0.689093 153 0 76
-0.178709 -0.209019 0.251949 0 127 127
0.190064 0.209681 -0.279999 153 0 76
-0.605350 -0.212768 0.752755 153 0 76
-0.042762 0.567617 -0.380574 153 0 76
0.493111 -0.154135 -0.212804 204 51 127
0.515471 -0.054504 -0.208717 153 0 76
0.674099 -0.242311 0.169775 153 0 76
-0.003797 -0.251016 0.230282 153 0 76
-0.428619 0.296073 -0.303310 153 0 76
0.237396 0.439637 -0.373016 204 51 127
0.674099 -0.230001 -0.100967 153 0 76
-0.052776 -0.251016 -0.071816 153 0 76
0.073014 -0.251016 -0.094472 153 0 76
-0.402972 -0.209019 0.123113 0 127 127
-0.108217 0.572529 -0.377903 204 51 127
-0.318666 -0.036157 -0.244637 204 51 127
-0.099339 -0.215101 0.015881 153 0 76
0.107673 0.387051 -0.358827 204 51 127
-0.198890 -0.036333 -0.244589 204 51 127
-0.569380 -0.208271 0.495826 153 0 76
-0.191295 -0.208271 0.426576 0 127 127
-0.527338 -0.208271 0.566738 153 0 76
-0.176151 -0.205619 -0.082716 153 0 76
0.653869 -0.228443 0.371225 153 0 76
-0.123408 0.523797 -0.368750 153 0 76
0.495470 -0.208271 0.488573 153 0 76
-0.205468 -0.251016 0.314397 153 0 76
0.658923 0.219176 -0.313531 204 51 127
0.418588 -0.251016 0.625194 153 0 76
-0.233006 0.284909 -0.331267 204 51 127
-0.353099 -0.046242 -0.241916 204 51 127
0.322579 -0.232796 -0.105784 153 0 76
0.269356 -0.006940 -0.252520 204 51 127
-0.208900 0.179768 -0.302898 204 51 127
-0.598996 0.254455 -0.292080 204 51 127
-0.003289 -0.251016 0.645903 153 0 76
-0.344605 -0.248092 -0.169672 153 0 76
0.653193 0.599831 -0.416139 204 51 127
-0.126425 -0.208271 -0.007928 153 0 76
0.422390 -0.251016 0.518493 153 0 76
0.591335 -0.209019 0.300840 0 127 127
0.383146 0.232842 -0.290245 153 0 76
-0.149095 -0.209019 0.109276 0 127 127
0.047265 -0.249819 0.015881 153 0 76
-0.127270 -0.209019 0.283712 0 127 127
-0.050086 0.310581 -0.338194 204 51 127
0.077468 -0.208271 0.140948 0 127 127
-0.028748 -0.234784 -0.189369 153 0 76
-0.082237 -0.099079 -0.227659 204 51 127
0.030765 -0.232871 0.462178 153 0 76
0.244698 0.400093 -0.331376 153 0 76
-0.070568 -0.251016 0.189153 153 0 76
0.452947 0.202301 -0.285102 153 0 76
-0.268807 -0.002865 -0.226646 153 0 76
-0.340999 0.207657 -0.283449 153 0 76
-0.151326 0.011313 -0.226476 153 0 76
0.053104 -0.251016 0.324453 153 0 76
0.454569 -0.209019 0.091135 0 127 127
0.584713 -0.251016 0.140442 153 0 76
-0.294281 0.217243 -0.282040 153 0 76
-0.494015 -0.209019 0.235891 0 127 127
0.184298 0.352466 -0.318526 153 0 76
0.525901 -0.231596 0.462178 153 0 76
-0.179569 0.297024 -0.334536 204 51 127
0.489953 -0.208271 0.410772 0 127 127
-0.402218 -0.251016 -0.058921 153 0 76
-0.489719 -0.232647 0.741999 153 0 76
0.134746 0.154130 -0.295980 204 51 127
0.304030 0.457061 -0.353842 153 0 76
0.131211 0.421195 -0.341066 153 0 76
-0.611621 -0.208271 0.197459 153 0 76
-0.615814 -0.251016 0.077836 153 0 76
0.645232 -0.251016 0.492278 153 0 76
-0.482208 -0.251016 0.046955 153 0 76
-0.254454 -0.251016 0.060018 153 0 76
-0.236992 0.220326 -0.286868 153 0 76
-0.390151 -0.208271 0.725382 153 0 76
0.194758 -0.208271 0.684382 153 0 76
0.129310 0.499612 -0.365323 153 0 76
-0.494161 -0.102841 -0.226644 204 51 127
0.638768 0.344065 -0.347228 204 51 127
0.406512 -0.251016 0.100122 153 0 76
-0.041888 -0.251016 0.553919 153 0 76
0.210470 -0.251016 0.046032 153 0 76
0.480652 -0.208271 0.444775 0 127 127
-0.253515 0.197551 -0.307696 204 51 127
0.040724 -0.098251 -0.200909 127 0 127
-0.394539 -0.208271 0.515466 153 0 76
-0.580887 0.642977 -0.396911 204 51 127
-0.424188 -0.209019 0.279674 0 127 127
0.498785 0.575800 -0.382782 204 51 127
0.012937 -0.196399 -0.201400 127 0 127
-0.436368 -0.208271 0.009017 153 0 76
-0.381170 -0.235429 -0.188739 153 0 76
-0.554491 -0.017167 -0.249761 204 51 127
-0.196458 -0.181837 -0.187979 153 0 76
0.201197 -0.251016 0.219813 153 0 76
0.551026 -0.209019 0.348120 0 127 127
-0.054448 -0.238250 -0.185811 153 0 76
-0.243262 -0.251016 0.321939 153 0 76
0.023801 0.098478 -0.257089 153 0 76
-0.266162 0.045700 -0.242848 153 0 76
-0.022960 -0.251016 0.423171 153 0 76
-0.637957 -0.025029 -0.226720 204 51 127
0.617810 0.488906 -0.386310 204 51 127
-0.368765 -0.158475 -0.211633 204 51 127
0.240236 -0.251016 0.265995 153 0 76
0.349087 0.548137 -0.402291 204 51 127
-0.557518 0.229734 -0.316379 204 51 127
0.312189 -0.251016 0.505049 153 0 76
-0.375960 0.176727 -0.271108 153 0 76
0.655774 -0.251016 0.582559 153 0 76
-0.366762 -0.251016 -0.030855 153 0 76
0.002239 -0.251016 -0.009443 153 0 76
0.246593 0.603287 -0.386202 204 51 127
0.134090 -0.210107 0.548759 76 0 153
-0.354083 0.388067 -0.359101 204 51 127
-0.610959 -0.251016 -0.109614 153 0 76
0.009857 0.313803 -0.339063 204 51 127
-0.337603 -0.208271 0.730830 153 0 76
0.327335 -0.117627 -0.196565 204 51 127
0.417549 0.433792 -0.344465 153 0 76
0.232401 0.418630 -0.343472 153 0 76
-0.231089 0.129092 -0.262251 153 0 76
0.275320 -0.209019 0.115109 0 127 127
-0.449160 -0.208271 0.128847 0 127 127
0.239750 0.271348 -0.303733 153 0 76
0.417621 -0.208271 0.628570 153 0 76
-0.344494 -0.209019 0.406476 0 127 127
0.431513 -0.208271 -0.002534 153 0 76
0.604298 0.600207 -0.385371 204 51 127
-0.348774 0.154987 -0.272336 153 0 76
0.547264 0.343916 -0.323313 153 0 76
-0.194231 0.051824 -0.237406 153 0 76
0.370629 -0.208271 0.525574 153 0 76
0.191306 0.453223 -0.376681 204 51 127
0.542264 -0.226514 -0.195594 153 0 76
0.547172 -0.209019 0.038415 0 127 127
-0.420582 0.650284 -0.398883 204 51 127
0.439924 -0.251016 0.271079 153 0 76
-0.355957 -0.251016 -0.078884 153 0 76
0.121142 0.473445 -0.382138 204 51 127
0.236384 0.527722 -0.396783 204 51 127
-0.058380 -0.209019 0.044340 0 127 127
0.154586 0.059997 -0.243608 153 0 76
0.032804 -0.208271 0.310257 0 127 127
0.626125 -0.208271 0.374578 153 0 76
0.482290 0.414216 -0.335187 153 0 76
-0.208232 -0.052494 -0.209259 153 0 76
0.120776 -0.137259 -0.203000 127 0 127
-0.538018 -0.251016 0.236570 153 0 76
0.520043 -0.209019 0.192000 0 127 127
-0.433986 -0.143956 -0.215550 204 51 127
0.587261 -0.124931 -0.191157 204 51 127
-0.402457 0.628824 -0.393093 204 51 127
0.642216 -0.186764 -0.196126 204 51 127
-0.113177 0.262026 -0.301217 153 0 76
-0.428698 0.065106 -0.248084 153 0 76
-0.455840 -0.251016 0.061143 153 0 76
0.378672 0.071235 -0.246640 153 0 76
-0.573643 -0.208271 0.043337 153 0 76
-0.306583 -0.209019 0.265254 0 127 127
0.295678 -0.251016 -0.001910 153 0 76
0.276097 -0.251016 0.303608 153 0 76
-0.328783 -0.059030 -0.214590 153 0 76
-0.314956 -0.209019 0.411486 0 127 127
-0.024299 0.078445 -0.275559 204 51 127
0.223193 -0.208271 0.597041 153 0 76
0.623034 -0.251016 0.255697 153 0 76
-0.469020 0.238789 -0.318823 204 51 127
0.536733 0.413927 -0.335109 153 0 76
-0.193902 -0.251016 0.095436 153 0 76
-0.382306 -0.251016 0.043606 153 0 76
0.469566 -0.251016 -0.064273 153 0 76
0.674099 -0.216523 0.312174 153 0 76
0.259316 -0.251016 0.517036 153 0 76
-0.575756 0.607980 -0.417781 204 51 127
0.218892 -0.105398 -0.225954 127 0 127
-0.293235 -0.208271 0.145013 0 127 127
0.352816 -0.086680 -0.231005 204 51 127
-0.257635 -0.208271 -0.029093 153 0 76
-0.527097 -0.251016 0.378025 153 0 76
0.610926 -0.251016 0.550706 153 0 76
0.004413 0.362932 -0.352319 204 51 127
-0.342648 -0.246676 0.691292 153 0 76
-0.260122 -0.209019 0.270853 0 127 127
0.204090 0.280054 -0.329957 204 51 127
-0.527061 -0.227435 0.462178 153 0 76
0.046925 -0.251016 0.454129 153 0 76
-0.545492 -0.208271 0.639263 153 0 76
-0.126884 0.011451 -0.257482 204 51 127
0.552447 0.250019 -0.321853 204 51 127
-0.375150 -0.208271 0.354282 0 127 127
0.349582 0.604368 -0.386494 204 51 127
-0.313542 0.569565 -0.377103 153 0 76
-0.141687 0.304753 -0.336621 204 51 127
0.583467 -0.246534 -0.173332 153 0 76
-0.497755 0.376331 -0.355935 204 51 127
0.127224 -0.209019 0.236601 0 127 127
0.625712 -0.251016 0.446546 153 0 76
0.524854 -0.001805 -0.230030 153 0 76
-0.415652 -0.251016 0.003996 153 0 76
-0.165220 0.478738 -0.352596 153 0 76
0.028762 0.157680 -0.296938 204 51 127
-0.279864 0.374813 -0.328551 153 0 76
0.151064 0.542823 -0.369888 153 0 76
0.234877 -0.056485 -0.215277 153 0 76
0.267569 0.518639 -0.367358 153 0 76
-0.313290 -0.208271 0.572641 153 0 76
-0.179575 -0.208271 0.736971 153 0 76
-0.030735 -0.251016 0.341979 153 0 76
-0.508488 -0.251016 0.413122 153 0 76
-0.539270 -0.209019 0.449870 0 127 127
0.629336 0.052655 -0.237631 153 0 76
0.490688 -0.208271 0.664282 153 0 76
-0.136551 -0.180624 -0.205657 204 51 127
-0.039382 0.382263 -0.333660 153 0 76
-0.132814 -0.251016 0.643316 153 0 76
0.362188 -0.209019 0.113338 0 127 127
-0.374368 -0.209019 0.312730 0 127 127
0.363819 0.595781 -0.415147 204 51 127
0.656768 -0.229712 0.336479 153 0 76
0.068987 -0.241277 0.711089 153 0 76
0.064825 -0.003415 -0.253471 204 51 127
-0.212977 -0.209019 0.280663 0 127 127
-0.235462 -0.209019 0.367766 0 127 127
-0.299123 -0.251016 0.079541 153 0 76
-0.286549 0.617839 -0.418915 204 51 127
-0.302376 -0.251016 0.182281 153 0 76
-0.444659 0.178322 -0.278632 153 0 76
0.627998 -0.208271 0.678680 153 0 76
0.634851 0.552517 -0.372503 204 51 127
-0.583808 0.568707 -0.383966 204 51 127
0.320843 -0.152356 -0.213284 204 51 127
-0.033137 -0.208271 0.736502 153 0 76
0.102231 0.222432 -0.290534 153 0 76
-0.312951 -0.250881 -0.159099 153 0 76
-0.227948 0.079993 -0.245007 153 0 76
0.117766 -0.209019 0.451635 0 127 127
0.210943 -0.208271 0.477838 153 0 76
0.243181 0.144615 -0.266439 153 0 76
0.075232 -0.251016 0.521874 153 0 76
-0.334944 -0.189975 -0.127301 153 0 76
0.539029 -0.251016 0.649586 153 0 76
0.251136 -0.208271 -0.008893 153 0 76
0.275965 0.343962 -0.347201 204 51 127
0.241596 -0.126873 -0.191095 204 51 127
0.496698 0.031218 -0.262816 204 51 127
-0.214487 0.282757 -0.299717 153 0 76
0.594497 0.244104 -0.296382 153 0 76
-0.387090 -0.208271 0.068478 0 127 127
-0.030026 -0.251016 -0.058982 153 0 76
-0.143596 -0.251016 0.535868 153 0 76
0.094904 -0.251016 0.443031 153 0 76
-0.221269 0.552405 -0.403443 204 51 127
-0.260179 -0.061131 -0.206929 153 0 76
-0.618766 0.341090 -0.315456 204 51 127
-0.381697 -0.208271 0.444355 0 127 127
-0.014936 0.638065 -0.418548 204 51 127
0.018071 -0.223630 -0.174350 153 0 76
0.194251 -0.251016 0.257400 153 0 76
0.307613 -0.163360 -0.192514 127 0 127
-0.052807 0.419372 -0.367548 204 51 127
0.167720 0.210218 -0.311114 204 51 127
-0.243957 0.379265 -0.332851 153 0 76
-0.178959 0.663112 -0.402344 204 51 127
-0.515591 -0.251016 0.333071 153 0 76
0.031290 0.362240 -0.352132 204 51 127
-0.537397 -0.179613 -0.147618 153 0 76
0.581702 -0.208271 0.667297 153 0 76
0.449740 0.342583 -0.315859 153 0 76
0.664638 -0.232329 0.046963 153 0 76
0.223003 -0.208271 -0.040734 153 0 76
-0.158698 0.279405 -0.305907 153 0 76
0.284035 0.480609 -0.384071 204 51 127
0.104955 -0.226692 -0.097168 153 0 76
-0.174658 -0.208271 -0.006428 153 0 76
0.492915 -0.208271 0.713330 153 0 76
0.577256 -0.251016 0.232682 153 0 76
-0.016895 -0.209019 0.231424 0 127 127
-0.393708 0.429336 -0.343263 153 0 76
0.447023 -0.090943 -0.229854 204 51 127
0.031331 -0.042845 -0.211863 153 0 76
-0.337052 -0.251016 -0.108951 153 0 76
-0.427589 0.204251 -0.278534 153 0 76
0.226310 -0.209019 0.114222 0 127 127
-0.617841 -0.177686 -0.181574 153 0 76
0.062977 0.520302 -0.367807 153 0 76
-0.294203 -0.237637 -0.186518 153 0 76
-0.049941 0.265450 -0.326016 204 51 127
0.133723 -0.185174 -0.204429 127 0 127
0.646131 -0.065999 -0.236585 204 51 127
-0.510406 -0.175975 -0.177442 153 0 76
0.030888 0.019542 -0.235790 153 0 76
-0.556395 -0.086202 -0.204160 153 0 76
-0.289085 0.334379 -0.344615 204 51 127
-0.209492 -0.232272 0.743343 153 0 76
-0.376647 -0.045815 -0.215057 153 0 76
0.433789 0.194320 -0.306824 204 51 127
-0.410360 -0.208271 0.183770 0 127 127
0.406055 0.196046 -0.283415 153 0 76
-0.517370 0.238828 -0.294958 153 0 76
0.382566 0.663629 -0.402484 204 51 127
0.067428 -0.251016 0.494850 153 0 76
0.176378 -0.208271 -0.012179 153 0 76
0.103513 0.339931 -0.322238 153 0 76
0.150851 -0.251016 0.491045 153 0 76
0.345242 -0.251016 0.412768 153 0 76
0.585603 0.519236 -0.367520 153 0 76
0.050210 0.607854 -0.395920 0 0 255
0.078298 0.468854 -0.380899 204 51 127
0.176918 0.580025 -0.379926 204 51 127
-0.603744 -0.251016 -0.075061 153 0 76
0.489466 0.512162 -0.392584 204 51 127
0.308028 -0.208271 0.696210 153 0 76
0.343132 0.151629 -0.295305 204 51 127
0.527957 0.338227 -0.345653 204 51 127
0.398451 -0.058600 -0.211608 153 0 76
0.036190 0.222450 -0.290539 153 0 76
-0.139232 -0.082225 -0.208331 153 0 76
0.607516 -0.208271 0.513119 153 0 76
0.064816 0.365849 -0.329231 153 0 76
0.602531 -0.229254 0.410351 153 0 76
-0.247940 0.090744 -0.255002 153 0 76
-0.637957 -0.234550 0.554111 153 0 76
0.490203 0.610712 -0.418182 204 51 127
-0.309781 0.144672 -0.293428 204 51 127
0.038851 -0.248436 0.682971 153 0 76
-0.377574 0.385751 -0.327507 153 0 76
0.674099 0.644416 -0.403621 204 51 127
-0.087033 -0.251016 0.261723 153 0 76
0.102480 0.321723 -0.341200 204 51 127
0.610885 -0.208271 0.658034 153 0 76
-0.230323 -0.032078 -0.221862 153 0 76
0.348255 -0.028913 -0.222716 153 0 76
0.385565 -0.251016 -0.064332 153 0 76
-0.225224 -0.174115 -0.207413 204 51 127
0.206733 -0.251016 -0.053855 153 0 76
0.035282 -0.199662 -0.126365 127 0 127
0.618480 0.562217 -0.406090 204 51 127
0.500749 0.433334 -0.371315 204 51 127
-0.235589 0.016545 -0.231883 153 0 76
-0.490823 -0.229167 0.015881 153 0 76
-0.001100 -0.191018 -0.125025 153 0 76
0.652760 -0.208271 0.679330 153 0 76
-0.182234 -0.177646 -0.151722 153 0 76
0.618185 -0.148907 -0.214214 204 51 127
0.267875 0.577861 -0.410311 204 51 127
0.629678 -0.208271 0.075300 153 0 76
0.591269 0.033098 -0.236350 153 0 76
0.277533 0.455630 -0.377331 204 51 127
0.550276 -0.208271 0.730684 153 0 76
-0.564628 0.530236 -0.373586 153 0 76
-0.283244 -0.062970 -0.237402 204 51 127
0.037221 0.078169 -0.251609 153 0 76
0.283302 -0.251016 0.540291 153 0 76
0.619302 0.445677 -0.350770 153 0 76
0.369577 -0.057475 -0.215010 153 0 76
-0.442197 0.423546 -0.337704 153 0 76
-0.434610 -0.251016 0.027651 153 0 76
-0.217466 0.534601 -0.367669 153 0 76
-0.267069 -0.238808 0.462178 153 0 76
0.361907 -0.209019 0.440421 0 127 127
-0.357244 0.169680 -0.300176 204 51 127
0.059003 0.120164 -0.286815 204 51 127
0.519075 0.451822 -0.345334 153 0 76
0.602531 -0.222287 0.225639 153 0 76
-0.303110 -0.041881 -0.219217 153 0 76
-0.629611 0.177505 -0.271318 204 51 127
0.244004 -0.208271 0.185494 0 127 127
0.345984 -0.241417 0.015881 153 0 76
0.301811 0.159580 -0.297451 204 51 127
0.047201 -0.209019 0.186580 0 127 127
-0.140709 0.565244 -0.406907 204 51 127
-0.419017 -0.251016 0.478773 153 0 76
-0.078706 -0.191570 -0.123771 153 0 76
0.516239 -0.251016 0.605421 153 0 76
0.463278 -0.251016 0.595019 153 0 76
-0.081672 0.140184 -0.268342 153 0 76
-0.395043 -0.209019 0.044094 0 127 127
0.407095 -0.209019 0.108799 0 127 127
0.277607 -0.048822 -0.217344 153 0 76
-0.280371 0.592354 -0.414222 204 51 127
-0.637957 -0.249436 0.335527 153 0 76
-0.149904 0.454506 -0.377028 204 51 127
-0.016537 -0.251016 0.194107 153 0 76
0.535888 -0.251016 0.130884 153 0 76
-0.407855 -0.251016 0.378470 153 0 76
-0.342336 0.033435 -0.263414 204 51 127
0.445374 0.576550 -0.409958 204 51 127
0.602531 -0.230807 0.325115 153 0 76
0.041941 0.294458 -0.302874 153 0 76
0.370026 -0.251016 0.362531 153 0 76
0.573164 -0.251016 0.448874 153 0 76
-0.115989 -0.210107 0.543681 76 0 153
-0.496204 0.616945 -0.389887 204 51 127
-0.024225 0.309875 -0.307034 153 0 76
0.205237 -0.134923 -0.190977 127 0 127
0.155428 0.337221 -0.345382 204 51 127
-0.635974 0.128085 -0.257983 204 51 127
0.189163 -0.251016 0.398896 153 0 76
0.526629 -0.156937 -0.191899 204 51 127
0.104699 -0.209019 0.160211 0 127 127
-0.221273 -0.208271 0.629812 153 0 76
0.615022 0.480157 -0.352979 204 51 127
-0.081316 -0.251016 0.237591 153 0 76
0.495134 0.132602 -0.290171 204 51 127
-0.526121 0.472361 -0.381845 204 51 127
0.275559 -0.209019 0.156027 0 127 127
0.662830 -0.251016 -0.106776 153 0 76
-0.017427 -0.158816 -0.192060 204 51 127
-0.120201 0.366501 -0.353282 204 51 127
0.644729 -0.217471 0.027365 153 0 76
-0.384351 0.522225 -0.371424 153 0 76
-0.253012 -0.251016 -0.051137 153 0 76
-0.578684 0.466663 -0.380308 204 51 127
-0.616399 -0.251016 0.254169 153 0 76
0.166999 -0.191843 -0.129533 127 0 127
-0.109779 -0.208435 0.241292 0 127 127
0.148616 -0.251016 0.233637 153 0 76
-0.579798 -0.251016 0.221727 153 0 76
0.583724 0.560100 -0.378546 153 0 76
-0.008227 -0.251016 -0.148813 153 0 76
-0.380496 -0.015199 -0.219322 153 0 76
0.642536 0.108167 -0.283578 204 51 127
0.324515 -0.251016 0.023529 153 0 76
-0.229665 -0.251016 -0.004600 153 0 76
0.346085 -0.219112 -0.125258 153 0 76
0.252442 -0.251016 -0.085836 153 0 76
0.106921 -0.198994 -0.126556 127 0 127
-0.502124 0.328170 -0.315966 153 0 76
-0.311914 -0.208271 0.622263 153 0 76
0.167089 0.501256 -0.365766 153 0 76
-0.402490 -0.036649 -0.244504 204 51 127
0.257463 -0.251016 0.060919 153 0 76
0.048684 -0.251016 0.050466 153 0 76
0.285041 0.215350 -0.285525 153 0 76
0.454198 0.489385 -0.386439 204 51 127
-0.441475 -0.177562 -0.206483 204 51 127
0.321726 0.391584 -0.336175 153 0 76
0.332964 0.005089 -0.228792 153 0 76
-0.208939 0.341623 -0.322694 153 0 76
-0.494509 0.499969 -0.389295 204 51 127
0.598187 -0.206741 -0.036443 153 0 76
-0.367763 -0.251016 0.648040 153 0 76
-0.025589 -0.216418 0.462178 0 127 127
-0.114510 -0.051518 -0.240492 204 51 127
0.494471 0.191826 -0.306151 204 51 127
0.244897 -0.251016 0.649030 153 0 76
-0.176551 0.019333 -0.259609 204 51 127
0.419978 -0.225917 0.015881 153 0 76
0.172848 -0.251016 -0.053280 153 0 76
-0.488731 0.644161 -0.417720 204 51 127
0.053212 -0.209020 -0.187549 127 0 127
0.530370 -0.208271 0.690246 153 0 76
0.342553 -0.150803 -0.178207 127 0 127
-0.528766 -0.251016 0.533764 153 0 76
0.479058 0.632407 -0.419018 204 51 127
-0.121613 0.354405 -0.319049 153 0 76
-0.410029 0.583053 -0.411712 204 51 127
-0.264491 -0.208271 0.694062 153 0 76
0.385889 -0.251016 0.150195 153 0 76
-0.046908 0.096108 -0.256449 153 0 76
-0.418424 -0.250679 0.664759 153 0 76
0.056197 0.170127 -0.300296 204 51 127
0.656763 0.291502 -0.302076 204 51 127
-0.587620 -0.251016 0.432698 153 0 76
0.065868 0.493821 -0.387636 204 51 127
-0.401686 -0.005483 -0.252913 204 51 127
-0.140244 -0.210107 0.600622 76 0 153
0.023585 -0.208271 0.490174 153 0 76
0.494299 -0.169945 -0.193311 153 0 76
-0.264943 -0.208271 0.410795 0 127 127
0.107045 0.413851 -0.335089 153 0 76
0.366975 0.279716 -0.305990 153 0 76
-0.474058 0.004968 -0.231858 153 0 76
-0.183820 -0.098282 -0.200901 204 51 127
0.008444 -0.251016 0.624562 153 0 76
0.553957 -0.194006 -0.118054 153 0 76
-0.245971 -0.209019 0.174699 0 127 127
-0.423737 -0.003577 -0.226454 153 0 76
0.464379 0.386311 -0.358627 204 51 127
-0.393775 -0.251016 0.208310 153 0 76
0.014391 -0.251016 0.385714 153 0 76
0.623271 -0.208271 0.577719 153 0 76
-0.584158 -0.251016 0.257229 153 0 76
0.392209 0.045456 -0.266658 204 51 127
0.315844 -0.208271 0.144118 0 127 127
0.513271 0.284343 -0.331114 204 51 127
0.445015 0.381503 -0.333455 153 0 76
-0.029170 -0.251016 0.031855 153 0 76
-0.260862 0.515800 -0.366593 153 0 76
0.308869 0.259109 -0.300430 153 0 76
-0.548560 0.380057 -0.356940 204 51 127
-0.103908 0.211305 -0.311407 204 51 127
0.371409 -0.251016 0.225660 153 0 76
0.130661 0.311138 -0.307374 153 0 76
-0.272937 0.094685 -0.279941 204 51 127
-0.637957 0.225420 -0.296789 204 51 127
0.462778 -0.208271 0.526173 153 0 76
0.015231 0.495259 -0.388024 204 51 127
-0.506891 -0.209019 0.402750 0 127 127
0.630372 -0.223471 0.192898 153 0 76
-0.557171 -0.231128 0.299275 153 0 76
0.517879 -0.059692 -0.238286 204 51 127
-0.468784 0.222683 -0.287504 153 0 76
-0.539146 -0.251016 0.321381 153 0 76
0.290607 0.127024 -0.264791 153 0 76
-0.450196 0.073987 -0.274356 204 51 127
-0.611231 -0.249051 -0.166863 153 0 76
0.099786 -0.232479 0.015881 153 0 76
-0.220836 -0.209019 0.177007 0 127 127
-0.637957 -0.228492 0.146685 153 0 76
0.115796 0.093612 -0.248682 153 0 76
-0.023622 0.600897 -0.388233 204 51 127
0.272272 0.157637 -0.269953 153 0 76
0.618732 -0.232238 0.743462 153 0 76
-0.031583 0.516461 -0.366771 153 0 76
0.256301 -0.101871 -0.226906 204 51 127
0.172186 -0.051230 -0.216695 153 0 76
-0.257893 -0.251016 0.575644 153 0 76
-0.348177 0.410242 -0.341209 153 0 76
0.509987 -0.209019 0.152506 0 127 127
0.323889 -0.242625 0.706261 153 0 76
0.452398 0.142730 -0.292904 204 51 127
-0.440531 0.103819 -0.255432 153 0 76
-0.434159 0.040811 -0.265404 204 51 127
-0.065127 0.160396 -0.273796 153 0 76
0.032733 -0.251016 0.367528 153 0 76
0.371397 0.619105 -0.418995 204 51 127
-0.354919 -0.208271 0.639011 153 0 76
-0.323455 0.528859 -0.397090 204 51 127
-0.282854 0.288628 -0.308395 153 0 76
0.103633 -0.231655 0.745551 153 0 76
-0.445014 -0.251016 0.358150 153 0 76
-0.532709 -0.208271 0.331733 0 127 127
-0.395500 0.134363 -0.259677 153 0 76
-0.622318 -0.208271 0.104742 153 0 76
-0.609251 -0.208271 0.386889 153 0 76
-0.307862 -0.209019 0.369929 0 127 127
0.353065 -0.251016 0.280130 153 0 76
-0.238406 -0.208271 0.451682 0 127 127
-0.171267 -0.070505 -0.208396 153 0 76
-0.524434 0.393211 -0.333516 153 0 76
0.379211 -0.208271 0.653135 153 0 76
0.277491 0.368536 -0.322861 153 0 76
-0.583879 0.259231 -0.324338 204 51 127
-0.234270 0.355032 -0.326312 153 0 76
0.038104 -0.087356 -0.230822 204 51 127
0.086987 -0.208271 0.678268 153 76 0
-0.541121 -0.251016 0.264690 153 0 76
-0.361770 -0.238798 0.719968 153 0 76
0.028870 -0.251016 0.339245 153 0 76
0.390483 0.325723 -0.318404 153 0 76
0.271222 -0.208271 0.497901 153 0 76
-0.172130 -0.251016 0.607856 153 0 76
0.046279 -0.208271 0.681097 153 0 76
-0.326993 0.521442 -0.364119 153 0 76
0.222082 0.140756 -0.292371 204 51 127
0.504570 -0.251016 0.069511 153 0 76
-0.095289 0.635123 -0.394792 204 51 127
0.113931 -0.247957 0.685440 153 0 76
-0.349033 0.070781 -0.242521 153 0 76
0.473417 -0.179424 -0.147955 153 0 76
0.477583 0.092517 -0.255480 153 0 76
0.377888 -0.240706 0.713134 153 0 76
-0.113355 0.032408 -0.232167 153 0 76
-0.010635 -0.205488 -0.200513 153 0 76
0.598240 -0.208271 0.535989 153 0 76
0.537579 0.002859 -0.255164 204 51 127
0.003112 -0.210107 0.537564 76 0 153
0.676757 -0.193838 -0.146357 153 0 76
-0.231775 0.621313 -0.391066 204 51 127
0.488825 -0.251016 0.498391 153 0 76
-0.112551 -0.209019 0.039155 0 127 127
-0.357577 -0.208271 0.188839 0 127 127
-0.107937 0.479088 -0.352691 153 0 76
0.228023 0.047264 -0.236176 153 0 76
-0.097955 -0.078400 -0.206265 204 51 127
0.506413 -0.207332 -0.075468 153 0 76
0.646626 -0.208271 0.420447 153 0 76
0.032689 -0.208271 0.218208 0 127 127
0.173103 -0.223317 0.752755 153 0 76
0.561532 0.663586 -0.412733 204 51 127
-0.498548 0.451962 -0.376341 204 51 127
-0.156406 -0.213626 0.752755 153 0 76
0.348194 0.266338 -0.326256 204 51 127
0.189873 -0.208271 0.638267 153 0 76
-0.266996 -0.030056 -0.246283 204 51 127
0.497707 0.642529 -0.396790 204 51 127
0.348962 0.356613 -0.350614 204 51 127
-0.311219 0.198927 -0.308067 204 51 127
-0.239295 0.268551 -0.299880 153 0 76
0.290322 -0.208271 0.188438 0 127 127
0.469043 0.506531 -0.360095 153 0 76
0.347649 -0.208271 0.619310 153 0 76
0.434006 -0.251016 -0.017243 153 0 76
0.182676 -0.251016 0.174094 153 0 76
0.500756 -0.251016 0.225945 153 0 76
-0.021796 -0.209019 0.018410 0 127 127
0.346563 -0.192362 -0.121913 153 0 76
-0.466005 -0.208271 0.000692 153 0 76
0.389689 0.120666 -0.263076 153 0 76
0.381225 -0.004603 -0.226177 153 0 76
0.110475 0.457611 -0.350892 153 0 76
-0.562373 0.418990 -0.336475 153 0 76
0.396513 -0.251016 -0.016755 153 0 76
-0.440541 -0.251016 0.203998 153 0 76
0.403089 -0.209019 0.340305 0 127 127
0.545754 -0.251016 0.081488 153 0 76
-0.484378 -0.038308 -0.244056 204 51 127
0.199900 0.380282 -0.333125 153 0 76
0.254170 -0.158586 -0.192040 204 51 127
-0.637957 0.614934 -0.414008 204 51 127
0.062329 -0.234562 -0.108277 153 0 76
-0.414027 0.481328 -0.384265 204 51 127
-0.034819 0.617068 -0.418866 204 51 127
0.045726 -0.219611 -0.087171 153 0 76
0.492160 -0.049460 -0.241047 204 51 127
0.329232 -0.251016 0.292542 153 0 76
0.000516 0.268283 -0.302906 153 0 76
0.467029 0.148891 -0.270691 153 0 76
-0.184365 0.494079 -0.360732 153 0 76
0.552857 0.119743 -0.262827 153 0 76
0.184928 -0.251016 0.123948 153 0 76
0.648394 -0.208271 0.457079 153 0 76
0.134965 -0.210107 0.614911 76 0 153
0.029719 -0.172972 -0.193735 204 51 127
0.548747 0.494485 -0.356845 153 0 76
-0.327244 -0.156697 -0.191878 204 51 127
-0.569764 -0.251016 -0.036828 153 0 76
-0.189428 0.157937 -0.270034 153 0 76
0.598485 -0.208271 0.737798 153 0 76
0.430384 -0.023201 -0.224257 153 0 76
-0.029160 -0.207150 0.657843 76 0 153
0.347375 -0.208271 0.582328 153 0 76
-0.448385 0.323730 -0.317866 153 0 76
0.674099 -0.229711 0.728806 153 0 76
0.325934 -0.202437 -0.187085 127 0 127
0.265690 -0.230996 0.462178 153 0 76
-0.578728 0.526747 -0.396520 204 51 127
0.311124 -0.251016 0.575750 153 0 76
-0.065921 -0.207150 0.653590 76 0 153
-0.180681 -0.209019 0.150205 0 127 127
0.019825 0.306928 -0.313333 153 0 76
0.192598 -0.251016 0.614669 153 0 76
-0.200768 -0.209019 0.328667 0 127 127
0.266543 -0.251016 -0.009042 153 0 76
-0.079148 -0.251016 0.316636 153 0 76
-0.451272 -0.251016 0.569993 153 0 76
0.106937 -0.064594 -0.236964 204 51 127
-0.454536 -0.142241 -0.191079 204 51 127
-0.171009 0.142007 -0.292709 204 51 127
0.400313 -0.251016 0.507599 153 0 76
0.613362 -0.251016 0.104438 153 0 76
0.352100 0.456785 -0.350669 153 0 76
-0.163728 0.604043 -0.417074 204 51 127
0.596032 -0.013188 -0.226959 153 0 76
-0.456634 0.002497 -0.255066 204 51 127
0.296865 0.351778 -0.322336 153 0 76
0.314302 0.435664 -0.348068 153 0 76
0.597393 0.339618 -0.319055 153 0 76
0.329156 -0.208271 0.401910 0 127 127
-0.208622 -0.157826 -0.191975 204 51 127
-0.637957 -0.215527 -0.122604 153 0 76
0.260208 -0.251016 0.223486 153 0 76
0.452559 -0.251016 0.055640 153 0 76
0.461676 -0.208271 0.602377 153 0 76
0.337541 0.243282 -0.293061 153 0 76
0.241906 0.625872 -0.419203 204 51 127
0.359983 -0.208271 0.731211 153 0 76
-0.292944 -0.251016 0.012088 153 0 76
-0.011821 0.408810 -0.340823 153 0 76
0.474250 -0.221484 0.752755 153 0 76
0.446717 -0.251016 0.228597 153 0 76
0.189900 0.254003 -0.299053 153 0 76
-0.095825 0.519842 -0.370781 153 0 76
-0.232793 0.147364 -0.294154 204 51 127
0.380897 0.488871 -0.362425 153 0 76
0.649716 0.507899 -0.360465 204 51 127
-0.082501 0.491329 -0.355994 153 0 76
-0.105399 0.193974 -0.279757 153 0 76
-0.458637 0.300724 -0.335534 204 51 127
0.659654 0.621063 -0.390999 204 51 127
-0.515153 -0.249457 0.676634 153 0 76
0.619817 0.516729 -0.393817 204 51 127
-0.055242 -0.251016 0.382201 153 0 76
0.203329 -0.251016 0.638707 153 0 76
-0.137401 -0.209019 0.086235 0 127 127
0.323625 0.509558 -0.364908 153 0 76
0.198418 0.589530 -0.413460 204 51 127
0.440241 -0.251016 0.481778 153 0 76
0.063651 0.424484 -0.368927 204 51 127
0.397356 0.290303 -0.305749 153 0 76
0.375366 -0.208271 -0.033947 153 0 76
-0.403799 -0.208271 0.568208 153 0 76
0.477390 -0.209019 0.363218 0 127 127
0.108702 -0.208271 0.358975 0 127 127
-0.248034 0.451433 -0.352323 153 0 76
-0.162552 -0.251016 0.063219 153 0 76
-0.021189 -0.182077 -0.195210 153 0 76
-0.372984 -0.251016 0.099653 153 0 76
0.010633 -0.208271 0.154545 0 127 127
0.674099 0.432705 -0.369994 204 51 127
-0.290023 0.234178 -0.317579 204 51 127
0.566701 -0.076396 -0.206806 153 0 76
-0.106073 0.442373 -0.373754 204 51 127
-0.504327 -0.209019 0.120823 0 127 127
0.510793 -0.194986 -0.115570 153 0 76
0.366641 0.256710 -0.299783 153 0 76
-0.028854 -0.246759 0.690951 153 0 76
-0.637957 -0.126338 -0.194140 204 51 127
-0.584745 0.013950 -0.231183 153 0 76
-0.124765 -0.251016 0.551479 153 0 76
0.536609 0.303990 -0.312540 153 0 76
-0.621508 -0.208271 0.524092 153 0 76
0.674099 0.102556 -0.261233 204 51 127
0.082704 -0.209019 0.324672 0 127 127
0.466929 0.037593 -0.233566 153 0 76
-0.401701 -0.251016 0.066066 153 0 76
0.674099 0.465278 -0.367557 204 51 127
-0.165255 0.207192 -0.310297 204 51 127
0.022657 0.421463 -0.341138 153 0 76
0.674099 0.539582 -0.374162 204 51 127
-0.145513 0.029507 -0.262354 204 51 127
-0.424279 0.216432 -0.312790 204 51 127
0.066188 -0.251016 0.233540 153 0 76
0.674099 -0.231255 0.637480 153 0 76
-0.497176 -0.189235 -0.128916 153 0 76
-0.036124 0.632996 -0.396894 0 0 255
-0.446816 -0.251016 0.135908 153 0 76
-0.151220 -0.052465 -0.240236 204 51 127
-0.244593 -0.208271 0.745011 153 0 76
0.552883 0.043177 -0.239069 153 0 76
-0.614857 0.415784 -0.335610 204 51 127
-0.333104 0.668798 -0.403878 204 51 127
-0.452958 0.399916 -0.338423 153 0 76
-0.012684 0.090277 -0.254876 153 0 76
-0.090373 -0.251016 0.038064 153 0 76
-0.584868 0.339587 -0.346020 204 51 127
0.436118 -0.208271 0.553513 153 0 76
0.082973 -0.208271 -0.036698 153 0 76
0.463773 -0.209019 0.044719 0 127 127
0.654063 -0.228812 -0.015564 153 0 76
-0.279651 0.154751 -0.296148 204 51 127
-0.107384 -0.176738 -0.206705 153 0 76
-0.533527 -0.208271 0.002467 153 0 76
-0.313694 0.044500 -0.242524 153 0 76
-0.416991 -0.162858 -0.210450 204 51 127
-0.424936 0.078611 -0.275604 204 51 127
0.026331 -0.209019 0.252833 0 127 127
-0.547545 0.207909 -0.283517 153 0 76
-0.349949 -0.184785 -0.204534 204 51 127
0.218541 -0.251016 -0.020995 153 0 76
-0.058754 -0.210107 0.536206 76 0 153
0.518238 0.047655 -0.243376 153 0 76
-0.280019 0.142565 -0.265886 153 0 76
-0.491516 -0.251016 0.597382 153 0 76
0.650944 -0.227775 0.279013 153 0 76
-0.573765 -0.208271 0.427222 153 0 76
-0.637957 0.412789 -0.345995 204 51 127
0.357101 -0.208271 0.006017 0 127 127
-0.082380 -0.251016 0.128977 153 0 76
0.320815 -0.251016 0.364511 153 0 76
0.452975 -0.099002 -0.196710 204 51 127
0.185383 -0.184854 -0.204515 204 51 127
0.406125 0.489486 -0.386466 204 51 127
-0.055454 -0.251016 0.243580 153 0 76
0.588545 -0.208271 0.580105 153 0 76
-0.482961 0.262745 -0.301411 153 0 76
-0.577337 -0.208271 0.530328 153 0 76
0.396318 0.630921 -0.419094 204 51 127
-0.381157 -0.251016 0.375406 153 0 76
-0.193006 -0.233877 0.462178 153 0 76
0.377577 0.415524 -0.342634 153 0 76
0.500468 0.259822 -0.324498 204 51 127
-0.393033 0.547065 -0.378127 153 0 76
-0.084370 -0.178271 -0.182987 153 0 76
