0.075031 0.015892 0.629972 0.000000 0.500000 0.500000
-0.140958 -0.721143 -0.005117 0.600000 0.300000 0.000000
0.029191 -0.417196 -0.388016 0.600000 0.000000 0.300000
0.039728 -0.222820 -0.325814 0.600000 0.300000 0.000000
0.072647 -0.014554 0.803206 0.300000 0.600000 0.000000
0.056826 -0.240852 -0.319052 0.600000 0.300000 0.000000
0.170268 -0.262090 -0.119593 0.600000 0.300000 0.000000
0.008347 0.709006 -0.193948 0.000000 1.000000 0.000000
0.144954 -0.359560 -0.050361 0.600000 0.300000 0.000000
0.172042 -0.645340 -0.166260 0.600000 0.300000 0.000000
0.047981 -0.643858 -0.316991 0.600000 0.300000 0.000000
0.067579 -0.732867 -0.177030 0.300000 0.000000 0.600000
-0.106026 -0.690544 -0.317865 0.600000 0.300000 0.000000
-0.022177 0.817378 -0.027020 0.000000 1.000000 0.000000
-0.124874 -0.732867 -0.059227 0.300000 0.000000 0.600000
-0.042090 -0.481358 -0.321284 0.600000 0.300000 0.000000
-0.040900 0.799376 0.274503 0.000000 1.000000 0.000000
0.044772 -0.024252 0.320206 0.000000 0.500000 0.500000
-0.081488 0.547606 -0.206866 0.000000 1.000000 0.000000
0.031026 0.113428 0.323293 0.000000 0.500000 0.500000
-0.006980 0.494488 0.030042 0.000000 1.000000 0.000000
0.137523 -0.411542 -0.039230 0.600000 0.300000 0.000000
-0.032519 -0.423978 -0.382684 0.600000 0.000000 0.300000
-0.039123 -0.027433 0.503262 0.000000 0.500000 0.500000
-0.042761 0.232192 0.015433 0.600000 0.300000 0.000000
-0.029983 0.812220 0.211075 0.000000 1.000000 0.000000
-0.016291 -0.036080 0.308678 0.000000 0.500000 0.500000
0.017244 -0.149118 0.858231 0.300000 0.600000 0.000000
0.010125 0.821668 0.160432 0.000000 1.000000 0.000000
0.053709 -0.096885 0.015918 0.600000 0.300000 0.000000
0.076344 0.021243 0.408369 0.000000 0.500000 0.500000
0.119576 -0.280744 -0.287145 0.600000 0.300000 0.000000
-0.012074 -0.732867 -0.028643 0.300000 0.000000 0.600000
0.050739 -0.051689 0.793129 0.000000 0.500000 0.500000
-0.065697 0.381435 -0.023950 0.600000 0.300000 0.000000
0.066400 -0.732867 0.020769 0.300000 0.000000 0.600000
0.007849 -0.405827 -0.396006 0.600000 0.000000 0.300000
0.101916 -0.719885 0.016382 0.600000 0.300000 0.000000
0.002128 0.218806 0.026006 0.600000 0.300000 0.000000
-0.132661 -0.158296 -0.039808 0.600000 0.300000 0.000000
0.000068 0.544119 -0.324549 0.000000 1.000000 0.000000
0.067199 -0.000204 0.572194 0.000000 0.500000 0.500000
0.020281 0.521472 0.027479 0.000000 1.000000 0.000000
0.169984 -0.311983 -0.099847 0.600000 0.300000 0.000000
0.025523 -0.445717 -0.458506 0.600000 0.000000 0.300000
0.178476 -0.553069 -0.159981 0.600000 0.300000 0.000000
0.175243 -0.674723 -0.225850 0.600000 0.300000 0.000000
0.211038 -0.719891 -0.088667 0.300000 0.000000 0.600000
-0.056250 -0.583194 0.016581 0.600000 0.300000 0.000000
0.066403 0.084451 0.420722 0.000000 0.500000 0.500000
-0.010252 0.560947 -0.217872 0.000000 1.000000 0.000000
0.033724 -0.729136 -0.192227 0.600000 0.300000 0.000000
-0.119326 0.105229 -0.286996 0.600000 0.300000 0.000000
0.172205 -0.603016 -0.175615 0.600000 0.300000 0.000000
-0.172932 0.257996 -0.168697 0.600000 0.300000 0.000000
-0.012123 -0.046735 0.974684 0.300000 0.600000 0.000000
0.113072 0.258261 -0.016684 0.600000 0.300000 0.000000
-0.047257 0.596902 -0.159139 0.000000 1.000000 0.000000
-0.034188 0.740756 0.302453 0.000000 1.000000 0.000000
-0.193363 -0.678778 -0.151471 0.300000 0.000000 0.600000
0.173513 -0.505776 -0.138315 0.600000 0.300000 0.000000
-0.018095 0.055049 0.879387 0.300000 0.600000 0.000000
-0.080352 -0.284586 -0.308957 0.600000 0.300000 0.000000
-0.175337 -0.038212 -0.178382 0.600000 0.300000 0.000000
-0.037351 -0.028606 0.067603 0.000000 0.500000 0.500000
-0.148951 -0.359370 -0.242734 0.600000 0.300000 0.000000
0.027384 0.547906 -0.241002 0.000000 1.000000 0.000000
-0.141356 0.450223 -0.166273 0.600000 0.300000 0.000000
0.021946 -0.671629 0.032210 0.300000 0.000000 0.600000
-0.068647 0.079222 0.549841 0.000000 0.500000 0.500000
0.109189 0.545005 -0.044399 0.000000 1.000000 0.000000
-0.004172 -0.229437 0.021278 0.600000 0.300000 0.000000
-0.132689 0.501620 -0.026533 0.000000 1.000000 0.000000
-0.079755 0.240393 0.004540 0.600000 0.300000 0.000000
0.112545 -0.263280 -0.020554 0.600000 0.300000 0.000000
-0.129654 0.280786 -0.276311 0.600000 0.300000 0.000000
-0.036712 0.111022 0.575431 0.000000 0.500000 0.500000
-0.170506 -0.361368 -0.202450 0.600000 0.300000 0.000000
0.021749 0.116809 0.408690 0.000000 0.500000 0.500000
0.073983 0.069433 0.554770 0.000000 0.500000 0.500000
-0.152636 0.052988 -0.069386 0.600000 0.300000 0.000000
-0.176798 0.044605 -0.171025 0.600000 0.300000 0.000000
0.015234 -0.042053 0.728377 0.000000 0.500000 0.500000
-0.169549 -0.248677 -0.098400 0.600000 0.300000 0.000000
-0.072603 0.555995 -0.137652 0.000000 1.000000 0.000000
-0.039489 0.544351 0.006674 0.000000 1.000000 0.000000
0.013644 0.118636 0.577288 0.000000 0.500000 0.500000
0.005664 -0.259818 -0.327622 0.600000 0.300000 0.000000
0.136717 -0.277277 -0.039228 0.600000 0.300000 0.000000
-0.178561 -0.232661 -0.153519 0.600000 0.300000 0.000000
0.151896 -0.231238 -0.062084 0.600000 0.300000 0.000000
-0.047884 0.828964 0.402687 0.000000 1.000000 0.000000
-0.220216 -0.726408 -0.156441 0.300000 0.000000 0.600000
0.029833 -0.450974 0.018089 0.600000 0.300000 0.000000
0.153505 0.425895 -0.216404 0.000000 1.000000 0.000000
0.004549 -0.049444 0.748019 0.000000 0.500000 0.500000
0.022752 -0.084640 1.000024 0.300000 0.600000 0.000000
-0.013713 0.455861 -0.013208 0.600000 0.300000 0.000000
-0.089419 -0.629698 -0.300797 0.600000 0.300000 0.000000
-0.062196 0.408331 -0.276346 0.600000 0.300000 0.000000
-0.069199 0.004557 0.559816 0.000000 0.500000 0.500000
0.174128 0.133991 -0.149497 0.600000 0.300000 0.000000
-0.158049 0.257950 -0.079752 0.600000 0.300000 0.000000
-0.058958 0.093877 0.276890 0.000000 0.500000 0.500000
-0.170528 0.258869 -0.122997 0.600000 0.300000 0.000000
0.067677 0.080619 0.170286 0.000000 0.500000 0.500000
0.145413 0.225783 -0.052128 0.600000 0.300000 0.000000
-0.049500 0.101096 0.695735 0.000000 0.500000 0.500000
-0.171229 0.422202 -0.205000 0.000000 1.000000 0.000000
0.167730 -0.493945 -0.090093 0.600000 0.300000 0.000000
0.077113 0.023403 0.525988 0.000000 0.500000 0.500000
0.018225 0.729996 0.139501 0.000000 1.000000 0.000000
0.173519 0.336345 -0.119692 0.600000 0.300000 0.000000
-0.156364 -0.086554 -0.237200 0.600000 0.300000 0.000000
-0.119949 0.368767 -0.269854 0.600000 0.300000 0.000000
-0.068850 0.382845 -0.277847 0.600000 0.300000 0.000000
-0.119172 -0.326427 -0.280327 0.600000 0.300000 0.000000
-0.039436 0.801524 0.150764 0.000000 1.000000 0.000000
-0.088893 -0.112830 -0.305547 0.600000 0.300000 0.000000
0.048328 0.103403 0.169071 0.000000 0.500000 0.500000
-0.002405 0.272768 0.025963 0.600000 0.300000 0.000000
-0.129688 0.545743 -0.109655 0.000000 1.000000 0.000000
-0.093967 0.395280 -0.049049 0.000000 1.000000 0.000000
-0.122631 0.434697 -0.088755 0.600000 0.300000 0.000000
0.032548 0.545956 -0.024987 0.000000 1.000000 0.000000
0.023288 0.074447 -0.325142 0.600000 0.300000 0.000000
-0.174894 -0.658693 -0.111687 0.600000 0.300000 0.000000
0.047058 -0.542061 -0.323984 0.600000 0.300000 0.000000
-0.099882 0.002013 -0.297898 0.600000 0.300000 0.000000
0.139103 0.416247 -0.150982 0.600000 0.300000 0.000000
-0.167930 -0.683106 -0.240495 0.600000 0.300000 0.000000
0.170850 -0.535479 -0.103790 0.600000 0.300000 0.000000
-0.015706 0.729593 0.157719 0.000000 1.000000 0.000000
0.104436 0.296818 -0.292046 0.600000 0.300000 0.000000
-0.016313 0.396816 0.025758 0.000000 1.000000 0.000000
0.107128 0.547018 -0.178825 0.000000 1.000000 0.000000
-0.170852 0.442136 -0.087146 0.000000 1.000000 0.000000
0.164774 0.341327 -0.084216 0.600000 0.300000 0.000000
0.082178 -0.485985 -0.307309 0.600000 0.300000 0.000000
-0.075285 0.236142 -0.316519 0.600000 0.300000 0.000000
0.034364 0.809578 0.137583 0.000000 1.000000 0.000000
0.096653 0.143650 -0.010839 0.600000 0.300000 0.000000
0.134469 0.436181 -0.237333 0.000000 1.000000 0.000000
-0.125459 -0.068761 -0.274420 0.600000 0.300000 0.000000
0.069413 -0.257930 -0.315191 0.600000 0.300000 0.000000
-0.158355 -0.064178 -0.080491 0.600000 0.300000 0.000000
-0.075468 0.505130 0.013963 0.000000 1.000000 0.000000
-0.103073 -0.552503 -0.291883 0.600000 0.300000 0.000000
-0.175947 0.189696 -0.130060 0.600000 0.300000 0.000000
0.038069 -0.099605 0.831343 0.300000 0.600000 0.000000
-0.163977 0.229891 -0.210976 0.600000 0.300000 0.000000
0.106484 0.426272 -0.217189 0.000000 1.000000 0.000000
0.075970 0.063740 0.505723 0.000000 0.500000 0.500000
-0.017925 0.820018 0.059685 0.000000 1.000000 0.000000
0.033042 -0.654274 0.014379 0.600000 0.300000 0.000000
-0.169686 0.496326 -0.081904 0.000000 1.000000 0.000000
-0.073673 -0.008426 0.799914 0.000000 0.500000 0.500000
0.160972 -0.354246 -0.085825 0.600000 0.300000 0.000000
-0.144918 0.425511 -0.215602 0.000000 1.000000 0.000000
-0.030285 0.444430 -0.253919 0.000000 1.000000 0.000000
0.067027 0.081857 0.333079 0.000000 0.500000 0.500000
-0.169409 -0.058953 -0.207739 0.600000 0.300000 0.000000
0.079005 0.046182 0.544111 0.000000 0.500000 0.500000
-0.055573 0.097188 0.347427 0.000000 0.500000 0.500000
-0.071803 0.010271 0.302307 0.000000 0.500000 0.500000
0.142230 0.296150 -0.053498 0.600000 0.300000 0.000000
0.022316 0.787300 0.431780 0.000000 1.000000 0.000000
0.099124 0.546497 -0.221490 0.000000 1.000000 0.000000
-0.049892 0.273473 0.017601 0.600000 0.300000 0.000000
-0.143297 0.091441 -0.053906 0.600000 0.300000 0.000000
-0.189599 -0.701014 -0.042922 0.300000 0.000000 0.600000
0.000856 0.458029 -0.302608 0.000000 1.000000 0.000000
0.051216 -0.375473 0.013418 0.600000 0.300000 0.000000
-0.062735 -0.007545 0.697263 0.000000 0.500000 0.500000
0.073416 -0.638288 -0.315788 0.600000 0.300000 0.000000
-0.046989 0.781787 0.007935 0.000000 1.000000 0.000000
0.081596 0.404060 -0.264429 0.600000 0.300000 0.000000
0.096552 -0.031110 -0.010783 0.600000 0.300000 0.000000
0.013433 0.598172 -0.198689 0.000000 1.000000 0.000000
0.027121 -0.108812 0.018582 0.600000 0.300000 0.000000
-0.163112 0.117161 -0.080162 0.600000 0.300000 0.000000
-0.037422 0.590268 -0.122828 0.000000 1.000000 0.000000
-0.029597 0.395280 -0.108401 0.000000 1.000000 0.000000
0.094636 -0.185123 -0.302236 0.600000 0.300000 0.000000
0.035014 -0.107673 1.010061 0.300000 0.600000 0.000000
-0.065711 0.084648 0.209206 0.000000 0.500000 0.500000
-0.117610 -0.407326 -0.024135 0.600000 0.300000 0.000000
-0.156693 0.451480 -0.242739 0.000000 1.000000 0.000000
-0.157336 -0.517916 -0.076747 0.600000 0.300000 0.000000
0.047746 0.771204 0.250369 0.000000 1.000000 0.000000
-0.083188 0.395280 -0.002163 0.000000 1.000000 0.000000
-0.013703 -0.271700 -0.327095 0.600000 0.300000 0.000000
-0.125245 0.330099 -0.024911 0.600000 0.300000 0.000000
0.169901 -0.470950 -0.098181 0.600000 0.300000 0.000000
-0.046499 0.783986 -0.041479 0.000000 1.000000 0.000000
-0.006521 -0.689556 0.058815 0.300000 0.000000 0.600000
-0.080996 -0.320998 -0.001139 0.600000 0.300000 0.000000
-0.122256 -0.728804 -0.102249 0.600000 0.300000 0.000000
0.037162 0.807186 0.337877 0.000000 1.000000 0.000000
-0.105552 0.163097 -0.292980 0.600000 0.300000 0.000000
0.135510 0.230460 -0.261679 0.600000 0.300000 0.000000
0.117810 0.208035 -0.024439 0.600000 0.300000 0.000000
-0.149498 0.470740 -0.051691 0.000000 1.000000 0.000000
-0.034833 0.247668 -0.322750 0.600000 0.300000 0.000000
-0.094721 -0.674942 -0.302806 0.600000 0.300000 0.000000
0.086100 0.449254 0.007138 0.000000 1.000000 0.000000
0.108432 0.359306 -0.012522 0.600000 0.300000 0.000000
-0.091408 0.145182 -0.003382 0.600000 0.300000 0.000000
0.087054 -0.723934 0.050866 0.300000 0.000000 0.600000
-0.036128 0.806373 -0.008842 0.000000 1.000000 0.000000
-0.068355 0.079760 0.122583 0.000000 0.500000 0.500000
0.024920 0.546697 -0.266453 0.000000 1.000000 0.000000
0.086023 0.007349 0.003921 0.600000 0.300000 0.000000
-0.074221 -0.061236 0.916161 0.300000 0.600000 0.000000
-0.177894 -0.426033 -0.161983 0.600000 0.300000 0.000000
-0.035694 -0.732867 0.035455 0.300000 0.000000 0.600000
0.038839 0.747188 0.193185 0.000000 1.000000 0.000000
-0.066128 0.075148 -0.321435 0.600000 0.300000 0.000000
0.110474 -0.098168 -0.019255 0.600000 0.300000 0.000000
-0.048314 0.774942 0.069802 0.000000 1.000000 0.000000
0.158333 -0.651174 -0.237006 0.600000 0.300000 0.000000
0.005479 0.119177 0.475150 0.000000 0.500000 0.500000
-0.131966 -0.028420 -0.038770 0.600000 0.300000 0.000000
0.027130 0.395280 -0.022333 0.000000 1.000000 0.000000
0.171090 -0.404060 -0.123845 0.600000 0.300000 0.000000
-0.032750 0.117614 0.040066 0.000000 0.500000 0.500000
0.161074 -0.259539 -0.076954 0.600000 0.300000 0.000000
-0.117345 0.402473 -0.167597 0.000000 1.000000 0.000000
-0.105842 -0.604223 -0.294871 0.600000 0.300000 0.000000
-0.070935 -0.147008 0.003781 0.600000 0.300000 0.000000
-0.116541 0.362921 -0.029775 0.600000 0.300000 0.000000
-0.029348 -0.419233 -0.421872 0.600000 0.000000 0.300000
0.012091 -0.554394 -0.326348 0.600000 0.300000 0.000000
-0.028495 -0.317149 -0.324577 0.600000 0.300000 0.000000
0.064736 -0.732867 -0.295032 0.300000 0.000000 0.600000
0.051771 -0.019017 0.236485 0.000000 0.500000 0.500000
-0.124730 -0.359671 -0.275114 0.600000 0.300000 0.000000
0.034445 0.112031 0.276511 0.000000 0.500000 0.500000
-0.044702 0.756532 -0.015664 0.000000 1.000000 0.000000
0.012852 -0.182002 0.880974 0.300000 0.600000 0.000000
-0.057274 -0.013247 0.074982 0.000000 0.500000 0.500000
-0.074566 0.016315 0.248996 0.000000 0.500000 0.500000
-0.018645 -0.476892 -0.312848 0.600000 0.000000 0.300000
-0.007658 0.410909 -0.185176 0.000000 1.000000 0.000000
-0.072563 0.057478 0.762570 0.000000 0.500000 0.500000
-0.080558 -0.252875 -0.314155 0.600000 0.300000 0.000000
0.042199 -0.132126 0.858689 0.300000 0.600000 0.000000
-0.163851 -0.335027 -0.092254 0.600000 0.300000 0.000000
-0.014987 0.223971 -0.326386 0.600000 0.300000 0.000000
0.111167 -0.643419 -0.291679 0.600000 0.300000 0.000000
0.139866 0.131242 -0.049960 0.600000 0.300000 0.000000
0.069873 0.004711 0.178042 0.000000 0.500000 0.500000
0.059705 -0.011535 0.608246 0.000000 0.500000 0.500000
0.179264 -0.726917 -0.080346 0.600000 0.300000 0.000000
-0.044866 0.056780 0.853309 0.300000 0.600000 0.000000
-0.126833 0.511854 -0.284710 0.000000 1.000000 0.000000
-0.017699 -0.028688 0.960083 0.300000 0.600000 0.000000
0.105697 -0.601767 -0.015279 0.600000 0.300000 0.000000
-0.102294 0.053306 -0.008348 0.600000 0.300000 0.000000
-0.035796 -0.042217 0.752268 0.000000 0.500000 0.500000
0.140806 0.358112 -0.259141 0.600000 0.300000 0.000000
-0.139347 -0.654601 -0.249380 0.600000 0.300000 0.000000
-0.178197 -0.704458 -0.279144 0.300000 0.000000 0.600000
-0.020124 -0.728804 -0.103200 0.600000 0.300000 0.000000
0.093871 0.493597 0.001945 0.000000 1.000000 0.000000
0.141162 0.382666 -0.129025 0.600000 0.300000 0.000000
-0.141253 -0.688873 -0.308397 0.300000 0.000000 0.600000
-0.024414 0.734150 0.177654 0.000000 1.000000 0.000000
0.110105 0.466557 -0.008902 0.000000 1.000000 0.000000
0.023135 -0.732867 -0.304895 0.300000 0.000000 0.600000
-0.051677 -0.732867 -0.170494 0.300000 0.000000 0.600000
-0.061264 0.294981 -0.316422 0.600000 0.300000 0.000000
-0.172889 -0.457597 -0.190688 0.600000 0.300000 0.000000
-0.010368 0.395280 -0.142108 0.000000 1.000000 0.000000
-0.137336 -0.089840 -0.046798 0.600000 0.300000 0.000000
-0.022228 0.411499 -0.010821 0.600000 0.300000 0.000000
-0.102856 0.546870 -0.103507 0.000000 1.000000 0.000000
-0.000447 0.847411 0.394089 0.000000 1.000000 0.000000
0.010707 -0.081073 -0.330861 0.600000 0.300000 0.000000
0.004654 0.475061 -0.335807 0.000000 1.000000 0.000000
-0.110440 0.401680 -0.248268 0.600000 0.300000 0.000000
0.065581 0.018120 -0.321831 0.600000 0.300000 0.000000
0.094369 -0.291672 -0.306328 0.600000 0.300000 0.000000
-0.009885 0.296235 0.025451 0.600000 0.300000 0.000000
0.112725 0.545066 -0.253302 0.000000 1.000000 0.000000
-0.048739 -0.558024 -0.323840 0.600000 0.300000 0.000000
-0.118026 0.545314 -0.069505 0.000000 1.000000 0.000000
0.108402 -0.707850 0.039945 0.300000 0.000000 0.600000
-0.111962 -0.628514 -0.019813 0.600000 0.300000 0.000000
0.144284 -0.561536 -0.255898 0.600000 0.300000 0.000000
-0.166820 -0.723323 -0.299114 0.300000 0.000000 0.600000
0.009867 0.405543 -0.297834 0.600000 0.300000 0.000000
0.167417 -0.216784 -0.091250 0.600000 0.300000 0.000000
0.100654 -0.550353 -0.012274 0.600000 0.300000 0.000000
-0.134723 0.345345 -0.262368 0.600000 0.300000 0.000000
-0.046680 0.302467 0.014445 0.600000 0.300000 0.000000
0.003907 -0.405043 -0.355070 0.600000 0.000000 0.300000
-0.037921 -0.096557 -0.326694 0.600000 0.300000 0.000000
-0.173989 -0.392373 -0.142377 0.600000 0.300000 0.000000
-0.014411 -0.036570 0.468592 0.000000 0.500000 0.500000
-0.098686 0.304311 -0.301012 0.600000 0.300000 0.000000
-0.080139 0.373288 0.003113 0.600000 0.300000 0.000000
0.072539 0.308027 -0.311566 0.600000 0.300000 0.000000
-0.039377 0.801489 0.075108 0.000000 1.000000 0.000000
-0.135839 -0.301163 -0.044376 0.600000 0.300000 0.000000
-0.029002 -0.315007 0.018176 0.600000 0.300000 0.000000
0.152885 0.395280 -0.101895 0.000000 1.000000 0.000000
0.129503 0.455912 -0.099761 0.600000 0.300000 0.000000
-0.002404 0.069254 0.859970 0.300000 0.600000 0.000000
-0.068126 0.002613 0.460014 0.000000 0.500000 0.500000
-0.098751 0.442861 -0.250757 0.000000 1.000000 0.000000
-0.120974 0.546023 -0.205437 0.000000 1.000000 0.000000
-0.040037 0.379479 -0.314858 0.600000 0.300000 0.000000
0.043495 -0.025064 0.120878 0.000000 0.500000 0.500000
-0.045641 -0.127436 -0.325337 0.600000 0.300000 0.000000
-0.057570 0.439425 -0.283492 0.600000 0.300000 0.000000
0.072872 0.070232 0.144755 0.000000 0.500000 0.500000
0.144064 0.183810 -0.256228 0.600000 0.300000 0.000000
-0.006030 0.730953 0.343106 0.000000 1.000000 0.000000
-0.149486 0.532310 -0.051673 0.000000 1.000000 0.000000
-0.171045 -0.436705 -0.122020 0.600000 0.300000 0.000000
0.099758 0.100228 -0.008023 0.600000 0.300000 0.000000
0.094262 0.544845 -0.274946 0.000000 1.000000 0.000000
-0.060937 -0.019013 0.754087 0.000000 0.500000 0.500000
0.047888 0.752888 -0.114518 0.000000 1.000000 0.000000
0.183229 0.501397 -0.157942 0.000000 1.000000 0.000000
-0.007230 0.547916 -0.060502 0.000000 1.000000 0.000000
-0.044605 0.793828 0.319403 0.000000 1.000000 0.000000
0.172361 -0.061419 -0.174808 0.600000 0.300000 0.000000
0.014631 -0.036636 0.266412 0.000000 0.500000 0.500000
0.177730 -0.696169 -0.029216 0.300000 0.000000 0.600000
-0.029852 0.856213 0.388568 0.000000 1.000000 0.000000
-0.143603 -0.167678 -0.249065 0.600000 0.300000 0.000000
-0.077442 0.055142 0.492537 0.000000 0.500000 0.500000
0.108785 0.395280 -0.029116 0.000000 1.000000 0.000000
-0.174126 -0.303314 -0.152004 0.600000 0.300000 0.000000
0.075532 -0.670796 0.004118 0.600000 0.300000 0.000000
-0.004614 -0.428431 0.021241 0.600000 0.300000 0.000000
-0.104340 -0.021824 -0.298405 0.600000 0.300000 0.000000
-0.171397 0.299498 -0.177625 0.600000 0.300000 0.000000
-0.004284 0.820343 -0.067273 0.000000 1.000000 0.000000
-0.028740 0.105119 0.749376 0.000000 0.500000 0.500000
-0.043622 0.189838 0.015060 0.600000 0.300000 0.000000
0.102282 -0.241666 -0.300822 0.600000 0.300000 0.000000
0.071173 0.075551 0.523237 0.000000 0.500000 0.500000
-0.058796 -0.011753 0.148592 0.000000 0.500000 0.500000
-0.020818 -0.034874 0.182403 0.000000 0.500000 0.500000
-0.105796 0.494460 -0.006301 0.000000 1.000000 0.000000
-0.026579 -0.728853 -0.277209 0.600000 0.300000 0.000000
0.066162 -0.729470 -0.080919 0.600000 0.300000 0.000000
-0.037132 0.110528 0.108167 0.000000 0.500000 0.500000
-0.039619 0.749004 0.222242 0.000000 1.000000 0.000000
-0.021709 -0.408259 0.023527 0.600000 0.300000 0.000000
-0.151014 -0.474461 -0.245214 0.600000 0.300000 0.000000
0.171059 0.177130 -0.181526 0.600000 0.300000 0.000000
-0.133820 0.469068 -0.028227 0.000000 1.000000 0.000000
-0.106609 -0.227384 -0.294801 0.600000 0.300000 0.000000
0.042354 0.107994 0.646378 0.000000 0.500000 0.500000
0.043539 0.395280 -0.138168 0.000000 1.000000 0.000000
0.078732 0.049532 0.643249 0.000000 0.500000 0.500000
-0.165652 0.071508 -0.085708 0.600000 0.300000 0.000000
0.027931 0.736178 0.035697 0.000000 1.000000 0.000000
-0.173307 0.236622 -0.116683 0.600000 0.300000 0.000000
-0.130271 -0.234428 -0.268993 0.600000 0.300000 0.000000
-0.152835 -0.317251 -0.242488 0.600000 0.300000 0.000000
0.052405 -0.077131 -0.323893 0.600000 0.300000 0.000000
0.043957 0.629949 -0.132916 0.000000 1.000000 0.000000
0.016290 -0.479269 -0.417804 0.600000 0.000000 0.300000
0.178792 0.436073 -0.124971 0.000000 1.000000 0.000000
0.149924 -0.728831 -0.259319 0.600000 0.300000 0.000000
0.171135 -0.188797 -0.124115 0.600000 0.300000 0.000000
0.176361 0.474704 -0.192470 0.000000 1.000000 0.000000
0.121677 -0.208511 -0.284988 0.600000 0.300000 0.000000
-0.077145 0.057186 0.093317 0.000000 0.500000 0.500000
-0.195260 -0.720494 -0.120854 0.600000 0.300000 0.000000
0.029302 0.757432 -0.162013 0.000000 1.000000 0.000000
-0.173041 -0.315740 -0.115349 0.600000 0.300000 0.000000
-0.155685 -0.266872 -0.075229 0.600000 0.300000 0.000000
0.045992 0.189535 -0.321196 0.600000 0.300000 0.000000
-0.171576 0.291654 -0.197288 0.600000 0.300000 0.000000
0.100339 -0.728804 -0.237505 0.600000 0.300000 0.000000
-0.056879 0.095913 0.385202 0.000000 0.500000 0.500000
0.057642 0.373280 -0.317668 0.600000 0.300000 0.000000
-0.021331 0.116577 0.494032 0.000000 0.500000 0.500000
0.023838 0.221195 -0.325443 0.600000 0.300000 0.000000
-0.029484 -0.710323 -0.354892 0.600000 0.300000 0.000000
0.078177 -0.065418 0.900735 0.300000 0.600000 0.000000
-0.048893 -0.249781 -0.324572 0.600000 0.300000 0.000000
-0.025050 0.804798 0.440031 0.000000 1.000000 0.000000
0.023924 -0.474168 -0.309729 0.600000 0.000000 0.300000
0.082676 -0.260141 0.001830 0.600000 0.300000 0.000000
-0.029581 0.812469 0.129911 0.000000 1.000000 0.000000
-0.064302 -0.023963 0.781403 0.000000 0.500000 0.500000
0.080950 -0.507663 -0.312869 0.600000 0.300000 0.000000
-0.162694 -0.732820 -0.267385 0.300000 0.000000 0.600000
-0.165844 0.137851 -0.219615 0.600000 0.300000 0.000000
0.073171 0.011803 0.447274 0.000000 0.500000 0.500000
0.022288 -0.034565 0.382365 0.000000 0.500000 0.500000
-0.046043 0.542413 -0.319358 0.000000 1.000000 0.000000
0.118462 -0.463245 -0.282071 0.600000 0.300000 0.000000
-0.166601 0.267737 -0.103247 0.600000 0.300000 0.000000
-0.118767 -0.607248 -0.024684 0.600000 0.300000 0.000000
0.142223 0.374918 -0.084115 0.600000 0.300000 0.000000
0.089155 0.184541 -0.001596 0.600000 0.300000 0.000000
0.122545 0.046596 -0.284208 0.600000 0.300000 0.000000
-0.036890 -0.667658 -0.333912 0.600000 0.300000 0.000000
0.168508 -0.427941 -0.212644 0.600000 0.300000 0.000000
0.076105 0.019888 0.276991 0.000000 0.500000 0.500000
0.012781 0.723919 -0.072504 0.000000 1.000000 0.000000
0.037056 0.075079 0.829308 0.000000 0.500000 0.500000
0.047614 -0.082818 0.824238 0.300000 0.600000 0.000000
-0.174079 0.424781 -0.103349 0.000000 1.000000 0.000000
-0.007355 -0.097156 0.021143 0.600000 0.300000 0.000000
-0.061594 0.411204 -0.028605 0.600000 0.300000 0.000000
-0.026312 0.581677 -0.107815 0.000000 1.000000 0.000000
-0.133493 0.243609 -0.033809 0.600000 0.300000 0.000000
-0.025725 -0.033511 0.593097 0.000000 0.500000 0.500000
0.046555 0.786166 0.197714 0.000000 1.000000 0.000000
-0.150250 -0.693048 -0.017194 0.600000 0.300000 0.000000
-0.045937 0.395280 0.018224 0.000000 1.000000 0.000000
-0.021355 -0.475081 -0.265289 0.600000 0.000000 0.300000
-0.067110 0.529911 -0.323300 0.000000 1.000000 0.000000
0.173314 -0.020729 -0.185546 0.600000 0.300000 0.000000
0.089999 0.106216 -0.309361 0.600000 0.300000 0.000000
0.148129 0.175959 -0.062331 0.600000 0.300000 0.000000
-0.081956 -0.552004 0.004645 0.600000 0.300000 0.000000
-0.123465 0.406082 -0.090133 0.600000 0.300000 0.000000
0.075496 0.017559 0.490459 0.000000 0.500000 0.500000
-0.172820 0.096801 -0.132734 0.600000 0.300000 0.000000
-0.142808 0.395280 -0.101259 0.000000 1.000000 0.000000
-0.077096 0.090436 0.008339 0.600000 0.300000 0.000000
-0.011712 -0.480269 -0.384924 0.600000 0.000000 0.300000
-0.142423 0.275405 -0.258076 0.600000 0.300000 0.000000
-0.159734 0.371694 -0.225142 0.600000 0.300000 0.000000
-0.015094 -0.611009 -0.330330 0.600000 0.300000 0.000000
-0.021244 0.657489 -0.109780 0.000000 1.000000 0.000000
0.073950 0.066938 0.284692 0.000000 0.500000 0.500000
-0.178117 -0.162175 -0.145684 0.600000 0.300000 0.000000
0.038061 0.110688 0.669423 0.000000 0.500000 0.500000
-0.020314 0.728256 -0.184408 0.000000 1.000000 0.000000
-0.021075 -0.528428 -0.329354 0.600000 0.300000 0.000000
-0.079598 -0.216775 -0.314961 0.600000 0.300000 0.000000
0.111400 0.429380 -0.063618 0.600000 0.300000 0.000000
0.054167 0.395280 -0.069691 0.000000 1.000000 0.000000
0.130856 -0.732867 -0.172812 0.300000 0.000000 0.600000
0.087773 -0.293794 -0.001497 0.600000 0.300000 0.000000
-0.043880 0.755675 0.259092 0.000000 1.000000 0.000000
0.164750 -0.732867 -0.121056 0.300000 0.000000 0.600000
0.072394 -0.040443 -0.319609 0.600000 0.300000 0.000000
0.043477 0.753977 0.057128 0.000000 1.000000 0.000000
0.034769 0.317717 -0.326728 0.600000 0.300000 0.000000
0.177459 -0.572944 -0.169817 0.600000 0.300000 0.000000
0.028969 0.114254 0.213551 0.000000 0.500000 0.500000
-0.063498 -0.078838 0.846989 0.300000 0.600000 0.000000
0.097713 0.357266 -0.291445 0.600000 0.300000 0.000000
-0.173435 0.087787 -0.172359 0.600000 0.300000 0.000000
-0.098009 -0.732867 -0.250699 0.300000 0.000000 0.600000
-0.165207 -0.260764 -0.207644 0.600000 0.300000 0.000000
0.047094 0.784446 0.304788 0.000000 1.000000 0.000000
-0.167541 0.192281 -0.104134 0.600000 0.300000 0.000000
-0.034592 0.750814 0.368099 0.000000 1.000000 0.000000
-0.033045 -0.424766 -0.349157 0.600000 0.000000 0.300000
0.052383 -0.714907 0.046288 0.600000 0.300000 0.000000
0.171308 0.140553 -0.200612 0.600000 0.300000 0.000000
-0.048853 0.547142 -0.056158 0.000000 1.000000 0.000000
0.125309 -0.586286 -0.274669 0.600000 0.300000 0.000000
0.145420 -0.648593 -0.063900 0.600000 0.300000 0.000000
0.083553 0.547407 -0.093562 0.000000 1.000000 0.000000
0.124455 0.298799 -0.030271 0.600000 0.300000 0.000000
-0.065672 -0.001865 0.263810 0.000000 0.500000 0.500000
0.137374 -0.705575 -0.315720 0.600000 0.300000 0.000000
0.092432 -0.434999 -0.301467 0.600000 0.300000 0.000000
-0.033693 -0.407083 -0.327195 0.600000 0.300000 0.000000
0.144358 -0.273885 -0.254880 0.600000 0.300000 0.000000
-0.019706 -0.442853 -0.329730 0.600000 0.300000 0.000000
0.007990 0.395280 -0.120634 0.000000 1.000000 0.000000
-0.170027 -0.107405 -0.184703 0.600000 0.300000 0.000000
0.038814 0.802915 0.077758 0.000000 1.000000 0.000000
0.172920 -0.506941 -0.113383 0.600000 0.300000 0.000000
0.172754 -0.086222 -0.133780 0.600000 0.300000 0.000000
-0.074272 -0.417467 0.008318 0.600000 0.300000 0.000000
0.122492 0.426452 -0.017179 0.000000 1.000000 0.000000
0.183766 -0.714747 -0.057826 0.600000 0.300000 0.000000
0.079024 0.044409 0.321073 0.000000 0.500000 0.500000
0.005291 0.445607 -0.256296 0.000000 1.000000 0.000000
0.077839 -0.008852 0.849514 0.300000 0.600000 0.000000
-0.001194 -0.482361 -0.344788 0.600000 0.000000 0.300000
0.161355 0.123420 -0.086745 0.600000 0.300000 0.000000
-0.005667 0.834498 0.442015 0.000000 1.000000 0.000000
-0.156519 0.544605 -0.126364 0.000000 1.000000 0.000000
-0.064521 0.356563 -0.319059 0.600000 0.300000 0.000000
-0.011907 0.274002 -0.326822 0.600000 0.300000 0.000000
-0.026007 -0.197964 0.022697 0.600000 0.300000 0.000000
-0.010447 0.621467 -0.106342 0.000000 1.000000 0.000000
0.172538 -0.307352 -0.132494 0.600000 0.300000 0.000000
-0.128552 0.199720 -0.271052 0.600000 0.300000 0.000000
-0.005910 0.400193 -0.006424 0.600000 0.300000 0.000000
-0.140343 -0.302083 -0.261189 0.600000 0.300000 0.000000
0.068947 0.077383 0.701940 0.000000 0.500000 0.500000
0.148942 0.544849 -0.193634 0.000000 1.000000 0.000000
-0.072532 0.141217 -0.313905 0.600000 0.300000 0.000000
0.057373 -0.684151 -0.344422 0.300000 0.000000 0.600000
-0.032038 0.112811 0.062512 0.000000 0.500000 0.500000
0.076020 -0.103113 0.938677 0.300000 0.600000 0.000000
-0.175842 -0.132072 -0.175836 0.600000 0.300000 0.000000
-0.037980 -0.446494 -0.287449 0.600000 0.000000 0.300000
-0.003377 -0.424851 -0.456458 0.600000 0.000000 0.300000
-0.032061 0.113012 0.521105 0.000000 0.500000 0.500000
-0.021083 0.731947 0.263856 0.000000 1.000000 0.000000
-0.055487 -0.060713 -0.323544 0.600000 0.300000 0.000000
-0.146879 0.467503 -0.257410 0.000000 1.000000 0.000000
-0.160428 -0.728804 -0.114879 0.600000 0.300000 0.000000
0.149745 -0.455859 -0.240518 0.600000 0.300000 0.000000
-0.027032 0.783776 -0.137949 0.000000 1.000000 0.000000
0.065403 -0.077435 0.849595 0.300000 0.600000 0.000000
0.107200 -0.324951 -0.292162 0.600000 0.300000 0.000000
0.177758 -0.235985 -0.163617 0.600000 0.300000 0.000000
0.004287 -0.037371 0.498810 0.000000 0.500000 0.500000
-0.005648 -0.037240 0.603251 0.000000 0.500000 0.500000
0.046829 0.133359 -0.321172 0.600000 0.300000 0.000000
0.163792 0.278746 -0.081939 0.600000 0.300000 0.000000
-0.096991 -0.008825 -0.006458 0.600000 0.300000 0.000000
-0.099413 -0.296338 -0.299698 0.600000 0.300000 0.000000
-0.026381 0.172689 0.022810 0.600000 0.300000 0.000000
-0.004063 -0.089987 1.007480 0.300000 0.600000 0.000000
-0.152251 0.214234 -0.236305 0.600000 0.300000 0.000000
-0.049887 -0.732867 -0.309421 0.300000 0.000000 0.600000
0.106995 0.476090 -0.298108 0.000000 1.000000 0.000000
0.145240 0.493122 -0.044694 0.000000 1.000000 0.000000
-0.128821 -0.695221 0.006321 0.600000 0.300000 0.000000
0.155609 0.016173 -0.067749 0.600000 0.300000 0.000000
0.086552 -0.273393 -0.311746 0.600000 0.300000 0.000000
0.030842 -0.467436 -0.382217 0.600000 0.000000 0.300000
-0.147905 -0.133073 -0.242638 0.600000 0.300000 0.000000
-0.046152 0.763674 0.097440 0.000000 1.000000 0.000000
0.114468 -0.348114 -0.021760 0.600000 0.300000 0.000000
0.063833 0.087658 0.041899 0.000000 0.500000 0.500000
-0.169759 -0.199555 -0.099246 0.600000 0.300000 0.000000
0.034154 -0.579412 -0.326537 0.600000 0.300000 0.000000
0.036573 -0.732867 -0.224499 0.300000 0.000000 0.600000
0.004941 -0.425156 -0.264447 0.600000 0.000000 0.300000
-0.048488 -0.521395 -0.319856 0.600000 0.300000 0.000000
-0.178628 0.398312 -0.130702 0.000000 1.000000 0.000000
0.038437 0.746343 -0.055095 0.000000 1.000000 0.000000
-0.133342 0.009684 -0.264431 0.600000 0.300000 0.000000
-0.175764 -0.346292 -0.129123 0.600000 0.300000 0.000000
0.034620 0.111945 0.129197 0.000000 0.500000 0.500000
-0.084871 0.395280 -0.149844 0.000000 1.000000 0.000000
0.097122 0.236269 -0.010999 0.600000 0.300000 0.000000
0.173301 0.057441 -0.169415 0.600000 0.300000 0.000000
0.135717 0.431968 -0.125754 0.600000 0.300000 0.000000
0.003006 0.117049 0.707104 0.000000 0.500000 0.500000
-0.076871 -0.574079 -0.313801 0.600000 0.300000 0.000000
-0.028549 -0.469068 -0.362136 0.600000 0.000000 0.300000
-0.133258 -0.209660 -0.264663 0.600000 0.300000 0.000000
0.151396 0.544179 -0.077467 0.000000 1.000000 0.000000
-0.038958 -0.732867 -0.122509 0.300000 0.000000 0.600000
-0.035710 0.059607 -0.326974 0.600000 0.300000 0.000000
-0.178832 0.486242 -0.177960 0.000000 1.000000 0.000000
-0.023208 -0.702514 0.065846 0.300000 0.000000 0.600000
-0.075094 -0.099989 0.892043 0.300000 0.600000 0.000000
0.101516 -0.083617 -0.301765 0.600000 0.300000 0.000000
0.157126 -0.105527 -0.228460 0.600000 0.300000 0.000000
0.173584 -0.381061 -0.165507 0.600000 0.300000 0.000000
-0.078771 0.039993 0.443213 0.000000 0.500000 0.500000
0.154926 0.109850 -0.232226 0.600000 0.300000 0.000000
-0.047973 -0.021370 0.483486 0.000000 0.500000 0.500000
-0.124165 -0.359556 -0.023930 0.600000 0.300000 0.000000
-0.198191 -0.707051 -0.089432 0.600000 0.300000 0.000000
-0.044104 0.106106 0.150289 0.000000 0.500000 0.500000
0.177832 -0.471507 -0.167939 0.600000 0.300000 0.000000
0.077630 0.019709 0.772072 0.000000 0.500000 0.500000
0.088828 -0.732867 -0.064767 0.300000 0.000000 0.600000
-0.077207 0.414566 -0.192796 0.000000 1.000000 0.000000
-0.129569 0.419887 -0.201475 0.600000 0.300000 0.000000
0.135493 0.461631 -0.030106 0.000000 1.000000 0.000000
-0.028127 -0.001480 0.932445 0.300000 0.600000 0.000000
-0.083415 -0.162466 0.001419 0.600000 0.300000 0.000000
-0.020472 -0.667822 -0.321532 0.600000 0.300000 0.000000
0.065192 0.071983 0.774359 0.000000 0.500000 0.500000
-0.002884 0.137369 0.021832 0.600000 0.300000 0.000000
0.166122 0.508892 -0.075946 0.000000 1.000000 0.000000
-0.043358 0.801558 0.415338 0.000000 1.000000 0.000000
0.046856 0.142970 0.018837 0.600000 0.300000 0.000000
0.038611 -0.078502 0.986880 0.300000 0.600000 0.000000
0.102278 -0.732515 -0.340584 0.300000 0.000000 0.600000
-0.052127 -0.018211 0.220786 0.000000 0.500000 0.500000
-0.040144 0.108857 0.179532 0.000000 0.500000 0.500000
0.056941 -0.052666 0.951917 0.300000 0.600000 0.000000
-0.015278 0.546396 -0.030717 0.000000 1.000000 0.000000
-0.100773 0.090315 -0.013618 0.600000 0.300000 0.000000
-0.174180 -0.340637 -0.148530 0.600000 0.300000 0.000000
0.174738 0.395572 -0.123134 0.000000 1.000000 0.000000
0.011185 0.755509 0.405210 0.000000 1.000000 0.000000
0.049523 -0.435665 -0.323619 0.600000 0.300000 0.000000
-0.053177 -0.276352 0.012561 0.600000 0.300000 0.000000
-0.145257 -0.333955 -0.057767 0.600000 0.300000 0.000000
-0.039950 0.749259 -0.057363 0.000000 1.000000 0.000000
-0.028572 0.802587 -0.102391 0.000000 1.000000 0.000000
-0.177424 -0.732845 -0.049443 0.300000 0.000000 0.600000
-0.107969 0.420645 -0.205463 0.000000 1.000000 0.000000
-0.033326 -0.425186 -0.306432 0.600000 0.000000 0.300000
0.048270 0.409891 -0.287426 0.600000 0.300000 0.000000
0.047558 0.411061 -0.185493 0.000000 1.000000 0.000000
0.160414 -0.706197 -0.018622 0.600000 0.300000 0.000000
-0.107215 0.432685 -0.230259 0.000000 1.000000 0.000000
0.154123 -0.185373 -0.240559 0.600000 0.300000 0.000000
-0.147013 -0.189859 -0.054062 0.600000 0.300000 0.000000
0.012529 -0.732867 -0.063312 0.300000 0.000000 0.600000
0.176219 0.037121 -0.173393 0.600000 0.300000 0.000000
0.079151 0.038416 0.353802 0.000000 0.500000 0.500000
0.106463 -0.473993 -0.296434 0.600000 0.300000 0.000000
-0.164528 -0.101737 -0.222303 0.600000 0.300000 0.000000
-0.167283 -0.413863 -0.101541 0.600000 0.300000 0.000000
-0.040897 -0.070960 0.805497 0.300000 0.600000 0.000000
0.088974 -0.584866 -0.004222 0.600000 0.300000 0.000000
-0.034463 -0.354944 0.017129 0.600000 0.300000 0.000000
-0.047866 0.773263 0.188603 0.000000 1.000000 0.000000
0.166737 0.062459 -0.203319 0.600000 0.300000 0.000000
0.005372 0.822621 0.228851 0.000000 1.000000 0.000000
0.014897 -0.732867 -0.268874 0.300000 0.000000 0.600000
-0.073182 0.069571 0.474212 0.000000 0.500000 0.500000
0.038925 -0.259196 0.019923 0.600000 0.300000 0.000000
-0.198138 -0.714725 -0.187047 0.600000 0.300000 0.000000
0.159156 -0.075926 -0.223853 0.600000 0.300000 0.000000
-0.170730 0.515223 -0.218681 0.000000 1.000000 0.000000
-0.135992 0.533163 -0.273688 0.000000 1.000000 0.000000
-0.125564 0.544501 -0.051184 0.000000 1.000000 0.000000
-0.118482 -0.732867 -0.006195 0.300000 0.000000 0.600000
-0.159534 -0.162885 -0.073404 0.600000 0.300000 0.000000
-0.033732 -0.144802 0.952913 0.600000 0.000000 0.300000
-0.169958 0.535006 -0.088060 0.000000 1.000000 0.000000
0.029856 0.120038 -0.324131 0.600000 0.300000 0.000000
-0.077125 0.025921 0.136739 0.000000 0.500000 0.500000
-0.076323 0.544676 -0.290754 0.000000 1.000000 0.000000
-0.159421 -0.554305 -0.223937 0.600000 0.300000 0.000000
-0.059654 -0.198465 0.009426 0.600000 0.300000 0.000000
-0.044090 -0.156369 0.877940 0.300000 0.600000 0.000000
0.078794 0.040550 0.122896 0.000000 0.500000 0.500000
-0.041509 0.395280 -0.068524 0.000000 1.000000 0.000000
0.167887 -0.088930 -0.093421 0.600000 0.300000 0.000000
0.158275 -0.732867 -0.233887 0.300000 0.000000 0.600000
-0.099088 0.017692 -0.006791 0.600000 0.300000 0.000000
-0.161762 -0.677370 -0.052081 0.300000 0.000000 0.600000
-0.148376 -0.659642 -0.049879 0.600000 0.300000 0.000000
0.019807 -0.035249 0.175519 0.000000 0.500000 0.500000
-0.198994 -0.706270 -0.208411 0.600000 0.300000 0.000000
0.168117 0.372910 -0.202657 0.600000 0.300000 0.000000
0.019894 0.819229 0.255796 0.000000 1.000000 0.000000
0.142964 -0.163164 -0.256562 0.600000 0.300000 0.000000
0.031884 0.342310 0.021402 0.600000 0.300000 0.000000
0.095583 0.187400 -0.298359 0.600000 0.300000 0.000000
0.114753 0.410598 -0.184528 0.000000 1.000000 0.000000
-0.047437 0.781074 0.237620 0.000000 1.000000 0.000000
-0.159099 0.035880 -0.082212 0.600000 0.300000 0.000000
0.019730 -0.080012 0.802462 0.300000 0.600000 0.000000
0.171939 0.443602 -0.214701 0.000000 1.000000 0.000000
0.022973 0.825664 0.350134 0.000000 1.000000 0.000000
-0.169934 0.029771 -0.185171 0.600000 0.300000 0.000000
0.187894 -0.694676 -0.258696 0.300000 0.000000 0.600000
0.172626 0.213901 -0.113358 0.600000 0.300000 0.000000
-0.138887 0.069928 -0.263370 0.600000 0.300000 0.000000
0.178531 0.157045 -0.159287 0.600000 0.300000 0.000000
0.078843 0.038061 0.162231 0.000000 0.500000 0.500000
-0.048268 0.401497 -0.165565 0.000000 1.000000 0.000000
-0.008009 0.110608 0.747267 0.000000 0.500000 0.500000
-0.160043 0.302773 -0.074366 0.600000 0.300000 0.000000
-0.102909 -0.128589 -0.010243 0.600000 0.300000 0.000000
0.170043 0.362738 -0.149643 0.600000 0.300000 0.000000
0.024726 -0.729082 -0.100493 0.600000 0.300000 0.000000
0.045094 0.710058 -0.165111 0.000000 1.000000 0.000000
0.054100 0.098706 0.150840 0.000000 0.500000 0.500000
-0.103497 0.527602 -0.004765 0.000000 1.000000 0.000000
0.113216 0.088861 -0.291310 0.600000 0.300000 0.000000
-0.052535 -0.732867 -0.048317 0.300000 0.000000 0.600000
-0.172456 -0.317777 -0.192865 0.600000 0.300000 0.000000
-0.075721 0.062310 0.413310 0.000000 0.500000 0.500000
0.116478 -0.154553 -0.284714 0.600000 0.300000 0.000000
-0.131053 0.033286 -0.274661 0.600000 0.300000 0.000000
0.078916 -0.308241 -0.315476 0.600000 0.300000 0.000000
0.163349 -0.117075 -0.213803 0.600000 0.300000 0.000000
-0.031256 -0.422088 -0.442202 0.600000 0.000000 0.300000
0.158997 0.544223 -0.097176 0.000000 1.000000 0.000000
0.178034 -0.050294 -0.159612 0.600000 0.300000 0.000000
-0.115185 0.454075 -0.273346 0.000000 1.000000 0.000000
-0.042606 0.546046 -0.028928 0.000000 1.000000 0.000000
-0.038093 -0.653684 -0.317576 0.600000 0.300000 0.000000
-0.036571 0.395280 -0.137561 0.000000 1.000000 0.000000
0.079081 0.041048 0.267211 0.000000 0.500000 0.500000
0.007836 0.822102 0.037414 0.000000 1.000000 0.000000
0.120588 0.395280 -0.119153 0.000000 1.000000 0.000000
0.184312 -0.669382 -0.135914 0.600000 0.300000 0.000000
0.069414 0.003862 0.110294 0.000000 0.500000 0.500000
-0.006408 -0.076021 0.025271 0.600000 0.300000 0.000000
-0.125757 0.238056 -0.280771 0.600000 0.300000 0.000000
-0.038408 -0.219849 -0.326554 0.600000 0.300000 0.000000
-0.116870 0.264220 -0.018964 0.600000 0.300000 0.000000
0.116061 -0.732867 -0.058896 0.300000 0.000000 0.600000
0.164959 -0.394327 -0.083267 0.600000 0.300000 0.000000
0.129890 0.307166 -0.269429 0.600000 0.300000 0.000000
0.070857 -0.121949 0.893281 0.300000 0.600000 0.000000
-0.064157 -0.391458 -0.321105 0.600000 0.300000 0.000000
0.122728 0.110352 -0.028723 0.600000 0.300000 0.000000
0.179913 -0.669450 -0.202608 0.600000 0.300000 0.000000
0.061965 -0.008387 0.155077 0.000000 0.500000 0.500000
-0.001022 -0.358533 -0.327240 0.600000 0.300000 0.000000
0.079816 -0.217329 -0.315700 0.600000 0.300000 0.000000
0.009466 0.050687 0.887647 0.300000 0.600000 0.000000
-0.040681 -0.528240 0.015851 0.600000 0.300000 0.000000
-0.106557 -0.683002 0.002480 0.600000 0.300000 0.000000
0.131334 -0.121339 -0.273884 0.600000 0.300000 0.000000
-0.031587 0.498275 -0.330366 0.000000 1.000000 0.000000
-0.015608 0.729589 0.239028 0.000000 1.000000 0.000000
0.147260 -0.473259 -0.061029 0.600000 0.300000 0.000000
-0.103271 -0.378328 -0.015060 0.600000 0.300000 0.000000
-0.164686 0.183152 -0.210391 0.600000 0.300000 0.000000
-0.021659 -0.044477 0.033500 0.000000 0.500000 0.500000
0.059191 -0.040433 0.009503 0.600000 0.300000 0.000000
-0.079861 0.446365 -0.257816 0.000000 1.000000 0.000000
0.155817 -0.495499 -0.238629 0.600000 0.300000 0.000000
-0.150490 -0.478703 -0.065536 0.600000 0.300000 0.000000
0.026180 0.276293 -0.328578 0.600000 0.300000 0.000000
0.026070 -0.420500 -0.324116 0.600000 0.300000 0.000000
-0.014684 0.118694 0.097463 0.000000 0.500000 0.500000
0.016043 -0.178167 0.020689 0.600000 0.300000 0.000000
-0.092504 -0.519661 -0.303777 0.600000 0.300000 0.000000
-0.163841 -0.025951 -0.081704 0.600000 0.300000 0.000000
0.010743 -0.189429 -0.327189 0.600000 0.300000 0.000000
-0.140793 -0.552658 -0.260515 0.600000 0.300000 0.000000
-0.140427 0.382759 -0.130693 0.600000 0.300000 0.000000
0.041074 0.180940 0.019826 0.600000 0.300000 0.000000
-0.077824 0.029641 0.308850 0.000000 0.500000 0.500000
0.114249 -0.676730 0.001543 0.300000 0.000000 0.600000
-0.063927 -0.041948 0.931478 0.300000 0.600000 0.000000
0.169475 -0.006227 -0.100825 0.600000 0.300000 0.000000
-0.113768 -0.091315 -0.290262 0.600000 0.300000 0.000000
0.168300 -0.210148 -0.210542 0.600000 0.300000 0.000000
0.219494 -0.710400 -0.124217 0.300000 0.000000 0.600000
-0.171346 0.445654 -0.215585 0.000000 1.000000 0.000000
-0.105492 -0.260187 -0.291275 0.600000 0.300000 0.000000
-0.046789 -0.719974 0.044979 0.600000 0.300000 0.000000
0.002008 0.313170 0.021425 0.600000 0.300000 0.000000
-0.138665 -0.728804 -0.177598 0.600000 0.300000 0.000000
-0.162608 -0.086829 -0.079208 0.600000 0.300000 0.000000
-0.141291 0.430799 -0.039407 0.000000 1.000000 0.000000
-0.171581 0.322298 -0.176675 0.600000 0.300000 0.000000
-0.085727 -0.480265 -0.308679 0.600000 0.300000 0.000000
-0.172590 0.459623 -0.095874 0.000000 1.000000 0.000000
0.099453 -0.455860 -0.296508 0.600000 0.300000 0.000000
0.170821 -0.392804 -0.102404 0.600000 0.300000 0.000000
0.159757 -0.609674 -0.082895 0.600000 0.300000 0.000000
0.057050 -0.357739 -0.322404 0.600000 0.300000 0.000000
-0.098959 -0.150729 -0.296965 0.600000 0.300000 0.000000
0.042159 0.754296 0.348286 0.000000 1.000000 0.000000
0.035516 -0.597458 0.016963 0.600000 0.300000 0.000000
0.026716 0.814679 0.214308 0.000000 1.000000 0.000000
-0.045801 0.762603 0.293715 0.000000 1.000000 0.000000
-0.086123 -0.195710 -0.000170 0.600000 0.300000 0.000000
0.039050 -0.439941 -0.287525 0.600000 0.000000 0.300000
0.080045 -0.011067 -0.316538 0.600000 0.300000 0.000000
0.173066 0.419421 -0.096184 0.000000 1.000000 0.000000
0.165071 -0.641892 -0.083274 0.600000 0.300000 0.000000
0.153838 0.022385 -0.233973 0.600000 0.300000 0.000000
0.068992 0.003105 0.545491 0.000000 0.500000 0.500000
0.048687 0.776634 0.221048 0.000000 1.000000 0.000000
0.146261 0.144518 -0.252939 0.600000 0.300000 0.000000
-0.066534 -0.346809 0.012104 0.600000 0.300000 0.000000
0.129894 -0.231022 -0.269662 0.600000 0.300000 0.000000
-0.160038 -0.216172 -0.220903 0.600000 0.300000 0.000000
-0.121638 -0.523116 -0.277907 0.600000 0.300000 0.000000
-0.051312 0.170920 -0.319323 0.600000 0.300000 0.000000
0.147705 -0.060669 -0.061695 0.600000 0.300000 0.000000
0.000660 -0.296039 -0.331510 0.600000 0.300000 0.000000
-0.111910 -0.728804 -0.204813 0.600000 0.300000 0.000000
0.147056 0.200537 -0.244537 0.600000 0.300000 0.000000
0.116159 -0.126319 -0.018411 0.600000 0.300000 0.000000
-0.014605 -0.001521 -0.327354 0.600000 0.300000 0.000000
0.072088 0.009852 0.056224 0.000000 0.500000 0.500000
-0.002339 0.119662 0.135422 0.000000 0.500000 0.500000
0.076611 -0.083796 0.888694 0.300000 0.600000 0.000000
-0.078326 0.365942 -0.298806 0.600000 0.300000 0.000000
-0.134131 -0.406674 -0.263911 0.600000 0.300000 0.000000
0.056185 -0.732867 -0.320952 0.300000 0.000000 0.600000
0.142451 -0.732867 -0.151659 0.300000 0.000000 0.600000
0.105132 -0.698117 -0.344900 0.300000 0.000000 0.600000
-0.107378 0.408293 -0.053964 0.600000 0.300000 0.000000
0.001480 -0.037572 0.366541 0.000000 0.500000 0.500000
0.056561 0.542580 0.011824 0.000000 1.000000 0.000000
0.039311 0.600215 -0.125212 0.000000 1.000000 0.000000
0.177041 0.457571 -0.116168 0.000000 1.000000 0.000000
0.117228 -0.396367 -0.283702 0.600000 0.300000 0.000000
-0.165942 -0.662388 -0.130727 0.600000 0.300000 0.000000
-0.108553 0.497145 -0.296985 0.000000 1.000000 0.000000
0.061575 0.090219 0.082230 0.000000 0.500000 0.500000
0.004465 -0.276482 0.025187 0.600000 0.300000 0.000000
-0.023653 0.735961 0.336054 0.000000 1.000000 0.000000
0.164355 -0.293009 -0.094744 0.600000 0.300000 0.000000
-0.038544 -0.684327 0.033321 0.600000 0.300000 0.000000
0.013051 -0.152190 -0.330643 0.600000 0.300000 0.000000
0.154051 0.378306 -0.149338 0.600000 0.300000 0.000000
-0.052917 0.145284 0.012024 0.600000 0.300000 0.000000
0.116740 -0.423239 -0.283879 0.600000 0.300000 0.000000
-0.098776 -0.714475 0.046468 0.300000 0.000000 0.600000
0.176424 0.432118 -0.192152 0.000000 1.000000 0.000000
0.050376 -0.564014 0.018019 0.600000 0.300000 0.000000
-0.147247 -0.617661 -0.060009 0.600000 0.300000 0.000000
-0.156466 0.398880 -0.160111 0.000000 1.000000 0.000000
-0.012840 0.712719 -0.089941 0.000000 1.000000 0.000000
0.003592 -0.404981 -0.287713 0.600000 0.000000 0.300000
-0.167077 -0.574416 -0.216259 0.600000 0.300000 0.000000
0.006304 0.663750 -0.199725 0.000000 1.000000 0.000000
0.099430 -0.732867 -0.102101 0.300000 0.000000 0.600000
-0.026970 0.735829 0.060840 0.000000 1.000000 0.000000
-0.120588 0.546540 -0.146577 0.000000 1.000000 0.000000
-0.075876 0.544957 -0.021007 0.000000 1.000000 0.000000
0.165949 0.289866 -0.218562 0.600000 0.300000 0.000000
-0.085115 -0.663402 -0.316071 0.600000 0.300000 0.000000
-0.128168 -0.638553 -0.027611 0.600000 0.300000 0.000000
-0.016832 0.820242 0.096774 0.000000 1.000000 0.000000
-0.078799 0.036216 0.266506 0.000000 0.500000 0.500000
0.064954 0.158116 0.012524 0.600000 0.300000 0.000000
0.030140 0.642473 -0.115887 0.000000 1.000000 0.000000
0.055604 -0.185471 0.011418 0.600000 0.300000 0.000000
0.028985 0.736897 0.086452 0.000000 1.000000 0.000000
0.169925 -0.669670 -0.177703 0.600000 0.300000 0.000000
0.039436 -0.445219 -0.337361 0.600000 0.000000 0.300000
-0.019095 0.025721 0.909035 0.300000 0.600000 0.000000
0.158865 -0.729622 -0.083351 0.600000 0.300000 0.000000
-0.041115 -0.732867 -0.289172 0.300000 0.000000 0.600000
-0.190150 -0.685981 -0.229391 0.300000 0.000000 0.600000
0.171012 0.281961 -0.181772 0.600000 0.300000 0.000000
-0.168720 -0.460834 -0.095088 0.600000 0.300000 0.000000
0.039626 -0.444264 -0.412946 0.600000 0.000000 0.300000
-0.132440 0.137574 -0.266297 0.600000 0.300000 0.000000
-0.064950 0.085810 0.047681 0.000000 0.500000 0.500000
0.135866 -0.037646 -0.038236 0.600000 0.300000 0.000000
-0.158257 0.138020 -0.079294 0.600000 0.300000 0.000000
-0.005153 -0.481573 -0.417910 0.600000 0.000000 0.300000
-0.027453 -0.060532 0.980372 0.300000 0.600000 0.000000
-0.047971 0.773349 0.113910 0.000000 1.000000 0.000000
0.040319 0.104263 0.720665 0.000000 0.500000 0.500000
0.015147 -0.456578 -0.330309 0.600000 0.300000 0.000000
0.126548 0.542615 -0.031730 0.000000 1.000000 0.000000
0.128082 0.502636 -0.020913 0.000000 1.000000 0.000000
0.046911 -0.707193 0.063036 0.300000 0.000000 0.600000
0.178459 -0.731792 -0.045594 0.300000 0.000000 0.600000
0.128833 -0.011942 -0.034960 0.600000 0.300000 0.000000
-0.030897 0.118904 -0.327525 0.600000 0.300000 0.000000
-0.047400 0.545379 -0.289103 0.000000 1.000000 0.000000
0.177608 -0.109392 -0.138288 0.600000 0.300000 0.000000
0.079086 0.546916 -0.070579 0.000000 1.000000 0.000000
0.143612 -0.409337 -0.256906 0.600000 0.300000 0.000000
-0.031688 0.112061 0.695100 0.000000 0.500000 0.500000
0.043449 0.428603 -0.288704 0.600000 0.300000 0.000000
0.152433 -0.724672 -0.314466 0.300000 0.000000 0.600000
0.062348 0.089522 0.349965 0.000000 0.500000 0.500000
-0.050966 -0.019093 0.302592 0.000000 0.500000 0.500000
0.078080 0.030041 0.088239 0.000000 0.500000 0.500000
-0.082805 -0.418059 -0.311236 0.600000 0.300000 0.000000
-0.173882 0.328054 -0.119579 0.600000 0.300000 0.000000
-0.086141 -0.631141 -0.003177 0.600000 0.300000 0.000000
