-0.471378 -0.110312 -0.187081 0.500000 0.000000 0.500000
0.571589 -0.217815 0.383596 0.600000 0.000000 0.300000
0.330949 0.054033 -0.220287 0.000000 0.000000 1.000000
-0.225555 -0.201717 0.621963 0.600000 0.000000 0.300000
0.233857 -0.141280 0.557633 0.600000 0.000000 0.300000
0.029215 -0.144325 0.286669 0.000000 0.500000 0.500000
0.153179 -0.218130 0.412502 0.600000 0.000000 0.300000
0.077840 0.264103 -0.392647 1.000000 0.000000 0.000000
-0.123665 -0.149483 0.091811 0.600000 0.000000 0.300000
0.448984 -0.148451 0.328224 0.000000 0.500000 0.500000
0.533398 -0.218130 0.210591 0.600000 0.000000 0.300000
0.553795 -0.218130 0.358414 0.600000 0.000000 0.300000
-0.542014 -0.218130 0.322218 0.600000 0.000000 0.300000
-0.112677 -0.218130 0.450844 0.600000 0.000000 0.300000
0.021961 0.006896 -0.192594 0.000000 0.000000 1.000000
-0.522758 0.187577 -0.348460 1.000000 0.000000 0.000000
0.440170 0.061607 -0.275778 1.000000 0.000000 0.000000
0.166336 0.476888 -0.465583 0.000000 0.000000 1.000000
-0.302698 0.276717 -0.350010 0.000000 0.000000 1.000000
-0.394508 -0.142724 0.027668 0.000000 0.500000 0.500000
0.306718 -0.218130 0.348373 0.600000 0.000000 0.300000
-0.243282 -0.218130 0.089961 0.600000 0.000000 0.300000
-0.476676 -0.149483 0.015363 0.600000 0.000000 0.300000
0.272054 0.231336 -0.323810 0.000000 0.000000 1.000000
-0.326744 -0.212898 0.564980 0.600000 0.000000 0.300000
0.259783 -0.140946 0.524219 0.600000 0.000000 0.300000
0.105283 0.021023 -0.252326 1.000000 0.000000 0.000000
-0.349780 0.113514 -0.305706 1.000000 0.000000 0.000000
-0.096583 -0.145951 0.149089 0.000000 0.500000 0.500000
0.327067 -0.218130 0.457183 0.600000 0.000000 0.300000
0.559703 -0.218130 0.121541 0.600000 0.000000 0.300000
-0.495561 -0.115034 -0.186967 0.500000 0.000000 0.500000
-0.513866 -0.188393 0.671687 0.600000 0.000000 0.300000
-0.249923 -0.149647 0.097558 0.000000 0.500000 0.500000
-0.468766 -0.149708 0.119993 0.000000 0.500000 0.500000
-0.328936 -0.202017 0.620750 0.600000 0.000000 0.300000
-0.365920 -0.218130 0.137669 0.600000 0.000000 0.300000
-0.488093 -0.218130 0.143161 0.600000 0.000000 0.300000
0.469334 0.059301 -0.224311 0.000000 0.000000 1.000000
-0.344986 0.282894 -0.353580 0.000000 0.000000 1.000000
0.232950 0.502997 -0.480659 0.000000 0.000000 1.000000
-0.239172 -0.142724 0.152915 0.000000 0.500000 0.500000
0.474742 -0.142724 0.039105 0.000000 0.500000 0.500000
0.511280 0.038115 -0.262232 1.000000 0.000000 0.000000
0.579643 -0.204905 0.590827 0.600000 0.000000 0.300000
0.174858 0.413428 -0.428946 0.000000 0.000000 1.000000
0.498554 0.000314 -0.240381 1.000000 0.000000 0.000000
-0.450287 -0.149483 0.308695 0.600000 0.000000 0.300000
0.384300 0.498207 -0.477881 0.000000 0.000000 1.000000
0.121157 -0.141027 0.632363 0.600000 0.000000 0.300000
0.174570 0.064460 -0.277408 1.000000 0.000000 0.000000
0.158163 0.462248 -0.507053 1.000000 0.000000 0.000000
-0.141009 0.584308 -0.559203 1.000000 0.000000 0.000000
0.236285 0.321789 -0.425963 1.000000 0.000000 0.000000
0.158076 -0.218130 0.340448 0.600000 0.000000 0.300000
0.543244 -0.015560 -0.231224 1.000000 0.000000 0.000000
-0.583258 -0.011443 -0.219223 1.000000 0.000000 0.000000
-0.487110 0.614701 -0.553070 1.000000 0.000000 0.000000
0.306113 0.277505 -0.400404 1.000000 0.000000 0.000000
-0.360505 -0.218130 0.410489 0.600000 0.000000 0.300000
0.219005 -0.070670 -0.137908 0.500000 0.000000 0.500000
-0.046302 0.392929 -0.415949 0.000000 0.000000 1.000000
0.399027 -0.218130 -0.018089 0.600000 0.000000 0.300000
0.392591 -0.141612 0.552341 0.600000 0.000000 0.300000
-0.075472 0.108740 -0.302954 1.000000 0.000000 0.000000
0.581083 0.076105 -0.271549 1.000000 0.000000 0.000000
-0.535315 -0.141942 0.463404 0.600000 0.000000 0.300000
0.581098 -0.169620 0.298717 0.600000 0.000000 0.300000
-0.040889 -0.149483 0.065901 0.600000 0.000000 0.300000
-0.403977 -0.141551 0.683067 0.600000 0.000000 0.300000
-0.484949 -0.214876 -0.125443 0.600000 0.000000 0.300000
-0.427470 -0.141491 0.663802 0.600000 0.000000 0.300000
0.551181 0.036708 -0.204828 1.000000 0.000000 0.000000
-0.032924 0.092017 -0.243374 0.000000 0.000000 1.000000
0.380933 0.240412 -0.378992 1.000000 0.000000 0.000000
-0.267195 0.368289 -0.452791 1.000000 0.000000 0.000000
-0.384048 -0.141888 0.668687 0.600000 0.000000 0.300000
-0.498131 -0.149483 0.029989 0.600000 0.000000 0.300000
-0.365017 0.317804 -0.373719 0.000000 0.000000 1.000000
-0.099198 -0.203357 0.615289 0.600000 0.000000 0.300000
-0.386324 -0.142724 0.393555 0.000000 0.500000 0.500000
-0.119171 -0.148546 0.263987 0.600000 0.000000 0.300000
0.291301 0.157502 -0.281178 0.000000 0.000000 1.000000
0.580770 -0.186138 0.408563 0.600000 0.000000 0.300000
0.043303 0.154746 -0.278439 0.000000 0.000000 1.000000
-0.418764 0.054748 -0.271804 1.000000 0.000000 0.000000
0.581201 0.503510 -0.496562 1.000000 0.000000 0.000000
0.083717 0.106484 -0.301652 1.000000 0.000000 0.000000
0.127902 -0.142724 0.020004 0.000000 0.500000 0.500000
-0.493470 0.396275 -0.468927 1.000000 0.000000 0.000000
0.391991 0.363820 -0.450252 1.000000 0.000000 0.000000
0.258925 -0.142724 0.121125 0.000000 0.500000 0.500000
0.456873 -0.142724 -0.028852 0.000000 0.500000 0.500000
0.034536 -0.142724 0.115079 0.000000 0.500000 0.500000
0.417851 0.583146 -0.558971 1.000000 0.000000 0.000000
0.356513 0.296125 -0.361220 0.000000 0.000000 1.000000
-0.177529 0.399220 -0.470637 1.000000 0.000000 0.000000
0.329676 -0.028238 -0.223903 1.000000 0.000000 0.000000
-0.266992 -0.149483 0.124387 0.600000 0.000000 0.300000
-0.469531 -0.218130 0.426842 0.600000 0.000000 0.300000
-0.123912 0.422072 -0.483837 1.000000 0.000000 0.000000
-0.155073 0.337077 -0.384620 0.000000 0.000000 1.000000
-0.070127 -0.143429 0.613723 0.300000 0.000000 0.600000
0.522076 -0.059072 -0.206098 1.000000 0.000000 0.000000
0.486441 -0.194655 0.648769 0.600000 0.000000 0.300000
-0.381427 0.490371 -0.472205 0.000000 0.000000 1.000000
0.098603 -0.140950 0.660676 0.600000 0.000000 0.300000
-0.330676 0.593677 -0.525730 1.000000 0.000000 0.000000
0.356514 0.152857 -0.328448 1.000000 0.000000 0.000000
0.483979 -0.218130 0.032691 0.600000 0.000000 0.300000
-0.386859 -0.153202 -0.112775 0.500000 0.000000 0.500000
-0.357490 0.004957 -0.192215 0.000000 0.000000 1.000000
-0.337842 -0.141946 0.651741 0.600000 0.000000 0.300000
0.149202 -0.218130 0.263717 0.600000 0.000000 0.300000
0.189527 0.507381 -0.483188 0.000000 0.000000 1.000000
0.556565 0.594929 -0.526429 1.000000 0.000000 0.000000
-0.442596 -0.141947 0.508278 0.600000 0.000000 0.300000
0.495866 -0.156071 -0.168772 0.500000 0.000000 0.500000
-0.216847 -0.218128 0.472082 0.600000 0.000000 0.300000
0.134594 0.519395 -0.538799 1.000000 0.000000 0.000000
-0.094868 -0.142724 0.032791 0.000000 0.500000 0.500000
0.293006 -0.142577 -0.073464 0.600000 0.000000 0.300000
-0.007129 -0.212431 0.568363 0.600000 0.000000 0.300000
-0.419349 -0.142724 0.088894 0.000000 0.500000 0.500000
-0.372105 0.505467 -0.531773 1.000000 0.000000 0.000000
-0.035309 0.590432 -0.524017 0.000000 1.000000 0.000000
0.181227 -0.145915 -0.055615 0.600000 0.000000 0.300000
0.517200 0.374501 -0.456445 1.000000 0.000000 0.000000
-0.583475 -0.163186 0.222915 0.600000 0.000000 0.300000
0.485370 -0.216962 -0.117636 0.600000 0.000000 0.300000
-0.397735 -0.165201 -0.140754 0.600000 0.000000 0.300000
-0.175124 0.449861 -0.448819 0.000000 0.000000 1.000000
-0.583412 -0.204091 0.158236 0.600000 0.000000 0.300000
-0.256166 -0.099068 -0.102793 0.500000 0.000000 0.500000
0.581173 0.076637 -0.247669 1.000000 0.000000 0.000000
0.266282 -0.142724 0.296273 0.000000 0.500000 0.500000
-0.025557 0.303739 -0.415525 1.000000 0.000000 0.000000
-0.485855 0.202847 -0.307360 0.000000 0.000000 1.000000
0.316615 -0.140946 0.496937 0.600000 0.000000 0.300000
0.472988 -0.157477 -0.166434 0.500000 0.000000 0.500000
-0.375653 0.544549 -0.501324 1.000000 0.000000 0.000000
0.400723 -0.216676 0.528829 0.600000 0.000000 0.300000
0.171048 -0.194748 0.648405 0.600000 0.000000 0.300000
0.258047 0.183020 -0.345848 1.000000 0.000000 0.000000
0.574396 0.184848 -0.290652 1.000000 0.000000 0.000000
-0.041540 0.307367 -0.366595 0.000000 0.000000 1.000000
0.233442 -0.155664 -0.169278 0.500000 0.000000 0.500000
-0.481232 0.038183 -0.262256 1.000000 0.000000 0.000000
-0.100416 0.445798 -0.497530 1.000000 0.000000 0.000000
-0.570573 0.511733 -0.534934 1.000000 0.000000 0.000000
0.296345 -0.142177 0.459597 0.600000 0.000000 0.300000
0.222661 -0.144376 -0.053712 0.000000 0.500000 0.500000
0.425700 -0.210195 0.582482 0.600000 0.000000 0.300000
-0.232146 0.485780 -0.520604 1.000000 0.000000 0.000000
0.581102 -0.193606 0.097720 0.600000 0.000000 0.300000
0.174692 -0.141783 0.565274 0.600000 0.000000 0.300000
-0.283746 0.170540 -0.338623 1.000000 0.000000 0.000000
-0.168998 -0.149483 0.221119 0.600000 0.000000 0.300000
0.313980 0.298572 -0.362632 0.000000 0.000000 1.000000
0.027198 0.126945 -0.313470 1.000000 0.000000 0.000000
0.140217 0.017393 -0.199136 0.000000 0.000000 1.000000
-0.521466 0.585081 -0.559364 1.000000 0.000000 0.000000
-0.539547 -0.014857 -0.174736 1.000000 0.000000 0.000000
-0.315830 -0.142724 0.364641 0.000000 0.500000 0.500000
-0.337780 0.405234 -0.424196 0.000000 0.000000 1.000000
-0.316515 0.107241 -0.252167 0.000000 0.000000 1.000000
0.474580 -0.148457 0.084381 0.000000 0.500000 0.500000
0.028757 -0.198795 0.633451 0.600000 0.000000 0.300000
-0.533831 0.254696 -0.387202 1.000000 0.000000 0.000000
-0.362649 0.614715 -0.553631 1.000000 0.000000 0.000000
0.387255 -0.148067 0.197546 0.000000 0.500000 0.500000
-0.093223 0.033409 -0.209536 0.000000 0.000000 1.000000
-0.189904 -0.144362 0.447005 0.600000 0.000000 0.300000
-0.015458 0.396598 -0.418095 0.000000 0.000000 1.000000
-0.412540 -0.149483 0.318577 0.600000 0.000000 0.300000
0.224257 -0.215004 0.547939 0.600000 0.000000 0.300000
0.238332 0.614357 -0.538413 1.000000 0.000000 0.000000
0.067279 0.586301 -0.559650 1.000000 0.000000 0.000000
-0.011358 -0.101264 -0.101531 0.500000 0.000000 0.500000
0.038931 -0.142720 0.576094 0.300000 0.000000 0.600000
0.252102 0.243498 -0.330835 0.000000 0.000000 1.000000
-0.259274 -0.218130 0.270384 0.600000 0.000000 0.300000
0.002183 -0.143291 0.453460 0.600000 0.000000 0.300000
0.240347 -0.149483 0.372002 0.600000 0.000000 0.300000
-0.150012 -0.162389 -0.138209 0.600000 0.000000 0.300000
-0.527772 -0.218130 0.202529 0.600000 0.000000 0.300000
-0.166736 0.136863 -0.319191 1.000000 0.000000 0.000000
-0.390942 -0.142724 -0.027061 0.000000 0.500000 0.500000
0.278105 -0.205557 0.605940 0.600000 0.000000 0.300000
-0.110413 -0.218130 0.232309 0.600000 0.000000 0.300000
0.552389 -0.145438 0.433559 0.600000 0.000000 0.300000
0.579802 0.276350 -0.353213 1.000000 0.000000 0.000000
0.390902 -0.218130 0.387870 0.600000 0.000000 0.300000
-0.507349 -0.142724 -0.030794 0.000000 0.500000 0.500000
-0.308934 -0.218130 0.363302 0.600000 0.000000 0.300000
-0.510634 0.535399 -0.497955 0.000000 0.000000 1.000000
-0.526766 -0.087384 -0.111592 0.500000 0.000000 0.500000
0.008656 0.275289 -0.399102 1.000000 0.000000 0.000000
0.430570 0.487320 -0.521546 1.000000 0.000000 0.000000
0.581261 -0.192534 0.009139 0.600000 0.000000 0.300000
0.298213 -0.149483 0.357087 0.600000 0.000000 0.300000
-0.568411 0.382688 -0.461039 1.000000 0.000000 0.000000
0.106180 0.479204 -0.466920 0.000000 0.000000 1.000000
-0.134119 -0.002065 -0.238999 1.000000 0.000000 0.000000
-0.110954 -0.039772 -0.159986 1.000000 0.000000 0.000000
-0.374458 0.251373 -0.335369 0.000000 0.000000 1.000000
-0.425116 0.362372 -0.399464 0.000000 0.000000 1.000000
0.354437 -0.041161 -0.159184 1.000000 0.000000 0.000000
-0.221746 0.117588 -0.308051 1.000000 0.000000 0.000000
0.386574 -0.141946 0.589234 0.600000 0.000000 0.300000
-0.049468 0.071323 -0.231419 0.000000 0.000000 1.000000
0.523388 -0.218130 0.249294 0.600000 0.000000 0.300000
0.078592 -0.142724 0.150329 0.000000 0.500000 0.500000
-0.179925 -0.142724 0.300326 0.000000 0.500000 0.500000
-0.251221 -0.142725 0.403357 0.000000 0.500000 0.500000
-0.380055 0.087603 -0.290757 1.000000 0.000000 0.000000
-0.578696 -0.031646 -0.167571 1.000000 0.000000 0.000000
-0.380015 -0.187626 0.674541 0.600000 0.000000 0.300000
-0.446159 -0.142724 0.263010 0.000000 0.500000 0.500000
-0.145108 -0.218130 0.407210 0.600000 0.000000 0.300000
0.150564 -0.123076 -0.098050 0.500000 0.000000 0.500000
-0.026190 0.404897 -0.473924 1.000000 0.000000 0.000000
0.042055 -0.079881 -0.122035 0.500000 0.000000 0.500000
0.217469 0.078276 -0.285373 1.000000 0.000000 0.000000
0.050917 -0.142724 0.378598 0.000000 0.500000 0.500000
-0.422710 0.338146 -0.435368 1.000000 0.000000 0.000000
0.202270 -0.218130 0.441478 0.600000 0.000000 0.300000
-0.471243 -0.218130 0.337659 0.600000 0.000000 0.300000
-0.521457 0.426884 -0.436012 0.000000 0.000000 1.000000
0.240158 -0.188118 0.672697 0.600000 0.000000 0.300000
0.483427 -0.206343 0.602323 0.600000 0.000000 0.300000
-0.123291 0.268810 -0.345445 0.000000 0.000000 1.000000
0.403949 0.523027 -0.540445 1.000000 0.000000 0.000000
-0.148084 0.323053 -0.426662 1.000000 0.000000 0.000000
-0.449653 0.587765 -0.559952 1.000000 0.000000 0.000000
0.024753 -0.132582 -0.184839 0.500000 0.000000 0.500000
-0.358236 -0.169716 0.699086 0.600000 0.000000 0.300000
-0.248262 0.070071 -0.280643 1.000000 0.000000 0.000000
-0.491924 -0.149483 0.240639 0.600000 0.000000 0.300000
-0.461539 0.244362 -0.381236 1.000000 0.000000 0.000000
0.337816 -0.077964 -0.125545 0.500000 0.000000 0.500000
-0.249434 -0.070077 -0.137855 0.500000 0.000000 0.500000
0.550009 0.256258 -0.331794 1.000000 0.000000 0.000000
0.478234 0.134478 -0.267887 0.000000 0.000000 1.000000
-0.185024 -0.140946 0.663822 0.600000 0.000000 0.300000
0.211905 -0.218130 -0.064825 0.600000 0.000000 0.300000
0.122904 0.453487 -0.501983 1.000000 0.000000 0.000000
0.103313 -0.218130 0.187200 0.600000 0.000000 0.300000
0.578811 -0.146126 0.386400 0.600000 0.000000 0.300000
0.250496 -0.180849 -0.144084 0.600000 0.000000 0.300000
0.069897 0.023083 -0.202421 0.000000 0.000000 1.000000
-0.299540 -0.149483 0.192629 0.600000 0.000000 0.300000
-0.510305 -0.189273 -0.143303 0.600000 0.000000 0.300000
0.356652 -0.142724 0.224199 0.000000 0.500000 0.500000
-0.157528 0.426970 -0.486663 1.000000 0.000000 0.000000
-0.438806 -0.218130 -0.058186 0.600000 0.000000 0.300000
0.189200 -0.066475 -0.201822 1.000000 0.000000 0.000000
-0.521398 0.160759 -0.332985 1.000000 0.000000 0.000000
-0.240494 0.323691 -0.427024 1.000000 0.000000 0.000000
-0.448801 -0.039537 -0.160121 1.000000 0.000000 0.000000
0.053707 -0.142724 0.224874 0.000000 0.500000 0.500000
0.581217 -0.190435 0.366501 0.600000 0.000000 0.300000
-0.316242 -0.218130 0.269100 0.600000 0.000000 0.300000
-0.456715 0.007983 -0.194560 0.000000 0.000000 1.000000
-0.473396 -0.148988 0.349474 0.000000 0.500000 0.500000
-0.510827 -0.141225 0.614056 0.600000 0.000000 0.300000
-0.043309 -0.123146 -0.098153 0.500000 0.000000 0.500000
-0.569850 0.468767 -0.510739 1.000000 0.000000 0.000000
0.130832 -0.078717 -0.124027 0.500000 0.000000 0.500000
-0.398874 0.575984 -0.515491 1.000000 0.000000 0.000000
0.306191 -0.142724 0.102777 0.000000 0.500000 0.500000
-0.136667 -0.142724 -0.024414 0.000000 0.500000 0.500000
-0.052035 0.608545 -0.534349 1.000000 0.000000 0.000000
0.451770 0.572626 -0.556614 1.000000 0.000000 0.000000
-0.400538 0.180725 -0.294587 0.000000 0.000000 1.000000
-0.395178 0.166402 -0.336237 1.000000 0.000000 0.000000
0.473076 -0.218130 0.314949 0.600000 0.000000 0.300000
-0.524959 -0.141329 0.538965 0.600000 0.000000 0.300000
-0.464164 0.235677 -0.326317 0.000000 0.000000 1.000000
0.247458 -0.218130 0.188904 0.600000 0.000000 0.300000
0.568253 -0.217916 -0.091006 0.600000 0.000000 0.300000
0.313459 -0.218130 0.374902 0.600000 0.000000 0.300000
-0.458690 -0.202159 0.620185 0.600000 0.000000 0.300000
-0.577125 0.269300 -0.394962 1.000000 0.000000 0.000000
0.009851 0.327507 -0.429247 1.000000 0.000000 0.000000
-0.292254 -0.141085 0.635756 0.600000 0.000000 0.300000
0.125242 -0.194616 0.648903 0.600000 0.000000 0.300000
0.321168 -0.142724 0.027331 0.000000 0.500000 0.500000
-0.098209 -0.196305 0.642731 0.600000 0.000000 0.300000
0.347273 0.477299 -0.515752 1.000000 0.000000 0.000000
0.395967 0.450808 -0.500453 1.000000 0.000000 0.000000
0.166823 0.047772 -0.216672 0.000000 0.000000 1.000000
-0.049794 0.500684 -0.478163 0.000000 0.000000 1.000000
0.568871 0.614574 -0.538682 1.000000 0.000000 0.000000
-0.026337 0.240548 -0.379037 1.000000 0.000000 0.000000
-0.161924 -0.009947 -0.234449 1.000000 0.000000 0.000000
0.398318 0.068182 -0.279566 1.000000 0.000000 0.000000
0.112252 -0.214309 0.554034 0.600000 0.000000 0.300000
-0.567335 0.156029 -0.273375 1.000000 0.000000 0.000000
-0.329345 -0.149483 0.138628 0.600000 0.000000 0.300000
-0.022809 -0.148584 0.388773 0.600000 0.000000 0.300000
0.485625 -0.218130 0.061146 0.600000 0.000000 0.300000
-0.516999 0.102455 -0.248769 0.000000 0.000000 1.000000
-0.333366 -0.218125 -0.094086 0.600000 0.000000 0.300000
0.135689 0.168893 -0.337679 1.000000 0.000000 0.000000
0.580617 0.381858 -0.414194 1.000000 0.000000 0.000000
0.576302 -0.192380 0.653739 0.600000 0.000000 0.300000
0.519899 -0.141538 0.479233 0.600000 0.000000 0.300000
0.074769 -0.218130 -0.020631 0.600000 0.000000 0.300000
-0.181031 0.102975 -0.249703 0.000000 0.000000 1.000000
0.489611 0.600966 -0.529917 1.000000 0.000000 0.000000
-0.514577 -0.142724 0.264970 0.000000 0.500000 0.500000
-0.218486 0.268063 -0.394917 1.000000 0.000000 0.000000
-0.535086 0.335209 -0.433673 1.000000 0.000000 0.000000
0.239320 0.437251 -0.442695 0.000000 0.000000 1.000000
-0.542204 -0.141203 0.574276 0.600000 0.000000 0.300000
-0.107036 -0.141067 0.673602 0.600000 0.000000 0.300000
-0.070441 0.437337 -0.441580 0.000000 0.000000 1.000000
0.417257 -0.218113 -0.097219 0.600000 0.000000 0.300000
0.534574 0.190854 -0.350392 1.000000 0.000000 0.000000
0.177503 -0.169392 -0.143908 0.600000 0.000000 0.300000
-0.346650 -0.121638 -0.186589 0.500000 0.000000 0.500000
0.387287 0.083719 -0.237852 0.000000 0.000000 1.000000
0.483149 0.404206 -0.423604 0.000000 0.000000 1.000000
-0.082841 -0.148483 0.317968 0.600000 0.000000 0.300000
0.279249 -0.218130 0.035447 0.600000 0.000000 0.300000
0.404965 -0.141422 -0.082044 0.600000 0.000000 0.300000
-0.423581 -0.143117 -0.042246 0.000000 0.500000 0.500000
0.545835 -0.218130 -0.070487 0.600000 0.000000 0.300000
-0.348387 0.511058 -0.484156 0.000000 0.000000 1.000000
0.232608 -0.145713 0.081509 0.000000 0.500000 0.500000
0.139018 -0.141904 0.585947 0.600000 0.000000 0.300000
-0.264751 -0.202342 -0.139947 0.600000 0.000000 0.300000
-0.008470 0.109284 -0.303268 1.000000 0.000000 0.000000
0.369660 -0.148606 -0.035795 0.000000 0.500000 0.500000
-0.242512 -0.147335 -0.110927 0.600000 0.000000 0.300000
0.143399 -0.037653 -0.161307 1.000000 0.000000 0.000000
-0.306325 0.340283 -0.436602 1.000000 0.000000 0.000000
0.297371 -0.104304 -0.187276 0.500000 0.000000 0.500000
0.270493 -0.078511 -0.124434 0.500000 0.000000 0.500000
-0.556897 -0.141158 0.651838 0.600000 0.000000 0.300000
0.581181 0.207594 -0.342187 1.000000 0.000000 0.000000
-0.185665 0.488700 -0.471242 0.000000 0.000000 1.000000
0.356710 0.229511 -0.322757 0.000000 0.000000 1.000000
-0.231474 0.522707 -0.540301 1.000000 0.000000 0.000000
0.302228 -0.142724 -0.037672 0.000000 0.500000 0.500000
-0.032229 -0.218130 0.145274 0.600000 0.000000 0.300000
-0.503257 -0.143120 0.453351 0.600000 0.000000 0.300000
-0.076674 0.289397 -0.357335 0.000000 0.000000 1.000000
0.319923 -0.090074 -0.189705 0.500000 0.000000 0.500000
-0.148075 -0.140947 0.662668 0.600000 0.000000 0.300000
-0.455120 -0.148139 0.422305 0.600000 0.000000 0.300000
-0.115054 0.324435 -0.427463 1.000000 0.000000 0.000000
0.438474 0.106018 -0.301403 1.000000 0.000000 0.000000
0.184412 -0.218130 0.138333 0.600000 0.000000 0.300000
-0.274807 -0.218130 0.035596 0.600000 0.000000 0.300000
-0.170130 0.603581 -0.562240 1.000000 0.000000 0.000000
0.382831 0.363284 -0.399990 0.000000 0.000000 1.000000
0.009117 -0.209374 0.587016 0.600000 0.000000 0.300000
0.336239 0.194359 -0.302458 0.000000 0.000000 1.000000
-0.454264 -0.019762 -0.228791 1.000000 0.000000 0.000000
0.090838 0.246610 -0.382549 1.000000 0.000000 0.000000
-0.054789 0.235166 -0.326021 0.000000 0.000000 1.000000
-0.237303 -0.141946 0.523561 0.600000 0.000000 0.300000
0.382251 -0.218130 0.226933 0.600000 0.000000 0.300000
-0.503326 0.083368 -0.238358 0.000000 0.000000 1.000000
-0.208296 -0.149483 0.149180 0.600000 0.000000 0.300000
-0.532350 -0.142724 0.295469 0.000000 0.500000 0.500000
0.168411 -0.218130 0.025741 0.600000 0.000000 0.300000
-0.174331 -0.142972 0.165426 0.000000 0.500000 0.500000
-0.400864 0.397956 -0.420005 0.000000 0.000000 1.000000
0.438099 -0.087806 -0.111072 0.500000 0.000000 0.500000
0.549673 -0.141579 0.586618 0.600000 0.000000 0.300000
-0.493764 -0.218130 0.265192 0.600000 0.000000 0.300000
0.072866 -0.141153 0.647624 0.600000 0.000000 0.300000
0.429108 -0.142724 0.087665 0.000000 0.500000 0.500000
0.424252 -0.218130 0.017863 0.600000 0.000000 0.300000
0.549443 -0.218036 0.494281 0.600000 0.000000 0.300000
0.222263 -0.147817 0.412263 0.000000 0.500000 0.500000
-0.553609 0.569908 -0.512049 1.000000 0.000000 0.000000
-0.583468 0.240509 -0.347525 1.000000 0.000000 0.000000
0.581215 -0.183671 0.184373 0.600000 0.000000 0.300000
0.064195 -0.218130 0.090940 0.600000 0.000000 0.300000
0.285926 -0.142724 0.220873 0.000000 0.500000 0.500000
-0.033414 0.589757 -0.560398 1.000000 0.000000 0.000000
0.098094 -0.149483 0.394940 0.600000 0.000000 0.300000
0.442827 0.326842 -0.428897 1.000000 0.000000 0.000000
0.014244 -0.143610 0.690238 0.600000 0.000000 0.300000
0.577820 0.416180 -0.477002 1.000000 0.000000 0.000000
0.247105 -0.162131 -0.155071 0.500000 0.000000 0.500000
-0.035872 0.142468 -0.322431 1.000000 0.000000 0.000000
-0.400320 -0.218130 0.099381 0.600000 0.000000 0.300000
0.035019 0.190780 -0.350310 1.000000 0.000000 0.000000
-0.274655 0.250135 -0.384569 1.000000 0.000000 0.000000
0.126565 -0.142724 0.046386 0.000000 0.500000 0.500000
-0.285991 0.160588 -0.282956 0.000000 0.000000 1.000000
0.407970 0.224177 -0.319676 0.000000 0.000000 1.000000
0.580841 -0.155046 0.342715 0.600000 0.000000 0.300000
-0.017161 -0.143523 -0.103550 0.600000 0.000000 0.300000
-0.144930 -0.117355 -0.097845 0.500000 0.000000 0.500000
-0.570631 -0.217914 0.169358 0.600000 0.000000 0.300000
-0.256362 0.453415 -0.501911 1.000000 0.000000 0.000000
-0.358916 -0.048823 -0.212013 1.000000 0.000000 0.000000
0.158837 -0.181038 -0.144066 0.600000 0.000000 0.300000
0.216728 0.433936 -0.440784 0.000000 0.000000 1.000000
0.174825 -0.140985 0.611130 0.600000 0.000000 0.300000
0.218001 -0.206575 0.601210 0.600000 0.000000 0.300000
-0.289236 0.027331 -0.206027 0.000000 0.000000 1.000000
-0.317656 -0.062303 -0.204231 1.000000 0.000000 0.000000
0.501229 0.481594 -0.518245 1.000000 0.000000 0.000000
-0.199627 0.094665 -0.244902 0.000000 0.000000 1.000000
-0.404334 0.366171 -0.401657 0.000000 0.000000 1.000000
-0.445330 -0.125160 -0.098380 0.500000 0.000000 0.500000
-0.204958 0.496197 -0.526585 1.000000 0.000000 0.000000
-0.147251 -0.149483 -0.001087 0.600000 0.000000 0.300000
-0.115086 0.445702 -0.446418 0.000000 0.000000 1.000000
0.071385 0.300462 -0.413632 1.000000 0.000000 0.000000
-0.361577 -0.145493 0.004215 0.000000 0.500000 0.500000
0.361570 -0.143873 -0.104286 0.600000 0.000000 0.300000
0.203673 -0.125574 -0.186268 0.500000 0.000000 0.500000
-0.058723 0.212185 -0.312752 0.000000 0.000000 1.000000
0.459250 0.368914 -0.403241 0.000000 0.000000 1.000000
-0.579398 -0.158264 0.006478 0.600000 0.000000 0.300000
0.240882 0.363685 -0.400222 0.000000 0.000000 1.000000
0.543331 -0.078709 -0.124038 0.500000 0.000000 0.500000
-0.141070 -0.218130 0.014906 0.600000 0.000000 0.300000
0.295299 0.101240 -0.247532 0.000000 0.000000 1.000000
0.005105 -0.218130 0.163667 0.600000 0.000000 0.300000
-0.572021 -0.217872 0.250130 0.600000 0.000000 0.300000
-0.398939 -0.218130 0.018444 0.600000 0.000000 0.300000
0.003810 -0.218130 0.039882 0.600000 0.000000 0.300000
0.519786 0.481177 -0.466608 1.000000 0.000000 0.000000
-0.213373 -0.217315 -0.113866 0.600000 0.000000 0.300000
0.023056 0.209920 -0.361349 1.000000 0.000000 0.000000
0.282106 -0.147862 0.433090 0.600000 0.000000 0.300000
0.156937 -0.142724 0.215164 0.000000 0.500000 0.500000
-0.216900 0.233570 -0.325100 0.000000 0.000000 1.000000
-0.194095 -0.149890 0.285842 0.000000 0.500000 0.500000
0.336673 -0.140946 0.476682 0.600000 0.000000 0.300000
-0.086669 0.040331 -0.263496 1.000000 0.000000 0.000000
0.442316 -0.159165 -0.121218 0.500000 0.000000 0.500000
0.437189 -0.142724 0.235253 0.000000 0.500000 0.500000
0.473092 -0.156119 0.697276 0.600000 0.000000 0.300000
-0.542995 -0.218130 0.281106 0.600000 0.000000 0.300000
-0.010573 0.200816 -0.356101 1.000000 0.000000 0.000000
0.012779 -0.217605 -0.110776 0.600000 0.000000 0.300000
0.098464 0.278001 -0.350752 0.000000 0.000000 1.000000
-0.546920 -0.142724 0.334297 0.000000 0.500000 0.500000
-0.067647 0.495302 -0.526090 1.000000 0.000000 0.000000
0.222449 0.173524 -0.290113 0.000000 0.000000 1.000000
-0.245574 -0.217881 0.502149 0.600000 0.000000 0.300000
0.165487 -0.142724 0.096289 0.000000 0.500000 0.500000
0.556145 0.010355 -0.189237 1.000000 0.000000 0.000000
0.114007 -0.142724 -0.019136 0.000000 0.500000 0.500000
0.301625 0.016161 -0.249520 1.000000 0.000000 0.000000
-0.415263 -0.142724 0.053265 0.000000 0.500000 0.500000
-0.121091 -0.149483 0.026984 0.600000 0.000000 0.300000
0.581208 -0.159392 0.255305 0.600000 0.000000 0.300000
-0.570800 -0.217908 0.111198 0.600000 0.000000 0.300000
-0.306525 -0.088367 -0.110415 0.500000 0.000000 0.500000
-0.221534 0.204985 -0.358499 1.000000 0.000000 0.000000
0.548760 -0.141399 -0.083548 0.600000 0.000000 0.300000
-0.114510 0.193540 -0.301986 0.000000 0.000000 1.000000
0.426323 -0.016011 -0.174158 1.000000 0.000000 0.000000
-0.538438 0.182047 -0.291654 1.000000 0.000000 0.000000
-0.329788 -0.160833 -0.159695 0.500000 0.000000 0.500000
0.448763 -0.142725 0.302165 0.000000 0.500000 0.500000
-0.327840 0.488912 -0.522404 1.000000 0.000000 0.000000
-0.057518 -0.143253 -0.070443 0.600000 0.000000 0.300000
-0.047704 0.243481 -0.380730 1.000000 0.000000 0.000000
-0.494954 -0.218130 -0.072358 0.600000 0.000000 0.300000
-0.428963 -0.142724 0.396449 0.000000 0.500000 0.500000
0.132195 -0.148672 0.133227 0.600000 0.000000 0.300000
0.355476 0.190353 -0.350088 1.000000 0.000000 0.000000
-0.110602 -0.149483 0.066104 0.600000 0.000000 0.300000
-0.124088 -0.218130 0.037100 0.600000 0.000000 0.300000
-0.568695 0.051950 -0.270117 1.000000 0.000000 0.000000
-0.485171 0.276613 -0.349950 0.000000 0.000000 1.000000
-0.519679 -0.218130 0.058767 0.600000 0.000000 0.300000
-0.208165 0.101402 -0.298720 1.000000 0.000000 0.000000
-0.036364 -0.218130 0.053143 0.600000 0.000000 0.300000
-0.198871 -0.205005 0.608324 0.600000 0.000000 0.300000
-0.536326 0.127454 -0.260422 0.000000 0.000000 1.000000
-0.276551 -0.218130 0.285118 0.600000 0.000000 0.300000
-0.583479 0.460646 -0.472725 1.000000 0.000000 0.000000
-0.285176 -0.084432 -0.191667 0.500000 0.000000 0.500000
-0.126253 0.440452 -0.494444 1.000000 0.000000 0.000000
0.213136 -0.149483 0.266217 0.600000 0.000000 0.300000
0.372867 -0.218130 0.328774 0.600000 0.000000 0.300000
-0.412322 -0.218130 0.424733 0.600000 0.000000 0.300000
0.394446 0.314316 -0.371708 0.000000 0.000000 1.000000
-0.454747 -0.218130 0.121523 0.600000 0.000000 0.300000
0.330565 -0.145561 -0.179217 0.500000 0.000000 0.500000
0.308299 0.035794 -0.209760 0.000000 0.000000 1.000000
-0.161093 -0.148618 0.285257 0.600000 0.000000 0.300000
0.414777 -0.145909 -0.108601 0.600000 0.000000 0.300000
-0.131299 0.019766 -0.201661 0.000000 0.000000 1.000000
0.562393 0.099356 -0.297565 1.000000 0.000000 0.000000
-0.334395 0.454751 -0.451855 0.000000 0.000000 1.000000
0.190751 -0.218130 -0.037230 0.600000 0.000000 0.300000
0.090252 -0.142724 0.048689 0.000000 0.500000 0.500000
0.208171 0.010974 -0.246526 1.000000 0.000000 0.000000
-0.505169 -0.142724 0.365563 0.000000 0.500000 0.500000
-0.284892 -0.199109 0.632215 0.600000 0.000000 0.300000
-0.215899 -0.218130 -0.003039 0.600000 0.000000 0.300000
-0.244740 -0.187968 0.673260 0.600000 0.000000 0.300000
-0.459924 -0.149483 0.223687 0.600000 0.000000 0.300000
0.033223 0.378317 -0.408668 0.000000 0.000000 1.000000
-0.192288 -0.218130 0.384030 0.600000 0.000000 0.300000
0.246871 -0.142724 0.204546 0.000000 0.500000 0.500000
-0.406622 0.431856 -0.439584 0.000000 0.000000 1.000000
0.395198 -0.218130 0.073675 0.600000 0.000000 0.300000
-0.027751 -0.218130 0.018211 0.600000 0.000000 0.300000
-0.215019 -0.218130 0.130178 0.600000 0.000000 0.300000
-0.583397 -0.159784 0.678851 0.600000 0.000000 0.300000
0.345092 -0.218130 0.160616 0.600000 0.000000 0.300000
0.553296 0.381525 -0.460494 1.000000 0.000000 0.000000
0.410291 -0.144549 -0.062581 0.600000 0.000000 0.300000
-0.029676 -0.154835 -0.170230 0.500000 0.000000 0.500000
-0.110223 -0.218130 -0.047592 0.600000 0.000000 0.300000
0.171741 -0.142724 0.036972 0.000000 0.500000 0.500000
-0.342268 0.614041 -0.554500 1.000000 0.000000 0.000000
0.567937 0.365258 -0.394709 1.000000 0.000000 0.000000
0.573274 -0.216994 0.210392 0.600000 0.000000 0.300000
0.025508 0.031030 -0.258108 1.000000 0.000000 0.000000
0.154974 0.260742 -0.390712 1.000000 0.000000 0.000000
-0.374506 0.330231 -0.430798 1.000000 0.000000 0.000000
-0.233339 0.191565 -0.300845 0.000000 0.000000 1.000000
0.411874 -0.142725 0.278316 0.000000 0.500000 0.500000
-0.581582 -0.147380 0.465874 0.600000 0.000000 0.300000
0.042737 -0.141169 0.647283 0.600000 0.300000 0.000000
0.315059 0.294118 -0.409988 1.000000 0.000000 0.000000
0.046790 -0.142724 0.140947 0.000000 0.500000 0.500000
-0.571014 -0.007193 -0.179018 1.000000 0.000000 0.000000
0.393991 -0.196500 0.642005 0.600000 0.000000 0.300000
-0.351617 0.347217 -0.440604 1.000000 0.000000 0.000000
0.046331 0.577447 -0.516443 1.000000 0.000000 0.000000
0.462601 0.101262 -0.248714 0.000000 0.000000 1.000000
-0.579994 0.360454 -0.393046 1.000000 0.000000 0.000000
-0.078802 -0.142720 0.534073 0.300000 0.000000 0.600000
0.378815 -0.142724 0.239147 0.000000 0.500000 0.500000
-0.215165 -0.163612 -0.146817 0.500000 0.000000 0.500000
0.151893 -0.142724 0.392296 0.000000 0.500000 0.500000
-0.235314 0.526001 -0.492780 0.000000 0.000000 1.000000
-0.553250 0.351578 -0.443121 1.000000 0.000000 0.000000
-0.032566 0.451666 -0.449861 0.000000 0.000000 1.000000
-0.141074 0.244464 -0.331392 0.000000 0.000000 1.000000
0.308681 -0.148483 -0.004111 0.600000 0.000000 0.300000
0.495563 -0.211354 0.575334 0.600000 0.000000 0.300000
-0.339279 -0.141309 0.468989 0.600000 0.000000 0.300000
-0.241089 0.068124 -0.229577 0.000000 0.000000 1.000000
0.207517 -0.218130 0.216222 0.600000 0.000000 0.300000
0.350114 -0.218130 -0.003447 0.600000 0.000000 0.300000
0.507033 -0.145709 0.442735 0.600000 0.000000 0.300000
0.119328 0.317017 -0.423199 1.000000 0.000000 0.000000
-0.026613 -0.150246 0.153232 0.000000 0.500000 0.500000
-0.513430 0.259166 -0.389781 1.000000 0.000000 0.000000
0.208287 -0.218130 0.117607 0.600000 0.000000 0.300000
0.205632 -0.142724 0.337054 0.000000 0.500000 0.500000
0.484321 -0.218130 0.145019 0.600000 0.000000 0.300000
-0.070230 0.300795 -0.413813 1.000000 0.000000 0.000000
-0.537417 -0.092277 -0.188939 0.500000 0.000000 0.500000
0.008296 -0.154766 -0.122351 0.600000 0.000000 0.300000
0.557428 0.461733 -0.450638 1.000000 0.000000 0.000000
-0.234696 -0.167398 -0.142407 0.600000 0.000000 0.300000
-0.266605 -0.141577 -0.090044 0.600000 0.000000 0.300000
-0.525330 0.003591 -0.242264 1.000000 0.000000 0.000000
0.225006 0.311579 -0.370133 0.000000 0.000000 1.000000
-0.561357 0.193192 -0.294977 1.000000 0.000000 0.000000
0.562744 -0.143646 -0.035906 0.600000 0.000000 0.300000
0.579359 -0.211244 0.025401 0.600000 0.000000 0.300000
-0.583456 -0.106083 -0.120864 0.500000 0.000000 0.500000
-0.207659 0.344089 -0.438804 1.000000 0.000000 0.000000
0.158057 -0.142724 -0.018138 0.000000 0.500000 0.500000
-0.242379 -0.218130 0.308135 0.600000 0.000000 0.300000
-0.467285 -0.152597 0.697953 0.600000 0.000000 0.300000
0.113384 -0.161026 -0.158971 0.500000 0.000000 0.500000
-0.324218 -0.141473 0.576919 0.600000 0.000000 0.300000
-0.272454 -0.212197 0.570053 0.600000 0.000000 0.300000
0.360242 -0.148598 0.024693 0.600000 0.000000 0.300000
0.580933 0.041001 -0.249252 1.000000 0.000000 0.000000
-0.144578 -0.218130 0.297126 0.600000 0.000000 0.300000
-0.359837 -0.162941 -0.139052 0.600000 0.000000 0.300000
-0.360193 -0.146123 -0.178911 0.500000 0.000000 0.500000
0.557386 0.404442 -0.417464 1.000000 0.000000 0.000000
0.223863 0.572531 -0.514293 1.000000 0.000000 0.000000
-0.390959 0.575145 -0.557166 1.000000 0.000000 0.000000
0.407653 0.090000 -0.292154 1.000000 0.000000 0.000000
-0.352401 -0.147146 -0.107201 0.500000 0.000000 0.500000
-0.245926 -0.218130 0.341437 0.600000 0.000000 0.300000
0.052598 0.512860 -0.535655 1.000000 0.000000 0.000000
-0.157361 0.190467 -0.300211 0.000000 0.000000 1.000000
-0.099740 -0.218130 -0.020422 0.600000 0.000000 0.300000
-0.582775 -0.199754 0.022305 0.600000 0.000000 0.300000
-0.197052 -0.142724 0.260501 0.000000 0.500000 0.500000
-0.141229 -0.005479 -0.183788 1.000000 0.000000 0.000000
0.078183 -0.149483 0.375503 0.600000 0.000000 0.300000
-0.270681 -0.013012 -0.177151 1.000000 0.000000 0.000000
0.046104 -0.218130 0.257656 0.600000 0.000000 0.300000
-0.185002 0.019198 -0.251273 1.000000 0.000000 0.000000
0.417630 0.610113 -0.558852 1.000000 0.000000 0.000000
-0.052440 0.349840 -0.391069 0.000000 0.000000 1.000000
-0.493394 -0.141316 0.527680 0.600000 0.000000 0.300000
0.486013 0.106996 -0.252026 0.000000 0.000000 1.000000
0.315865 -0.149483 0.193850 0.600000 0.000000 0.300000
-0.574357 -0.216660 0.523153 0.600000 0.000000 0.300000
-0.438834 0.306527 -0.417124 1.000000 0.000000 0.000000
0.580688 -0.196801 0.566365 0.600000 0.000000 0.300000
-0.258546 -0.218130 -0.082056 0.600000 0.000000 0.300000
-0.436774 -0.218130 0.190905 0.600000 0.000000 0.300000
0.170464 0.396385 -0.419098 0.000000 0.000000 1.000000
0.368655 -0.149483 0.205206 0.600000 0.000000 0.300000
-0.468376 0.446828 -0.498094 1.000000 0.000000 0.000000
0.311992 -0.046355 -0.156185 1.000000 0.000000 0.000000
0.391870 0.009446 -0.245646 1.000000 0.000000 0.000000
-0.572318 -0.146165 0.693866 0.600000 0.000000 0.300000
0.119259 -0.142724 0.291914 0.000000 0.500000 0.500000
-0.206970 -0.149483 -0.009985 0.600000 0.000000 0.300000
0.147550 0.354275 -0.444715 1.000000 0.000000 0.000000
-0.208238 -0.147463 0.190045 0.000000 0.500000 0.500000
0.254932 -0.218130 0.160789 0.600000 0.000000 0.300000
-0.211528 -0.218130 -0.043866 0.600000 0.000000 0.300000
-0.560883 0.561902 -0.553986 1.000000 0.000000 0.000000
-0.582753 -0.207153 0.264310 0.600000 0.000000 0.300000
-0.233941 -0.218130 0.424230 0.600000 0.000000 0.300000
0.419364 -0.149483 0.399764 0.600000 0.000000 0.300000
-0.454667 -0.207941 -0.136250 0.600000 0.000000 0.300000
-0.090569 0.255520 -0.337769 0.000000 0.000000 1.000000
-0.412399 -0.218130 0.386434 0.600000 0.000000 0.300000
-0.452997 0.351818 -0.443260 1.000000 0.000000 0.000000
-0.521382 -0.216586 0.530192 0.600000 0.000000 0.300000
-0.266765 0.557876 -0.552908 1.000000 0.000000 0.000000
0.217159 -0.186972 -0.143516 0.600000 0.000000 0.300000
-0.388438 -0.158090 0.697957 0.600000 0.000000 0.300000
0.009470 0.298641 -0.362237 0.000000 0.000000 1.000000
0.580717 -0.160509 0.615285 0.600000 0.000000 0.300000
0.279833 0.580714 -0.558418 1.000000 0.000000 0.000000
-0.554025 0.597791 -0.562020 1.000000 0.000000 0.000000
-0.582738 -0.151907 0.335937 0.600000 0.000000 0.300000
-0.316517 -0.142724 0.253092 0.000000 0.500000 0.500000
0.441250 0.500563 -0.479249 0.000000 0.000000 1.000000
-0.251684 0.289112 -0.357171 0.000000 0.000000 1.000000
0.088378 0.605402 -0.532525 1.000000 0.000000 0.000000
0.141083 -0.141821 0.462406 0.600000 0.000000 0.300000
-0.168377 0.410311 -0.425973 0.000000 0.000000 1.000000
0.191237 -0.218130 0.384673 0.600000 0.000000 0.300000
-0.340511 -0.141947 0.498303 0.600000 0.000000 0.300000
-0.120824 -0.149483 0.129305 0.600000 0.000000 0.300000
-0.497551 -0.141394 0.499175 0.600000 0.000000 0.300000
0.474767 -0.141946 0.612546 0.600000 0.000000 0.300000
0.279341 0.096072 -0.295648 1.000000 0.000000 0.000000
0.264696 0.403880 -0.423416 0.000000 0.000000 1.000000
0.417859 0.524667 -0.492886 0.000000 0.000000 1.000000
-0.016399 -0.163931 -0.139797 0.600000 0.000000 0.300000
-0.040957 -0.140946 0.672464 0.600000 0.000000 0.300000
0.048913 0.109311 -0.252204 0.000000 0.000000 1.000000
-0.393903 -0.218125 -0.094205 0.600000 0.000000 0.300000
0.124578 -0.200237 -0.140743 0.600000 0.000000 0.300000
-0.172711 -0.148846 -0.006518 0.000000 0.500000 0.500000
0.565200 -0.141832 0.681624 0.600000 0.000000 0.300000
0.335846 0.254475 -0.387108 1.000000 0.000000 0.000000
-0.292560 -0.217551 -0.111355 0.600000 0.000000 0.300000
0.579856 -0.149817 0.107130 0.600000 0.000000 0.300000
-0.493645 -0.077029 -0.195731 1.000000 0.000000 0.000000
-0.448341 -0.218130 0.144875 0.600000 0.000000 0.300000
0.424576 -0.218130 0.179411 0.600000 0.000000 0.300000
-0.212104 -0.149303 0.081509 0.000000 0.500000 0.500000
0.210007 -0.218130 0.045648 0.600000 0.000000 0.300000
-0.408705 0.206059 -0.309215 0.000000 0.000000 1.000000
0.488124 -0.218130 -0.083973 0.600000 0.000000 0.300000
0.518540 -0.218001 -0.106559 0.600000 0.000000 0.300000
0.459344 0.343165 -0.388373 0.000000 0.000000 1.000000
0.246772 -0.195345 0.646278 0.600000 0.000000 0.300000
0.370300 0.222237 -0.368499 1.000000 0.000000 0.000000
0.515812 0.149938 -0.326777 1.000000 0.000000 0.000000
-0.258940 -0.142724 0.186765 0.000000 0.500000 0.500000
-0.100402 -0.142720 0.538492 0.300000 0.000000 0.600000
-0.523759 -0.218116 -0.096342 0.600000 0.000000 0.300000
0.328807 -0.218107 -0.098579 0.600000 0.000000 0.300000
-0.009241 -0.142724 0.049709 0.000000 0.500000 0.500000
-0.445847 -0.142724 0.174544 0.000000 0.500000 0.500000
0.051397 -0.218130 0.300468 0.600000 0.000000 0.300000
-0.008843 -0.194116 0.650712 0.600000 0.000000 0.300000
0.154753 0.355224 -0.395336 0.000000 0.000000 1.000000
-0.425728 0.185482 -0.297333 0.000000 0.000000 1.000000
-0.354210 -0.149087 0.341656 0.600000 0.000000 0.300000
-0.437276 -0.218130 0.305492 0.600000 0.000000 0.300000
-0.017689 0.467072 -0.509819 1.000000 0.000000 0.000000
-0.255209 -0.148572 -0.046114 0.600000 0.000000 0.300000
0.245827 -0.218126 -0.093825 0.600000 0.000000 0.300000
0.372181 0.452544 -0.501454 1.000000 0.000000 0.000000
0.038344 0.468042 -0.460476 0.000000 0.000000 1.000000
0.146812 -0.147680 -0.046149 0.600000 0.000000 0.300000
-0.246503 -0.141733 0.486685 0.600000 0.000000 0.300000
-0.237167 0.003730 -0.191264 0.000000 0.000000 1.000000
0.529772 0.612888 -0.537167 1.000000 0.000000 0.000000
-0.230817 -0.218130 0.379269 0.600000 0.000000 0.300000
0.293264 -0.149483 0.118404 0.600000 0.000000 0.300000
0.301981 0.312837 -0.420801 1.000000 0.000000 0.000000
0.098750 -0.200467 0.626880 0.600000 0.000000 0.300000
-0.152266 0.270419 -0.396278 1.000000 0.000000 0.000000
-0.271481 -0.086765 -0.112341 0.500000 0.000000 0.500000
0.300302 0.014109 -0.197234 0.000000 0.000000 1.000000
-0.384789 -0.032739 -0.221291 1.000000 0.000000 0.000000
-0.298343 -0.218130 0.394875 0.600000 0.000000 0.300000
0.450748 -0.218130 0.284684 0.600000 0.000000 0.300000
-0.439310 0.254262 -0.337040 0.000000 0.000000 1.000000
0.334809 0.272206 -0.347405 0.000000 0.000000 1.000000
0.239946 -0.209625 0.585594 0.600000 0.000000 0.300000
0.528414 -0.217951 0.498748 0.600000 0.000000 0.300000
-0.017834 -0.153904 0.698674 0.600000 0.000000 0.300000
-0.581163 -0.146289 0.492075 0.600000 0.000000 0.300000
-0.402260 -0.218130 -0.068852 0.600000 0.000000 0.300000
0.282925 -0.140946 0.671816 0.600000 0.000000 0.300000
0.079473 -0.147477 0.328224 0.000000 0.500000 0.500000
0.350453 0.357515 -0.446600 1.000000 0.000000 0.000000
-0.357025 0.237770 -0.327526 0.000000 0.000000 1.000000
-0.440554 0.482532 -0.518712 1.000000 0.000000 0.000000
0.315402 -0.010664 -0.178552 1.000000 0.000000 0.000000
-0.248962 0.163733 -0.284769 0.000000 0.000000 1.000000
0.321056 -0.142724 0.286730 0.000000 0.500000 0.500000
-0.580768 -0.172376 -0.061083 0.600000 0.000000 0.300000
0.479647 -0.142036 0.460709 0.600000 0.000000 0.300000
0.330188 0.456376 -0.453735 0.000000 0.000000 1.000000
0.182166 0.211487 -0.312348 0.000000 0.000000 1.000000
-0.045335 0.027067 -0.255817 1.000000 0.000000 0.000000
-0.028993 0.167407 -0.336815 1.000000 0.000000 0.000000
-0.017621 -0.067191 -0.201408 1.000000 0.000000 0.000000
-0.400680 0.616546 -0.540312 1.000000 0.000000 0.000000
-0.122095 -0.141563 -0.078073 0.600000 0.000000 0.300000
-0.124205 0.076097 -0.234177 0.000000 0.000000 1.000000
-0.243000 -0.148483 0.381570 0.600000 0.000000 0.300000
-0.529420 -0.161835 0.699045 0.600000 0.000000 0.300000
0.506007 -0.218130 0.177620 0.600000 0.000000 0.300000
-0.178085 -0.218130 -0.020542 0.600000 0.000000 0.300000
-0.409363 0.276845 -0.350084 0.000000 0.000000 1.000000
0.254470 -0.148342 0.244307 0.000000 0.500000 0.500000
0.193208 0.566644 -0.510517 1.000000 0.000000 0.000000
0.042485 0.246634 -0.382558 1.000000 0.000000 0.000000
-0.426050 -0.110840 -0.098435 0.500000 0.000000 0.500000
0.049878 -0.142724 0.193948 0.000000 0.500000 0.500000
-0.354426 -0.218130 0.273790 0.600000 0.000000 0.300000
0.322342 -0.188177 0.672482 0.600000 0.000000 0.300000
-0.151691 0.122441 -0.260941 0.000000 0.000000 1.000000
-0.567982 -0.210700 0.578587 0.600000 0.000000 0.300000
0.228752 -0.149483 0.230587 0.600000 0.000000 0.300000
-0.268654 -0.146712 -0.002408 0.000000 0.500000 0.500000
-0.026995 -0.144149 0.328224 0.000000 0.500000 0.500000
0.164603 -0.142724 0.127581 0.000000 0.500000 0.500000
0.368076 -0.209298 0.587349 0.600000 0.000000 0.300000
-0.437793 0.509142 -0.483130 0.000000 0.000000 1.000000
-0.540904 -0.200345 -0.020720 0.600000 0.000000 0.300000
0.581216 -0.198969 0.244486 0.600000 0.000000 0.300000
-0.215185 -0.141946 0.542750 0.600000 0.000000 0.300000
0.023451 -0.148496 0.042852 0.600000 0.000000 0.300000
0.222526 -0.218130 0.322756 0.600000 0.000000 0.300000
-0.377635 -0.148683 0.375183 0.600000 0.000000 0.300000
-0.258133 0.386865 -0.463502 1.000000 0.000000 0.000000
-0.233508 -0.218130 0.120883 0.600000 0.000000 0.300000
0.434121 -0.149483 0.196920 0.600000 0.000000 0.300000
0.311556 -0.081846 -0.118665 0.500000 0.000000 0.500000
-0.327938 0.075738 -0.283911 1.000000 0.000000 0.000000
-0.162148 -0.218130 0.120803 0.600000 0.000000 0.300000
-0.243475 0.044949 -0.266161 1.000000 0.000000 0.000000
0.462578 0.464149 -0.508173 1.000000 0.000000 0.000000
0.006910 -0.218130 0.077441 0.600000 0.000000 0.300000
-0.053576 -0.218130 0.238617 0.600000 0.000000 0.300000
-0.276897 -0.128864 -0.185999 0.500000 0.000000 0.500000
0.429947 -0.218130 0.128159 0.600000 0.000000 0.300000
-0.265262 -0.142724 0.357378 0.000000 0.500000 0.500000
0.396587 -0.142724 0.429942 0.000000 0.500000 0.500000
0.414295 0.479002 -0.466803 0.000000 0.000000 1.000000
-0.209399 -0.106466 -0.187175 0.500000 0.000000 0.500000
-0.304143 -0.098952 -0.187829 0.500000 0.000000 0.500000
-0.566991 0.053332 -0.213962 1.000000 0.000000 0.000000
-0.265120 -0.218130 0.186806 0.600000 0.000000 0.300000
0.414623 -0.142724 0.167766 0.000000 0.500000 0.500000
0.184311 0.133242 -0.317103 1.000000 0.000000 0.000000
0.307268 -0.142724 0.254689 0.000000 0.500000 0.500000
-0.003969 -0.128081 -0.186063 0.500000 0.000000 0.500000
0.376518 -0.217887 -0.107766 0.600000 0.000000 0.300000
-0.128866 0.492484 -0.473419 0.000000 0.000000 1.000000
-0.563508 0.084825 -0.289153 1.000000 0.000000 0.000000
-0.075406 0.505429 -0.480908 0.000000 0.000000 1.000000
-0.181982 0.332057 -0.381960 0.000000 0.000000 1.000000
0.474807 -0.049603 -0.211563 1.000000 0.000000 0.000000
0.116327 -0.048967 -0.211930 1.000000 0.000000 0.000000
-0.401911 0.236064 -0.376446 1.000000 0.000000 0.000000
-0.072229 -0.142724 0.003965 0.000000 0.500000 0.500000
0.374999 0.380467 -0.459874 1.000000 0.000000 0.000000
-0.541432 0.292557 -0.409051 1.000000 0.000000 0.000000
0.293598 -0.200768 0.625688 0.600000 0.000000 0.300000
0.562997 0.049456 -0.268744 1.000000 0.000000 0.000000
-0.380495 0.241151 -0.379382 1.000000 0.000000 0.000000
0.580939 0.258178 -0.375437 1.000000 0.000000 0.000000
-0.583404 0.322283 -0.407652 1.000000 0.000000 0.000000
-0.560730 -0.141125 0.458298 0.600000 0.000000 0.300000
-0.402327 0.333532 -0.382812 0.000000 0.000000 1.000000
0.525080 -0.142724 0.224886 0.000000 0.500000 0.500000
0.128198 -0.206064 0.603570 0.600000 0.000000 0.300000
-0.228034 -0.086623 -0.112513 0.500000 0.000000 0.500000
-0.246599 -0.218130 -0.048920 0.600000 0.000000 0.300000
0.564014 -0.080266 -0.193857 1.000000 0.000000 0.000000
0.099708 -0.141292 0.501784 0.600000 0.000000 0.300000
0.326215 -0.149483 0.224478 0.600000 0.000000 0.300000
-0.020360 0.352898 -0.392837 0.000000 0.000000 1.000000
0.546178 -0.149674 0.392558 0.000000 0.500000 0.500000
0.362960 -0.218130 0.466392 0.600000 0.000000 0.300000
0.277728 -0.142724 0.320952 0.000000 0.500000 0.500000
0.164945 -0.218130 0.298061 0.600000 0.000000 0.300000
-0.563590 0.541066 -0.496340 1.000000 0.000000 0.000000
-0.043934 -0.218130 0.285462 0.600000 0.000000 0.300000
-0.022088 0.038848 -0.212559 0.000000 0.000000 1.000000
0.013124 -0.016278 -0.230799 1.000000 0.000000 0.000000
-0.013859 -0.207732 -0.136389 0.600000 0.000000 0.300000
0.309360 -0.218130 0.252584 0.600000 0.000000 0.300000
0.136998 0.309869 -0.369149 0.000000 0.000000 1.000000
0.530110 0.278013 -0.400714 1.000000 0.000000 0.000000
0.063936 -0.218130 0.054914 0.600000 0.000000 0.300000
-0.566447 0.258043 -0.332342 1.000000 0.000000 0.000000
0.387439 -0.202053 0.620612 0.600000 0.000000 0.300000
-0.262388 -0.218051 0.492014 0.600000 0.000000 0.300000
0.353383 0.613490 -0.554635 1.000000 0.000000 0.000000
-0.008503 -0.143004 0.484929 0.300000 0.000000 0.600000
-0.499794 -0.149483 0.128127 0.600000 0.000000 0.300000
0.416471 0.366194 -0.401671 0.000000 0.000000 1.000000
0.086024 0.318427 -0.424011 1.000000 0.000000 0.000000
-0.421113 -0.193728 0.652111 0.600000 0.000000 0.300000
-0.220362 0.266004 -0.343826 0.000000 0.000000 1.000000
-0.472934 -0.141442 0.675360 0.600000 0.000000 0.300000
-0.406909 -0.218130 0.153192 0.600000 0.000000 0.300000
0.380745 -0.140946 0.516061 0.600000 0.000000 0.300000
0.224391 -0.218125 0.475541 0.600000 0.000000 0.300000
0.456389 0.420643 -0.483057 1.000000 0.000000 0.000000
-0.083280 -0.149076 0.222955 0.600000 0.000000 0.300000
0.208924 -0.043835 -0.157750 1.000000 0.000000 0.000000
0.500462 -0.141523 0.485043 0.600000 0.000000 0.300000
0.465254 -0.212635 0.566879 0.600000 0.000000 0.300000
0.390073 -0.142724 0.339383 0.000000 0.500000 0.500000
-0.141061 -0.142724 0.029459 0.000000 0.500000 0.500000
-0.483987 0.486897 -0.471358 0.000000 0.000000 1.000000
-0.073298 0.097459 -0.246515 0.000000 0.000000 1.000000
-0.282079 -0.142357 0.457162 0.600000 0.000000 0.300000
0.474725 -0.143919 -0.002408 0.000000 0.500000 0.500000
0.166655 -0.206970 -0.136891 0.600000 0.000000 0.300000
-0.319588 -0.144544 -0.105021 0.600000 0.000000 0.300000
0.581246 -0.168207 0.119979 0.600000 0.000000 0.300000
0.445839 0.381323 -0.410402 0.000000 0.000000 1.000000
-0.540587 -0.144862 -0.053609 0.000000 0.500000 0.500000
-0.434648 -0.149483 0.349535 0.600000 0.000000 0.300000
0.543469 -0.145201 0.084381 0.000000 0.500000 0.500000
0.361205 -0.108193 -0.187133 0.500000 0.000000 0.500000
-0.194656 -0.163592 -0.136974 0.500000 0.000000 0.500000
-0.462663 -0.175287 0.698490 0.600000 0.000000 0.300000
0.356431 -0.199950 0.628910 0.600000 0.000000 0.300000
-0.145029 -0.218130 0.457360 0.600000 0.000000 0.300000
-0.310075 -0.149483 0.149411 0.600000 0.000000 0.300000
0.441523 -0.218130 0.329006 0.600000 0.000000 0.300000
-0.501174 0.041506 -0.264174 1.000000 0.000000 0.000000
-0.574310 -0.141673 0.193117 0.600000 0.000000 0.300000
-0.500530 -0.149483 0.098771 0.600000 0.000000 0.300000
