ply
format ascii 1.0
element vertex 1266
property float x
property float y
property float z
property uchar red
property uchar green
property uchar blue
end_header
0.161354 0.110423 -0.090469 153 0 76
-0.002005 -0.489500 -0.410863 0 255 0
-0.355988 -0.488255 -0.035461 0 255 0
0.226971 0.170866 0.110354 153 0 76
0.394791 -0.234509 0.027136 127 0 127
0.427183 0.375222 0.183694 204 51 127
-0.411121 0.175197 -0.035882 127 127 0
-0.143616 0.320706 -0.387515 76 0 153
0.138238 0.110423 0.076354 153 0 76
-0.218285 -0.522794 0.164204 0 255 0
0.308475 0.355500 0.372345 153 0 76
0.083863 0.340683 0.165139 0 0 255
0.119353 0.159353 -0.247589 153 0 76
0.335298 0.144962 0.025140 153 0 76
-0.410503 -0.227497 -0.352997 76 153 0
-0.376582 -0.335537 0.217016 127 127 0
-0.411121 -0.030299 -0.253646 127 127 0
0.391873 0.409761 -0.257449 204 51 127
0.069453 0.153853 0.373848 153 0 76
-0.039799 -0.546985 -0.410863 0 255 0
0.389952 -0.557333 0.278309 127 0 127
-0.373704 0.270611 -0.274832 76 0 153
0.078918 -0.488255 0.241197 0 255 0
0.360252 -0.016068 0.216916 127 0 127
-0.411121 0.317450 0.255218 127 127 0
0.394791 -0.103872 0.283813 127 0 127
-0.411121 0.097699 -0.057133 127 127 0
-0.083717 0.170866 0.111513 153 0 76
-0.376582 -0.060896 0.162025 127 127 0
0.396658 -0.042056 -0.445041 0 127 127
0.190266 0.340683 -0.043758 0 0 255
0.360252 -0.080882 -0.331570 127 0 127
0.041319 0.409761 -0.101902 204 51 127
0.223454 0.170866 0.180401 153 0 76
-0.034605 0.235578 -0.237846 76 0 153
0.394791 -0.010352 0.023192 127 0 127
0.408550 0.375222 0.246407 204 51 127
-0.376587 0.241810 0.383209 76 0 153
-0.350678 0.264876 0.254151 76 0 153
-0.021612 0.159353 0.203269 153 0 76
0.443763 -0.266741 0.314802 153 0 76
-0.376582 -0.241734 -0.248847 127 127 0
0.374775 -0.557333 -0.308060 127 0 127
0.005997 0.340683 0.336551 0 0 255
-0.278896 0.409761 -0.026836 204 51 127
-0.175366 0.375222 -0.192109 0 0 255
-0.144070 -0.553541 0.325510 0 255 0
-0.392065 -0.557333 -0.225511 127 127 0
0.344981 -0.548528 -0.410863 0 255 0
0.238074 0.295634 0.349319 153 0 76
0.007403 0.110423 -0.243311 153 0 76
0.147727 0.211365 -0.352976 76 0 153
0.412701 0.064979 -0.445041 0 127 127
-0.159278 -0.495385 0.360049 0 255 0
-0.197995 -0.488255 -0.086414 0 255 0
-0.376582 0.046340 0.245740 127 127 0
-0.216096 0.340683 0.160304 0 0 255
0.238459 0.110423 -0.196717 153 0 76
-0.432996 -0.649884 0.406844 76 0 153
-0.445748 -0.414024 -0.353003 76 153 0
0.457034 0.375903 -0.176092 204 51 127
-0.376582 -0.331591 0.122133 127 127 0
0.334017 0.110423 -0.204066 153 0 76
0.360252 -0.014942 -0.342120 127 0 127
0.335950 0.249891 -0.260872 153 76 0
0.050027 0.170866 -0.226870 153 0 76
-0.207063 0.340683 0.058390 0 0 255
0.151719 0.375222 -0.261726 204 51 127
-0.014868 0.170866 -0.013781 153 0 76
-0.428102 0.349483 -0.352977 76 153 0
0.246378 -0.522794 -0.118487 0 255 0
-0.403481 0.375222 0.406879 76 0 153
0.394791 -0.169087 0.287426 127 0 127
-0.376582 -0.431837 -0.141590 127 127 0
0.452316 -0.238258 0.375977 153 0 76
0.360252 0.130503 0.305233 153 0 76
-0.380668 0.409761 0.293077 204 51 127
0.394791 0.271388 0.137083 127 0 127
-0.468685 0.336729 0.392266 76 0 153
-0.411121 -0.442485 0.088486 127 127 0
-0.444488 0.409761 0.216241 204 51 127
-0.387405 0.113275 -0.445041 76 153 0
0.360252 -0.333020 0.191601 127 0 127
0.166195 0.375222 -0.427064 204 51 127
0.377555 -0.679849 0.406844 153 0 76
0.411763 0.409761 -0.100826 204 51 127
-0.427487 -0.347371 -0.445041 76 153 0
-0.242050 -0.522794 -0.201663 0 255 0
-0.163809 -0.488255 0.120342 0 255 0
-0.174671 0.409761 0.061884 204 51 127
-0.350678 0.323380 0.200437 76 0 153
0.118757 0.170866 0.212578 153 0 76
-0.074128 -0.488255 0.332316 0 255 0
-0.350678 0.210337 0.108776 76 0 153
0.343847 0.409761 0.264601 204 51 127
-0.198553 -0.488255 -0.303242 0 255 0
0.047708 0.170866 0.107817 153 0 76
-0.202273 0.385940 0.445685 204 51 127
-0.411121 0.204609 0.277243 127 127 0
0.360252 0.197308 0.057609 127 0 127
-0.246081 0.110423 -0.020327 153 0 76
-0.411121 -0.484911 -0.150916 127 127 0
0.228385 0.409761 -0.349115 204 51 127
0.360252 -0.447059 -0.339941 127 0 127
-0.380405 -0.787594 -0.433971 76 153 0
0.169031 0.409761 0.162215 204 51 127
-0.346459 0.110423 0.103348 153 0 76
0.334347 0.274644 -0.016471 153 76 0
0.360278 0.249363 0.347292 153 0 76
0.144000 0.409761 -0.071578 204 51 127
-0.005045 0.279281 -0.387515 76 0 153
-0.376582 0.041003 -0.162703 127 127 0
0.363730 -0.096128 -0.442716 0 127 127
0.452341 -0.056095 -0.417046 0 127 127
-0.101626 0.296677 0.382627 153 0 76
0.026404 0.409761 -0.285929 204 51 127
0.177128 -0.522794 0.281107 0 255 0
0.178084 0.110423 -0.273078 153 0 76
-0.376582 0.042654 -0.077937 127 127 0
-0.465100 -0.721536 -0.442808 76 153 0
0.042003 -0.522794 -0.199759 0 255 0
0.360252 -0.301484 0.133569 127 0 127
0.394791 -0.188070 -0.172866 127 0 127
-0.218034 0.340683 -0.056980 0 0 255
0.004808 0.110423 0.143985 153 0 76
0.307589 0.144962 -0.274350 153 0 76
-0.244179 0.340683 -0.175028 0 0 255
-0.307988 0.110423 0.173573 153 0 76
-0.091778 -0.522794 -0.298658 0 255 0
0.317069 0.375222 0.183351 204 51 127
-0.395235 -0.311304 -0.352976 127 127 0
0.030866 0.110423 0.018933 153 0 76
-0.376582 0.030889 -0.342159 127 127 0
-0.190214 -0.522794 0.273816 0 255 0
-0.205044 0.218650 -0.352976 76 0 153
0.297908 0.409761 -0.313823 204 51 127
-0.156897 -0.543736 -0.376324 0 255 0
-0.437497 0.375222 0.292549 204 51 127
0.244554 0.110423 0.285374 153 0 76
0.394791 -0.240794 0.136219 127 0 127
-0.429647 -0.668546 -0.353012 76 153 0
-0.220764 0.409761 -0.323473 204 51 127
-0.411121 0.284486 0.067495 127 127 0
-0.050597 0.159353 -0.226901 153 0 76
-0.364672 0.075884 0.370025 153 0 76
0.452316 -0.782604 0.383236 153 0 76
-0.280530 0.348664 -0.387515 76 0 153
0.298238 0.340683 0.111335 0 0 255
-0.097104 0.409761 0.365290 204 51 127
0.394791 -0.413487 0.028242 127 0 127
-0.375259 0.143912 0.337806 153 0 76
0.394791 -0.077583 0.047702 127 0 127
-0.350678 0.239598 -0.120992 76 0 153
-0.113662 0.110423 0.205799 153 0 76
0.104188 0.409761 0.065103 204 51 127
0.167551 0.350682 0.372345 153 0 76
0.159463 0.110423 0.286629 153 0 76
0.154158 0.340683 0.240712 0 0 255
-0.468647 0.106152 -0.385782 76 153 0
-0.103708 0.340683 0.092871 0 0 255
-0.454978 -0.246104 -0.445059 76 153 0
-0.283562 0.218494 0.349319 153 0 76
-0.411121 0.165557 0.087816 127 127 0
-0.153562 0.256083 -0.260872 76 0 153
-0.440770 -0.718307 0.314790 76 0 153
-0.464066 -0.768254 -0.354494 76 153 0
-0.091779 -0.522794 -0.211789 0 255 0
-0.411121 -0.537001 0.266082 127 127 0
0.292345 0.340683 -0.205639 0 0 255
0.360252 -0.098835 -0.186935 127 0 127
-0.379367 -0.225835 0.403897 76 0 153
0.213794 0.409761 0.330862 204 51 127
-0.198537 0.340683 0.365756 153 0 76
0.357373 0.167082 -0.207861 153 76 0
-0.376582 -0.507188 0.221941 127 127 0
0.310317 -0.522794 -0.054673 0 255 0
-0.376582 -0.405119 0.234346 127 127 0
0.360252 -0.023548 -0.131320 127 0 127
-0.177649 0.170866 0.040206 153 0 76
-0.267975 0.265110 -0.260872 76 0 153
0.334347 0.274772 0.220229 153 76 0
0.394791 0.184238 0.004847 127 0 127
0.005390 0.110423 0.272767 153 0 76
0.394791 -0.351516 0.010840 127 0 127
0.360252 0.030194 0.261548 127 0 127
0.194706 0.170866 -0.131215 153 0 76
0.388714 0.409761 0.125444 204 51 127
0.360252 0.037675 -0.273891 127 0 127
0.275484 0.409761 0.380949 204 51 127
-0.376600 -0.575148 -0.401156 76 153 0
-0.408354 -0.549848 0.406844 76 0 153
-0.327247 -0.488255 -0.329692 0 255 0
0.085685 0.316657 -0.387515 76 0 153
-0.039288 0.110423 -0.092116 153 0 76
0.394791 -0.062160 0.136675 127 0 127
-0.071554 0.340683 0.036074 0 0 255
-0.009713 0.340683 -0.330347 0 0 255
-0.288599 -0.522794 0.260131 0 255 0
0.095759 0.144962 -0.307192 153 0 76
0.360252 0.177653 -0.309028 127 0 127
0.339793 0.110423 -0.051956 153 0 76
-0.376582 -0.155287 -0.249425 127 127 0
0.058377 0.375222 -0.440663 204 51 127
-0.376582 -0.521287 0.048903 127 127 0
-0.350678 0.330707 -0.035904 76 0 153
0.360252 0.032050 0.092663 127 0 127
0.111197 0.110423 -0.051040 153 0 76
0.250215 -0.488255 0.004398 0 255 0
-0.427509 -0.019813 -0.352990 76 153 0
-0.296585 0.170866 0.197630 153 0 76
0.452316 0.214799 0.397733 153 0 76
0.452316 -0.396746 0.356014 153 0 76
-0.411121 -0.233813 -0.115036 127 127 0
-0.325500 0.409761 0.397461 204 51 127
0.269410 0.076953 0.337806 153 0 76
-0.376597 -0.682527 -0.406884 76 153 0
-0.376582 0.080176 0.039052 127 127 0
-0.439662 0.375222 0.144010 204 51 127
-0.376582 0.125237 0.155028 127 127 0
-0.223526 0.409761 -0.182235 204 51 127
-0.036728 -0.536004 0.325510 0 255 0
-0.111863 0.110423 0.011940 153 0 76
-0.468647 -0.209653 -0.399344 76 153 0
0.360281 -0.488705 -0.074724 0 255 0
0.152172 -0.502133 -0.410863 0 255 0
-0.196786 0.110423 0.189245 153 0 76
0.378263 0.139924 -0.445041 0 127 127
0.117479 0.340683 -0.303091 0 0 255
-0.376582 -0.195157 0.100904 127 127 0
-0.376615 -0.055462 -0.375003 76 153 0
0.223267 0.409761 0.042549 204 51 127
0.394791 -0.295646 0.049672 127 0 127
-0.143100 0.122166 0.337806 153 0 76
0.072285 0.409761 0.250420 204 51 127
0.350871 0.144962 -0.147834 153 0 76
0.386936 -0.298004 0.406844 153 0 76
0.360276 -0.384855 0.350916 153 0 76
-0.223418 0.217769 0.383858 153 0 76
0.394791 0.243046 -0.124565 127 0 127
-0.249453 0.375222 0.258486 0 0 255
0.272422 0.409761 -0.439812 204 51 127
-0.411121 -0.300676 -0.087536 127 127 0
0.157191 0.076270 0.337806 153 0 76
0.474624 0.401984 0.435149 204 51 127
0.394791 -0.398523 -0.179931 127 0 127
-0.342803 0.409761 -0.148029 204 51 127
0.184181 0.110423 0.114149 153 0 76
-0.376582 0.209126 -0.379824 76 0 153
0.260359 0.144962 -0.136909 153 0 76
0.330440 -0.488255 0.149623 0 255 0
-0.260026 0.170866 0.132520 153 0 76
-0.468647 -0.530927 -0.390557 76 153 0
-0.175288 -0.488255 0.019638 0 255 0
0.129271 0.284412 0.349319 153 0 76
-0.411121 -0.383915 -0.240003 127 127 0
0.020878 0.340683 0.121777 0 0 255
0.417874 -0.573912 -0.352989 0 127 127
0.238083 0.144962 0.371319 153 0 76
0.105146 0.144962 0.123209 153 0 76
-0.382928 -0.167985 0.314810 76 0 153
0.452354 0.329422 -0.413132 0 127 127
-0.259814 0.110423 -0.327930 153 0 76
-0.418933 0.052465 -0.445069 76 153 0
-0.145301 0.401489 0.449482 204 51 127
-0.009146 0.340683 -0.074412 0 0 255
-0.376582 -0.140275 -0.042042 127 127 0
0.414956 -0.616388 0.314813 153 0 76
-0.007605 -0.522794 -0.027167 0 255 0
0.208494 0.409761 -0.167392 204 51 127
-0.468647 -0.234662 0.332375 76 0 153
0.360259 0.153084 -0.388419 0 127 127
-0.411121 -0.439991 -0.312926 127 127 0
-0.411121 -0.141559 0.050220 127 127 0
-0.465112 -0.014782 0.404601 76 0 153
-0.050840 0.110423 0.220595 153 0 76
-0.411121 -0.360346 0.046821 127 127 0
-0.245210 -0.488255 -0.264129 0 255 0
0.408241 -0.741461 0.314817 153 0 76
0.360252 -0.160157 -0.265737 127 0 127
0.360252 -0.013967 -0.054071 127 0 127
-0.100155 0.110423 -0.045550 153 0 76
0.361607 0.380188 0.440270 204 51 127
0.360252 0.320419 0.181122 127 0 127
0.360288 0.076843 0.328753 153 0 76
-0.394681 0.409761 -0.253767 204 51 127
0.345860 0.167372 0.140780 153 0 76
0.211225 -0.488255 -0.203027 0 255 0
-0.037828 0.375222 0.381941 204 51 127
0.394791 -0.183356 -0.080928 127 0 127
0.393550 -0.665174 -0.353002 0 127 127
0.192552 0.150599 -0.352976 76 0 153
-0.411121 0.302249 -0.243127 127 127 0
-0.337457 0.409761 -0.339684 204 51 127
-0.102685 0.340683 0.202598 0 0 255
-0.062229 0.340683 -0.206598 0 0 255
0.360265 -0.187679 0.373111 153 0 76
0.365412 -0.731321 -0.443897 0 127 127
0.310451 0.409761 -0.132268 204 51 127
-0.041128 -0.488255 -0.319213 0 255 0
-0.376582 0.048617 0.135126 127 127 0
0.315253 0.233812 0.382875 153 0 76
-0.376601 -0.231967 -0.399982 76 153 0
-0.222695 -0.488255 -0.023392 0 255 0
0.178685 0.409761 0.408361 204 51 127
-0.411121 0.339997 0.049402 127 127 0
0.240813 0.340683 0.130182 0 0 255
0.394791 0.063545 0.156676 127 0 127
0.348043 0.375222 -0.023760 204 51 127
0.382590 -0.085800 0.406844 153 0 76
-0.411121 0.236069 0.175947 127 127 0
-0.376582 0.194764 0.007812 127 127 0
0.208554 -0.522794 0.128346 0 255 0
0.176636 0.252251 -0.387515 76 0 153
0.049575 -0.522794 -0.364251 0 255 0
-0.350678 0.285539 0.341922 76 0 153
0.360612 0.044702 0.399383 153 0 76
0.068734 0.340683 0.302053 0 0 255
0.216311 -0.488255 0.308463 0 255 0
0.334347 0.213545 0.174712 153 76 0
0.394791 -0.497320 0.091290 127 0 127
-0.376618 -0.670859 0.359755 76 0 153
0.360252 0.058641 -0.003761 127 0 127
0.394791 -0.354742 -0.047709 127 0 127
0.111235 0.409761 0.309773 204 51 127
-0.268481 -0.534591 -0.376324 0 255 0
-0.468647 -0.478032 0.356638 76 0 153
0.105879 0.110423 -0.166076 153 0 76
-0.462349 0.344169 -0.444442 76 153 0
-0.002689 0.170866 -0.178342 153 0 76
0.274638 0.110423 0.106284 153 0 76
0.360252 -0.015146 -0.214335 127 0 127
-0.363912 0.144962 -0.328046 153 0 76
-0.003876 0.409761 0.347413 204 51 127
-0.108358 0.271687 -0.387515 76 0 153
-0.121808 0.170866 -0.202379 153 0 76
-0.289324 0.409761 0.030896 204 51 127
-0.376582 -0.422470 0.132204 127 127 0
-0.154843 0.375222 0.243238 0 0 255
0.394791 -0.424977 0.161126 127 0 127
-0.411121 -0.257211 -0.021722 127 127 0
-0.384449 -0.108953 -0.353014 76 153 0
0.437641 0.092491 0.314789 153 0 76
-0.324855 0.375222 0.215854 0 0 255
-0.101414 0.375222 -0.120787 204 51 127
-0.376582 -0.355048 -0.050123 127 127 0
0.394791 -0.399657 0.088880 127 0 127
0.360252 -0.197041 0.110093 127 0 127
0.265721 0.409761 0.306247 204 51 127
-0.376582 0.060676 -0.236256 127 127 0
0.365658 0.375222 0.352526 204 51 127
-0.176019 0.159353 0.222192 153 0 76
0.424967 0.375222 -0.226691 204 51 127
0.299597 0.110423 0.053144 153 0 76
-0.027803 -0.488255 0.268093 0 255 0
-0.279737 0.170866 -0.038700 153 0 76
-0.087650 0.170866 0.171023 153 0 76
-0.237407 0.170866 0.054648 153 0 76
-0.232419 0.110423 -0.126145 153 0 76
-0.404640 0.198430 0.406844 76 0 153
0.305593 -0.522794 -0.365402 0 255 0
0.016084 0.409761 0.207636 204 51 127
-0.198697 -0.488255 0.319843 0 255 0
-0.259798 0.375222 0.149541 0 0 255
-0.376582 0.017319 0.193772 127 127 0
0.044732 0.220379 0.349319 153 0 76
-0.277619 0.409761 0.307466 204 51 127
-0.206879 0.340683 0.228788 0 0 255
-0.411121 -0.446505 -0.030814 127 127 0
-0.439090 0.409761 -0.311276 204 51 127
-0.404857 -0.352613 0.406844 76 0 153
0.334347 0.187650 0.355253 153 76 0
0.093535 0.409761 -0.191383 204 51 127
-0.052871 0.267914 0.383858 153 0 76
0.164451 0.409761 -0.382235 204 51 127
-0.175479 0.144962 -0.330053 153 0 76
-0.376582 -0.049439 -0.111792 127 127 0
0.178399 0.340683 -0.305095 0 0 255
0.360268 -0.111349 -0.379228 0 127 127
-0.389609 0.375222 -0.032657 127 127 0
-0.168551 -0.522794 -0.131829 0 255 0
-0.419876 0.264351 -0.445076 76 153 0
0.178208 -0.488255 -0.127647 0 255 0
0.044110 -0.488255 0.142988 0 255 0
-0.465053 -0.287789 0.404652 76 0 153
0.004725 -0.488255 0.031772 0 255 0
-0.403045 -0.557333 0.149666 127 127 0
-0.097477 0.144962 -0.254520 153 0 76
-0.114575 -0.488255 -0.028143 0 255 0
-0.411121 -0.222486 0.294054 127 127 0
0.117383 -0.522794 -0.220834 0 255 0
-0.184149 0.375222 -0.010620 204 51 127
0.010533 0.119390 0.372345 153 0 76
-0.164723 0.110423 0.124213 153 0 76
-0.376582 -0.126766 0.151927 127 127 0
-0.284955 -0.522794 -0.141865 0 255 0
0.289685 0.170866 0.001711 153 0 76
0.032459 0.229931 -0.352976 76 0 153
0.059239 0.409761 0.031863 204 51 127
0.394791 -0.221262 0.204298 127 0 127
-0.264700 0.110423 0.212907 153 0 76
0.100584 -0.488255 0.155517 0 255 0
-0.412420 0.282299 0.314804 76 0 153
0.394791 -0.432223 0.268897 127 0 127
0.452316 0.092770 0.370358 153 0 76
0.204625 0.337805 -0.254660 76 0 153
-0.335276 0.110423 0.016906 153 0 76
-0.115168 0.369772 -0.387515 76 0 153
0.334347 0.198494 -0.166413 153 76 0
-0.070142 0.159353 -0.011098 153 0 76
0.472476 0.388636 -0.445194 204 51 127
-0.339763 -0.488255 -0.244065 0 255 0
-0.133093 0.409761 -0.208828 204 51 127
0.394791 0.101139 0.103845 127 0 127
-0.267942 0.376361 -0.445080 204 51 127
0.394791 0.302895 -0.291138 127 0 127
-0.439777 0.375222 -0.179552 204 51 127
0.153521 0.242220 -0.260872 76 0 153
0.394791 -0.298853 0.307367 127 0 127
-0.048348 0.348069 -0.387515 76 0 153
0.473677 0.391810 -0.011801 204 51 127
-0.098680 0.375222 -0.001057 204 51 127
-0.061101 0.375222 0.100661 0 0 255
0.360263 0.043691 -0.366836 0 127 127
0.262037 0.186146 -0.387515 76 0 153
-0.376582 0.140431 -0.064043 127 127 0
0.426452 0.375222 0.348513 204 51 127
-0.350678 0.225285 0.055477 76 0 153
-0.001741 0.241213 0.383858 153 0 76
-0.086310 0.375222 -0.311162 0 0 255
-0.373157 0.409761 0.033973 204 51 127
-0.103274 0.170866 -0.110441 153 0 76
0.168988 0.375222 0.317426 0 0 255
0.336105 -0.488255 0.041827 0 255 0
0.406230 0.375222 -0.392646 204 51 127
-0.110068 0.110423 0.269641 153 0 76
0.427552 -0.544524 -0.445041 0 127 127
0.415319 -0.478341 0.406844 153 0 76
-0.350678 0.256777 -0.329834 76 0 153
-0.192596 0.159353 -0.119589 153 0 76
0.244846 0.409761 0.198656 204 51 127
0.397585 -0.787594 0.380100 153 0 76
-0.375770 0.409761 0.374239 204 51 127
-0.013940 0.144962 -0.307974 153 0 76
0.224789 -0.522794 0.061170 0 255 0
0.258593 0.159353 -0.233905 153 0 76
0.146153 0.294550 -0.352976 76 0 153
0.360252 -0.128941 0.150453 127 0 127
0.418267 0.244000 -0.445041 0 127 127
-0.065488 -0.488255 0.136688 0 255 0
0.360252 -0.099124 -0.241827 127 0 127
-0.354001 0.337805 0.253278 76 0 153
0.360252 -0.337278 -0.250255 127 0 127
-0.376582 -0.473792 0.282112 127 127 0
0.424264 -0.190563 -0.352986 0 127 127
0.434035 0.375222 -0.280891 204 51 127
-0.239171 0.298487 -0.352976 76 0 153
0.394791 0.091522 -0.223612 127 0 127
0.394791 -0.154131 0.204233 127 0 127
-0.094096 0.340683 0.299051 0 0 255
0.215771 -0.488255 0.239433 0 255 0
0.365601 0.362291 -0.444014 0 127 127
0.394791 -0.479712 -0.116157 127 0 127
0.284907 0.375222 -0.083406 0 0 255
0.381930 0.375222 -0.070754 127 0 127
0.394791 -0.217730 0.260366 127 0 127
0.221636 -0.550525 -0.376324 0 255 0
0.452316 -0.722791 0.341130 153 0 76
0.090888 -0.522794 -0.326785 0 255 0
0.394791 -0.008018 -0.262665 127 0 127
-0.073514 0.340683 -0.074210 0 0 255
-0.411121 0.216981 -0.091388 127 127 0
-0.468647 -0.037512 -0.384923 76 153 0
-0.117678 -0.491763 -0.410863 0 255 0
-0.080196 0.409761 -0.246353 204 51 127
0.029600 0.220131 -0.237846 76 0 153
0.410547 -0.393218 -0.352993 0 127 127
0.394791 -0.077755 -0.131539 127 0 127
-0.225043 0.110423 0.255082 153 0 76
-0.268359 0.322504 0.376170 153 0 76
-0.356821 0.110423 0.294619 153 0 76
-0.324476 0.175903 -0.352976 76 0 153
-0.213122 0.375222 -0.281524 204 51 127
-0.376582 0.065431 -0.015348 127 127 0
0.153071 -0.522794 -0.303405 0 255 0
-0.411121 -0.496719 0.084654 127 127 0
0.452316 -0.357195 -0.406416 0 127 127
-0.341675 -0.522794 -0.169229 0 255 0
0.112054 0.375222 0.201342 0 0 255
-0.411121 -0.167459 0.207335 127 127 0
0.300850 0.340683 0.231989 0 0 255
0.394791 -0.511759 -0.013359 127 0 127
-0.236440 0.170866 -0.235920 153 0 76
0.059864 0.110423 0.150680 153 0 76
-0.366650 0.340683 0.082159 0 0 255
0.167204 0.159353 0.181792 153 0 76
0.334347 0.307285 0.279041 153 76 0
0.260918 0.375402 0.428196 204 51 127
-0.150311 0.159353 0.085407 153 0 76
-0.052353 0.409761 -0.024386 204 51 127
-0.376582 0.012065 -0.273651 127 127 0
0.394791 0.257833 0.084844 127 0 127
0.360252 0.362687 0.084002 0 0 255
0.007437 0.409761 0.049599 204 51 127
0.242271 0.340683 -0.092902 0 0 255
0.450172 0.409761 0.290778 204 51 127
0.000014 0.170866 0.082928 153 0 76
0.360252 -0.070805 0.253249 127 0 127
0.395882 -0.334468 -0.353001 0 127 127
-0.456275 0.375222 -0.103284 204 51 127
-0.489036 0.386213 -0.198041 204 51 127
-0.430822 -0.431504 -0.445041 76 153 0
-0.160024 0.375222 -0.444271 204 51 127
0.085828 0.375222 0.410714 204 51 127
-0.058870 0.409761 0.247822 204 51 127
0.360252 -0.469331 0.251113 127 0 127
0.360257 0.293058 0.388103 153 0 76
-0.376582 0.091982 -0.280972 127 127 0
0.451464 -0.285657 0.401150 153 0 76
0.220666 0.194145 0.383858 153 0 76
0.143043 0.128326 0.337806 153 0 76
0.118931 -0.522794 0.197900 0 255 0
-0.266831 0.235195 -0.387515 76 0 153
-0.464258 0.375222 -0.278971 204 51 127
0.257277 0.330154 -0.260872 76 0 153
0.267664 -0.522794 -0.290877 0 255 0
-0.306481 0.340683 -0.112049 0 0 255
0.394791 0.045686 -0.167043 127 0 127
-0.345542 0.375222 -0.196896 204 51 127
0.016458 0.173024 -0.352976 76 0 153
-0.235389 0.375222 0.405171 204 51 127
-0.274270 0.375222 -0.202495 204 51 127
-0.155178 0.245931 0.349319 153 0 76
-0.376582 -0.277928 0.147145 127 127 0
0.394791 -0.385078 0.214823 127 0 127
0.016962 -0.488255 0.208594 0 255 0
-0.129762 0.409761 0.287172 204 51 127
0.394791 0.275057 -0.212225 127 0 127
-0.037305 0.375222 0.282121 0 0 255
0.058631 0.110423 -0.034301 153 0 76
-0.075300 0.261021 -0.260872 76 0 153
0.077976 0.159353 0.024378 153 0 76
0.258005 0.144962 0.035736 153 0 76
-0.376582 -0.251122 0.079197 127 127 0
-0.034066 0.375222 -0.177517 204 51 127
-0.075109 0.075884 -0.367727 76 0 153
0.043329 -0.488255 -0.241599 0 255 0
0.334347 0.177320 0.283375 153 76 0
0.117825 0.409761 -0.356716 204 51 127
0.360252 -0.393969 0.281891 127 0 127
-0.411121 -0.042001 0.202983 127 127 0
-0.205953 0.170866 0.167786 153 0 76
0.315467 0.110423 0.325556 153 0 76
0.084038 0.110423 0.219499 153 0 76
0.103292 0.075884 -0.360264 76 0 153
-0.373704 0.335393 -0.266912 76 0 153
0.312447 0.110423 -0.314231 153 0 76
0.200839 0.409761 -0.073559 204 51 127
-0.373704 0.288540 -0.150705 76 0 153
-0.411718 -0.295461 0.314805 76 0 153
0.368005 0.206007 -0.352976 127 0 127
0.117787 0.340683 -0.021572 0 0 255
-0.129851 0.375222 0.398196 204 51 127
0.394791 0.240743 0.299451 127 0 127
-0.350678 0.152207 -0.019673 76 0 153
-0.376582 -0.426965 0.051821 127 127 0
-0.047549 -0.488255 0.086106 0 255 0
0.360252 0.090241 0.041845 127 0 127
-0.158578 0.409761 -0.047256 204 51 127
0.070805 0.219361 -0.387515 76 0 153
-0.483786 0.380265 0.327031 204 51 127
-0.129546 0.340683 0.150574 0 0 255
-0.228035 -0.522794 -0.344443 0 255 0
-0.376582 0.099584 0.241920 127 127 0
-0.355882 0.144962 0.222162 153 0 76
-0.008880 0.296567 0.382654 153 0 76
-0.396101 -0.445495 0.406844 76 0 153
0.309966 0.409761 0.062148 204 51 127
0.360255 0.291277 -0.418099 0 127 127
0.121280 0.217204 0.349319 153 0 76
0.251453 0.409761 -0.241018 204 51 127
0.062757 -0.488255 -0.106638 0 255 0
-0.373704 0.274012 -0.219663 76 0 153
-0.208993 0.409761 -0.125453 204 51 127
-0.376582 -0.513928 -0.121423 127 127 0
-0.411121 -0.096639 0.095187 127 127 0
-0.303054 0.375222 0.097286 0 0 255
-0.445747 0.375222 -0.405660 204 51 127
-0.041017 0.305264 -0.352976 76 0 153
0.155927 -0.547911 0.360049 0 255 0
-0.209136 0.409761 0.360134 204 51 127
-0.376582 -0.448072 0.179406 127 127 0
0.334347 0.231084 -0.063531 153 76 0
0.452316 -0.485989 -0.394799 0 127 127
0.148137 0.144962 -0.137580 153 0 76
0.286340 -0.488255 -0.112989 0 255 0
0.309765 0.340683 -0.288699 0 0 255
-0.066561 0.110423 -0.218382 153 0 76
-0.411121 -0.053233 0.265685 127 127 0
0.394791 -0.040516 0.184134 127 0 127
-0.361789 0.110423 -0.169365 153 0 76
0.168270 0.159353 -0.019392 153 0 76
-0.205718 0.144962 0.355329 153 0 76
-0.371005 -0.508468 0.325510 0 255 0
-0.376588 0.198171 0.349542 76 0 153
0.041761 -0.535657 0.325510 0 255 0
-0.376582 -0.292773 -0.259199 127 127 0
-0.468674 0.030728 0.355490 76 0 153
0.233929 0.196416 -0.260872 76 0 153
0.323732 -0.488255 0.327525 0 255 0
0.360269 -0.640641 0.364852 153 0 76
0.394791 0.341884 0.296046 127 0 127
-0.396831 -0.557333 -0.301685 127 127 0
-0.168470 0.375222 -0.092902 0 0 255
-0.152574 0.358470 -0.352976 0 0 255
-0.393741 0.005580 -0.445041 76 153 0
0.394791 -0.092390 -0.003164 127 0 127
-0.310833 -0.522794 0.105307 0 255 0
-0.376601 -0.284914 -0.400332 76 153 0
-0.376611 -0.454724 0.342451 76 0 153
-0.411121 0.180400 -0.345107 127 127 0
0.245354 0.375222 0.237349 0 0 255
0.360252 -0.553535 -0.152322 127 0 127
-0.264351 0.132133 0.337806 153 0 76
0.388192 -0.146273 -0.353005 0 127 127
-0.376582 0.293047 -0.067267 127 127 0
-0.193617 0.170866 -0.176114 153 0 76
0.197065 -0.522794 -0.340081 0 255 0
-0.411121 -0.464344 -0.226420 127 127 0
-0.308959 0.159353 0.250850 153 0 76
0.273967 0.340683 0.336776 0 0 255
0.138582 -0.488255 0.112549 0 255 0
-0.411121 -0.260368 -0.171662 127 127 0
0.353545 -0.488255 -0.305604 0 255 0
0.360252 -0.243584 -0.256318 127 0 127
0.133050 0.375222 -0.150539 204 51 127
0.394791 -0.448172 -0.165804 127 0 127
-0.376582 -0.041195 -0.216101 127 127 0
0.093446 -0.522794 -0.031650 0 255 0
0.123789 0.110423 -0.277999 153 0 76
0.452335 -0.248096 -0.431873 0 127 127
-0.332569 -0.488255 0.017104 0 255 0
0.452316 -0.459538 0.366940 153 0 76
-0.411121 -0.517729 -0.041939 127 127 0
-0.215557 0.375222 -0.224332 204 51 127
-0.138682 0.110423 0.061619 153 0 76
-0.356425 0.375222 -0.442541 204 51 127
-0.411121 -0.012744 0.070950 127 127 0
0.462771 0.378139 -0.061125 204 51 127
0.261483 0.375222 0.016311 204 51 127
0.360252 -0.437709 -0.263984 127 0 127
-0.213556 0.375222 0.099713 0 0 255
0.394791 -0.519710 -0.220541 127 0 127
0.374597 0.097304 0.406844 153 0 76
0.320331 0.340683 -0.066574 0 0 255
0.185614 0.375222 0.038613 204 51 127
-0.376582 0.098767 -0.379079 76 0 153
0.158852 -0.488255 -0.208987 0 255 0
-0.010574 0.375222 -0.278039 0 0 255
-0.411121 -0.064669 -0.032231 127 127 0
0.360252 -0.446869 0.130157 127 0 127
0.018153 0.159353 0.169804 153 0 76
-0.148549 -0.522794 0.154884 0 255 0
-0.082643 -0.488255 -0.134493 0 255 0
0.292948 0.159353 0.224360 153 0 76
0.312948 0.131412 0.372345 153 0 76
-0.076317 -0.488255 0.039930 0 255 0
0.120449 -0.488255 0.359667 0 255 0
-0.492366 0.396669 0.439315 204 51 127
0.416423 -0.787594 -0.407537 0 127 127
0.119554 0.375222 0.025640 0 0 255
-0.043596 -0.522794 0.232859 0 255 0
0.360252 -0.137052 0.266088 127 0 127
0.360286 -0.184653 0.322157 153 0 76
0.006082 -0.522794 -0.300866 0 255 0
-0.468647 -0.615323 0.338892 76 0 153
0.360270 -0.248397 0.362413 153 0 76
-0.411121 -0.413414 -0.108879 127 127 0
-0.373704 0.203574 -0.157517 76 0 153
-0.072033 0.409761 0.157343 204 51 127
0.360281 -0.503579 -0.434583 0 127 127
-0.427786 -0.686893 -0.445041 76 153 0
-0.003355 0.340683 -0.020584 0 0 255
-0.220417 0.137776 -0.352976 76 0 153
0.345860 0.192757 -0.252566 76 0 153
0.360252 -0.197323 0.031629 127 0 127
0.149520 0.144962 0.029677 153 0 76
0.193949 0.110423 0.176822 153 0 76
0.330105 -0.557333 0.337612 0 255 0
-0.376582 0.277698 0.132729 127 127 0
0.224056 -0.520084 0.360049 0 255 0
0.394791 0.171689 0.121702 127 0 127
0.137431 0.340683 -0.226416 0 0 255
-0.376582 -0.217062 -0.309913 127 127 0
-0.411121 -0.068847 -0.286801 127 127 0
0.148633 -0.522794 -0.091520 0 255 0
0.364545 -0.349377 0.314800 153 0 76
0.452316 -0.671513 0.369372 153 0 76
-0.471334 0.375346 0.242413 204 51 127
0.394791 0.208646 -0.179672 127 0 127
-0.293173 0.144962 -0.284697 153 0 76
0.289863 0.110423 -0.229082 153 0 76
-0.338081 0.375222 0.283597 204 51 127
-0.310068 0.376216 0.432207 204 51 127
-0.376606 0.004589 -0.391702 76 153 0
0.285795 -0.522794 0.303077 0 255 0
-0.480682 0.378171 -0.022992 204 51 127
0.345899 0.375222 0.137872 0 0 255
-0.110502 0.110423 0.155252 153 0 76
-0.376582 0.373084 -0.338538 127 127 0
-0.087691 0.110423 0.321535 153 0 76
0.003109 0.144962 -0.118758 153 0 76
-0.085625 0.110423 0.058016 153 0 76
0.412782 0.375222 -0.151587 204 51 127
-0.376582 -0.219281 -0.014808 127 127 0
0.334347 0.221487 -0.318548 153 76 0
-0.350678 0.253357 -0.049727 76 0 153
-0.361198 0.409761 -0.292252 204 51 127
-0.411121 0.109014 0.200139 127 127 0
-0.136856 0.170866 0.252201 153 0 76
-0.147411 -0.522794 0.242291 0 255 0
-0.376582 0.372938 0.119610 127 127 0
-0.434265 -0.483235 0.406844 76 0 153
-0.310231 -0.488255 -0.062454 0 255 0
0.189045 -0.522794 -0.235109 0 255 0
-0.411121 -0.378751 -0.298357 127 127 0
0.269027 -0.488255 -0.409030 0 255 0
0.034656 0.326142 0.375261 153 0 76
0.296572 0.237864 -0.387515 76 0 153
0.394791 -0.066624 -0.222412 127 0 127
-0.468647 0.161733 -0.409072 76 153 0
0.394791 0.043260 0.297418 127 0 127
0.003208 0.375222 -0.115827 0 0 255
0.272484 0.110423 -0.076844 153 0 76
-0.376582 0.346769 0.164342 0 0 255
0.360252 -0.087607 -0.071132 127 0 127
-0.411121 0.239785 -0.287834 127 127 0
-0.211635 0.110423 -0.235492 153 0 76
0.145917 -0.488255 0.308048 0 255 0
0.325165 -0.488255 -0.170900 0 255 0
0.151178 0.170866 -0.210637 153 0 76
-0.411121 0.127955 0.054726 127 127 0
-0.431918 0.375222 -0.059451 204 51 127
0.473591 0.391555 -0.308715 204 51 127
0.394791 -0.265334 -0.106936 127 0 127
0.394791 0.087370 -0.346743 127 0 127
-0.026165 0.375222 0.163150 0 0 255
-0.455987 0.375222 0.056766 204 51 127
0.197564 0.079285 -0.352976 76 0 153
-0.411121 -0.089276 0.039071 127 127 0
0.394791 0.082984 -0.030476 127 0 127
0.347536 0.144962 0.096159 153 0 76
-0.007717 -0.522794 -0.186125 0 255 0
0.452349 0.172946 -0.383874 0 127 127
0.452316 -0.684796 -0.394014 0 127 127
0.302907 0.144962 -0.038847 153 0 76
0.314643 -0.522794 -0.316338 0 255 0
0.062955 0.409761 0.110685 204 51 127
-0.424005 -0.401566 0.406844 76 0 153
-0.376582 -0.123410 -0.117539 127 127 0
0.154733 0.375222 -0.030079 204 51 127
0.073057 0.375222 -0.139544 0 0 255
0.360252 -0.290796 0.223632 127 0 127
0.360252 -0.443576 -0.000751 127 0 127
0.091067 0.126061 -0.352976 153 0 76
-0.151163 0.159353 -0.004275 153 0 76
-0.412960 -0.560640 -0.445041 76 153 0
-0.159041 0.118204 -0.387515 76 0 153
0.065309 0.375222 -0.026626 0 0 255
-0.376600 -0.135802 0.352134 76 0 153
-0.376608 -0.390440 -0.386449 76 153 0
-0.375295 0.340683 0.368401 153 0 76
-0.411121 -0.172866 -0.153385 127 127 0
0.394791 0.140576 -0.105745 127 0 127
-0.361835 0.216613 -0.237846 76 0 153
0.394791 0.286897 -0.063318 127 0 127
-0.438385 -0.069645 0.314791 76 0 153
-0.250056 -0.488255 -0.390229 0 255 0
-0.394452 0.253373 -0.352980 76 153 0
-0.130444 0.340683 -0.100139 0 0 255
0.394791 0.367548 -0.344979 127 0 127
0.257125 0.375222 -0.405926 204 51 127
-0.350678 0.301060 0.288542 76 0 153
0.360252 -0.344378 -0.313570 127 0 127
-0.414121 0.409761 -0.154441 204 51 127
-0.405824 -0.382151 0.314808 76 0 153
-0.098834 -0.522794 -0.347729 0 255 0
0.073860 -0.522794 0.059004 0 255 0
0.366647 0.409761 0.006534 204 51 127
0.379426 -0.566131 0.406844 153 0 76
-0.431314 0.145143 0.406844 76 0 153
0.414955 0.248284 -0.352991 0 127 127
0.017559 0.340683 0.238281 0 0 255
-0.350678 0.337595 -0.150564 76 0 153
0.201008 0.340683 0.337220 0 0 255
-0.376582 -0.471709 -0.328832 127 127 0
-0.263324 -0.488255 -0.113787 0 255 0
0.419445 0.409761 0.055173 204 51 127
0.452194 -0.288038 -0.360970 0 127 127
0.394791 -0.521656 -0.270477 127 0 127
-0.411121 -0.370849 0.215299 127 127 0
0.269025 -0.488255 0.209864 0 255 0
-0.314208 0.375222 -0.028380 0 0 255
0.067606 0.255090 -0.237846 76 0 153
0.211430 -0.488255 -0.027766 0 255 0
-0.030748 0.375222 0.007906 204 51 127
0.063723 0.409761 -0.329097 204 51 127
0.206876 0.246953 0.383858 153 0 76
0.360252 -0.158157 -0.154334 127 0 127
-0.376582 -0.008041 0.111718 127 127 0
-0.228239 0.170866 0.317391 153 0 76
-0.411121 -0.395000 -0.034365 127 127 0
0.276979 -0.488255 -0.238713 0 255 0
-0.447202 0.409761 0.390215 204 51 127
0.233668 0.159353 -0.088956 153 0 76
0.360252 -0.272674 -0.313229 127 0 127
0.312240 0.409761 -0.384881 204 51 127
-0.243863 0.375222 -0.026589 204 51 127
0.399592 -0.261421 -0.352999 0 127 127
-0.319367 0.289067 -0.352976 76 0 153
0.069555 0.170866 -0.181424 153 0 76
-0.269962 0.375222 -0.291480 0 0 255
0.394791 0.091112 -0.293362 127 0 127
0.360252 -0.034207 0.054575 127 0 127
-0.376585 0.173127 -0.428753 76 153 0
0.394791 0.241195 0.250353 127 0 127
-0.411121 -0.241414 0.168429 127 127 0
-0.411121 0.059941 -0.133464 127 127 0
0.308071 0.329140 -0.387515 76 0 153
0.283271 0.409761 0.168197 204 51 127
-0.040654 0.171045 -0.387515 76 0 153
-0.142656 0.172861 -0.260872 76 0 153
0.394791 -0.464550 0.192901 127 0 127
-0.364027 -0.550038 0.360049 0 255 0
0.360252 -0.209064 -0.031542 127 0 127
0.394791 -0.354086 -0.216040 127 0 127
0.252475 0.236627 -0.237846 76 0 153
-0.091860 0.110423 -0.335479 153 0 76
-0.411121 -0.312129 -0.166622 127 127 0
-0.376582 -0.297947 -0.052493 127 127 0
0.346974 -0.522794 0.233948 0 255 0
-0.168993 0.409761 -0.351255 204 51 127
0.049145 0.375222 0.224173 204 51 127
0.092783 0.375222 -0.088489 204 51 127
-0.181396 0.375222 0.166015 0 0 255
-0.216316 0.261223 -0.237846 76 0 153
-0.412883 -0.043029 0.406844 76 0 153
-0.467277 -0.637929 -0.357771 76 153 0
-0.104026 0.375222 0.047368 0 0 255
0.452316 0.193595 0.353896 153 0 76
0.114070 0.159353 0.273282 153 0 76
0.179090 0.409761 0.236783 204 51 127
0.393275 -0.195183 -0.445041 0 127 127
-0.376582 -0.230699 -0.154497 127 127 0
-0.282353 0.144962 -0.193451 153 0 76
-0.376582 -0.152020 -0.297971 127 127 0
0.347031 0.375222 0.307583 204 51 127
0.360252 -0.220955 0.164134 127 0 127
0.360252 0.263485 -0.152043 127 0 127
0.394791 0.352183 -0.263743 127 0 127
-0.411121 0.230945 -0.176342 127 127 0
0.296921 0.340683 0.059246 0 0 255
0.394791 0.364504 0.149125 127 0 127
0.452316 -0.085387 0.359579 153 0 76
-0.029824 -0.502575 0.360049 0 255 0
-0.411121 -0.042160 0.112281 127 127 0
0.291405 -0.488255 0.269432 0 255 0
-0.467992 0.281498 -0.359182 76 153 0
0.143712 0.375222 0.121288 204 51 127
-0.039845 0.375222 -0.348218 204 51 127
0.318997 0.170866 -0.122013 153 0 76
-0.411121 -0.485321 -0.295642 127 127 0
0.474624 0.401097 0.187786 204 51 127
-0.354338 0.159353 -0.209114 153 0 76
-0.411121 -0.152526 -0.080505 127 127 0
0.038346 0.144962 -0.278624 153 0 76
-0.376620 -0.737181 0.381313 76 0 153
0.195868 0.409761 -0.232920 204 51 127
0.224235 0.138266 -0.387515 76 0 153
-0.292923 -0.522794 0.022611 0 255 0
-0.277828 0.170866 -0.127197 153 0 76
-0.468647 -0.584090 -0.398691 76 153 0
-0.376582 0.351627 -0.107149 0 0 255
0.360252 -0.330059 -0.123106 127 0 127
-0.080659 -0.522794 -0.051988 0 255 0
0.360252 -0.404998 -0.065616 127 0 127
-0.013612 0.110423 0.318009 153 0 76
0.394791 0.310956 0.217918 127 0 127
0.117801 0.195492 -0.387515 76 0 153
-0.376582 -0.398059 0.185252 127 127 0
0.394791 -0.180624 -0.310456 127 0 127
-0.376582 0.079441 -0.332880 127 127 0
-0.244746 0.375222 0.046817 204 51 127
0.394791 0.104585 0.201268 127 0 127
-0.057706 0.170866 0.299910 153 0 76
-0.411121 0.173489 0.034031 127 127 0
0.451949 0.356339 -0.359988 0 127 127
-0.350678 0.196412 0.160214 76 0 153
-0.387860 -0.787594 0.324867 76 0 153
0.360252 0.156462 0.198556 127 0 127
-0.387375 -0.468301 -0.445041 76 153 0
0.301102 -0.488255 0.003041 0 255 0
-0.376617 0.326456 -0.370568 76 153 0
0.089269 0.372526 0.337806 0 0 255
-0.209221 -0.488255 -0.217845 0 255 0
-0.320192 0.409761 -0.105388 204 51 127
-0.376582 -0.311003 0.012730 127 127 0
0.119396 0.281538 -0.237846 76 0 153
-0.411121 0.094243 -0.234549 127 127 0
0.360277 -0.372295 -0.416124 0 127 127
0.360252 -0.541706 -0.028463 127 0 127
0.360252 0.337817 -0.095781 127 0 127
-0.292560 0.340683 0.156675 0 0 255
0.073751 0.122254 0.337806 153 0 76
-0.432229 -0.583444 0.314794 76 0 153
-0.411121 -0.120620 0.245086 127 127 0
-0.411121 -0.367197 0.117157 127 127 0
-0.216301 0.110423 -0.304243 153 0 76
0.061343 0.409761 -0.407387 204 51 127
-0.296184 0.375222 0.372241 204 51 127
-0.376582 -0.076689 -0.180967 127 127 0
-0.308266 -0.488255 0.151977 0 255 0
-0.327120 -0.522794 -0.015742 0 255 0
-0.160512 -0.488255 0.065270 0 255 0
0.045590 0.375222 0.144037 204 51 127
-0.361186 0.409761 -0.398345 204 51 127
-0.468671 -0.069498 0.363514 76 0 153
0.232738 0.110423 0.014230 153 0 76
-0.240016 0.375222 0.193106 0 0 255
0.410109 -0.038607 0.406870 153 0 76
0.419702 -0.754696 0.406844 153 0 76
-0.040890 -0.522794 0.158753 0 255 0
0.354472 0.144962 0.254525 153 0 76
0.394791 -0.329668 0.116369 127 0 127
0.111623 0.175646 0.379297 153 0 76
-0.205587 0.340683 -0.329362 0 0 255
-0.233188 -0.488255 0.054893 0 255 0
0.102177 0.409761 0.380531 204 51 127
0.363442 0.409761 -0.101466 204 51 127
-0.376582 -0.268873 0.231792 127 127 0
-0.314399 0.340683 -0.350041 0 0 255
0.333496 0.362471 -0.352976 0 0 255
-0.044585 0.375222 -0.058610 204 51 127
-0.257844 0.144962 0.253457 153 0 76
0.286862 0.313321 0.378466 153 0 76
-0.400882 0.375222 0.016480 204 51 127
-0.291720 0.176078 -0.387515 76 0 153
-0.144677 -0.522794 -0.299886 0 255 0
-0.149936 0.340683 -0.236025 0 0 255
0.394791 0.263246 -0.015377 127 0 127
-0.234790 0.375222 -0.405605 204 51 127
-0.317223 0.078423 0.372345 153 0 76
-0.411121 -0.312801 0.249322 127 127 0
-0.458088 -0.211426 -0.352996 76 153 0
-0.411121 0.174444 -0.287042 127 127 0
0.452316 -0.163932 0.343310 153 0 76
-0.380229 -0.374776 -0.442774 76 153 0
-0.175818 0.110423 0.305384 153 0 76
0.228361 -0.522794 0.278117 0 255 0
-0.038120 0.282961 -0.237846 76 0 153
-0.373704 0.261390 0.032691 76 0 153
-0.069524 -0.522794 0.000038 0 255 0
-0.119377 0.340683 -0.293505 0 0 255
-0.079509 0.110423 -0.172753 153 0 76
-0.376621 -0.431111 -0.361149 76 153 0
-0.411121 -0.129225 -0.214194 127 127 0
-0.119016 0.409761 0.231261 204 51 127
0.199227 0.170866 0.232196 153 0 76
-0.044305 0.144962 0.106719 153 0 76
0.394791 0.118675 0.026173 127 0 127
-0.411121 -0.152783 0.279855 127 127 0
-0.291526 0.110423 -0.083259 153 0 76
0.057564 0.148403 -0.387515 76 0 153
-0.411121 -0.501796 0.182989 127 127 0
0.017863 0.170866 0.226724 153 0 76
-0.089571 0.196188 0.349319 153 0 76
0.144719 -0.522794 0.068150 0 255 0
0.394791 -0.539830 0.138910 127 0 127
-0.439872 -0.787594 -0.392614 76 153 0
0.326829 0.409761 0.380560 204 51 127
0.228284 0.409761 0.378008 204 51 127
0.391130 0.164762 -0.353004 0 127 127
-0.349618 0.120704 0.372345 153 0 76
0.334347 0.280238 0.107900 153 76 0
0.334584 0.375222 0.233200 0 0 255
0.360252 -0.389198 -0.149086 127 0 127
-0.056353 0.340683 0.190655 0 0 255
-0.376596 -0.037005 0.355848 76 0 153
-0.324583 -0.488255 0.261179 0 255 0
-0.131363 -0.522794 0.082038 0 255 0
0.360252 0.052409 -0.066967 127 0 127
-0.355593 0.375222 0.408931 204 51 127
0.066236 0.170866 -0.100714 153 0 76
-0.356271 0.147840 -0.135097 76 0 153
-0.109519 -0.488255 -0.183908 0 255 0
0.140264 0.340683 0.064588 0 0 255
0.360252 0.106328 -0.122443 127 0 127
0.277083 0.375222 0.135461 0 0 255
-0.158826 0.110423 -0.238480 153 0 76
-0.423228 -0.522990 0.314799 76 0 153
-0.411121 -0.547771 -0.104210 127 127 0
-0.458145 0.297264 -0.445077 76 153 0
0.360252 -0.241451 -0.158084 127 0 127
0.294968 0.409761 -0.035920 204 51 127
0.360252 -0.360509 -0.081020 127 0 127
-0.140506 0.288872 -0.352976 76 0 153
0.199699 0.375222 -0.334990 0 0 255
-0.307948 0.340683 -0.220804 0 0 255
0.345860 0.161010 -0.028247 153 0 76
-0.273035 -0.522794 0.308846 0 255 0
0.211974 0.340683 -0.134468 0 0 255
0.312923 0.340683 -0.123866 0 0 255
0.073428 0.274559 0.349319 153 0 76
-0.322119 0.128967 -0.352976 153 0 76
0.113831 0.340683 -0.118993 0 0 255
0.169123 0.316639 -0.387515 76 0 153
0.411973 -0.740941 -0.445041 0 127 127
0.081274 0.340683 -0.333033 0 0 255
-0.411121 -0.095955 0.143939 127 127 0
0.166216 0.170866 0.307476 153 0 76
0.319282 0.409761 -0.261074 204 51 127
-0.013783 0.248694 -0.352976 76 0 153
0.018057 0.340683 0.041586 0 0 255
-0.075541 0.409761 -0.421186 204 51 127
0.360265 -0.009308 -0.390693 0 127 127
0.394791 -0.121621 0.073598 127 0 127
-0.468737 0.375222 0.187420 204 51 127
0.083535 0.110423 0.053023 153 0 76
0.125821 -0.522794 -0.151757 0 255 0
-0.117772 -0.488255 0.147598 0 255 0
-0.376582 -0.217064 0.262896 127 127 0
-0.451642 0.402382 -0.445080 204 51 127
0.334347 0.229581 0.079957 153 76 0
0.394791 -0.095458 0.233519 127 0 127
0.360280 -0.469205 -0.381166 0 127 127
0.360252 -0.150098 -0.044960 127 0 127
-0.411121 0.010328 0.227226 127 127 0
-0.492470 0.409695 0.218711 204 51 127
-0.411121 -0.001707 -0.064477 127 127 0
0.394791 -0.018817 0.314745 127 0 127
0.434799 0.044736 -0.352980 0 127 127
0.376091 -0.404496 0.406844 153 0 76
0.176172 -0.488255 0.140304 0 255 0
0.402020 -0.223898 0.314800 153 0 76
0.360252 0.073233 0.126745 127 0 127
0.423807 0.409761 0.214952 204 51 127
-0.430994 -0.426616 0.314795 76 0 153
0.360252 0.349618 -0.185309 127 0 127
-0.337564 0.170866 0.343918 153 0 76
-0.299945 0.147840 0.371966 153 0 76
-0.246818 0.144962 0.092321 153 0 76
-0.304112 0.110423 0.081561 153 0 76
-0.211172 0.340683 0.005334 0 0 255
0.364398 0.409761 -0.157102 204 51 127
-0.394141 -0.113148 0.406844 76 0 153
-0.266141 0.110423 0.284421 153 0 76
-0.190069 0.262670 0.383858 153 0 76
-0.376552 -0.506108 0.004869 0 255 0
0.148653 0.110423 0.148153 153 0 76
-0.102972 0.337805 0.353849 153 0 76
0.360252 -0.272138 -0.058075 127 0 127
-0.185727 -0.488255 0.243001 0 255 0
-0.201930 0.110423 0.092833 153 0 76
0.372297 -0.557333 -0.102845 127 0 127
0.121091 0.409761 -0.252365 204 51 127
-0.107674 0.340683 -0.216300 0 0 255
-0.351854 0.409761 0.231253 204 51 127
-0.468647 -0.161078 0.355848 76 0 153
-0.376582 -0.077076 -0.320140 127 127 0
0.394791 0.233309 -0.232594 127 0 127
0.177098 0.110423 0.050945 153 0 76
0.134271 0.375222 -0.393373 204 51 127
-0.161300 0.188124 -0.352976 76 0 153
0.205737 0.375222 0.135113 0 0 255
-0.376595 0.010204 0.348718 76 0 153
0.033589 0.144962 -0.014807 153 0 76
0.252515 0.375222 -0.171448 0 0 255
-0.330504 0.274128 0.383145 153 0 76
0.047392 -0.488255 -0.397536 0 255 0
0.219685 0.110423 -0.325818 153 0 76
-0.046734 0.110423 -0.046365 153 0 76
-0.202209 0.110423 -0.005372 153 0 76
0.019882 0.381712 0.442094 204 51 127
-0.411121 0.138864 0.125697 127 127 0
-0.008518 -0.522794 0.081552 0 255 0
0.243612 0.095679 0.372345 153 0 76
0.257701 -0.522794 -0.367705 0 255 0
-0.248777 -0.557333 0.332245 0 255 0
0.394791 -0.004377 -0.090282 127 0 127
-0.377478 0.375222 -0.147824 204 51 127
0.160180 0.144962 -0.300064 153 0 76
0.360252 -0.379736 0.043729 127 0 127
-0.376582 -0.120949 0.076319 127 127 0
-0.277991 0.409761 0.124731 204 51 127
0.277167 0.214308 0.349319 153 0 76
0.149730 -0.522794 -0.363851 0 255 0
-0.324762 -0.522794 -0.089534 0 255 0
0.360252 -0.169265 -0.108230 127 0 127
0.394791 -0.120130 0.121056 127 0 127
-0.150234 0.409761 -0.278172 204 51 127
-0.468647 -0.554064 0.370764 76 0 153
0.394791 -0.032732 -0.301684 127 0 127
0.421807 0.178703 -0.445041 0 127 127
-0.373704 0.300309 0.234364 76 0 153
-0.468647 -0.150627 -0.396475 76 153 0
-0.376610 -0.762904 -0.384299 76 153 0
-0.376582 -0.321541 -0.109891 127 127 0
0.384910 -0.283905 -0.445041 0 127 127
0.394791 -0.125238 -0.151078 127 0 127
0.450868 0.035428 0.402217 153 0 76
0.313152 0.375222 -0.162937 204 51 127
-0.376582 -0.286006 -0.213644 127 127 0
-0.177546 0.159353 0.315511 153 0 76
0.408213 0.128731 0.406876 153 0 76
-0.373704 0.239251 0.209336 76 0 153
0.125819 0.110423 0.238724 153 0 76
-0.138212 -0.488255 -0.130838 0 255 0
0.393856 -0.044391 -0.352976 127 0 127
0.242625 -0.488255 -0.273725 0 255 0
-0.070989 -0.522794 -0.166165 0 255 0
0.103155 0.375222 0.263696 204 51 127
0.360252 -0.168534 -0.201765 127 0 127
0.298280 0.110423 0.161455 153 0 76
-0.411121 0.279339 0.003756 127 127 0
-0.012104 -0.488255 -0.276642 0 255 0
0.244378 0.375222 0.327726 204 51 127
-0.255652 -0.522794 0.093721 0 255 0
-0.426954 -0.510741 -0.445041 76 153 0
0.055826 0.409761 -0.058345 204 51 127
0.334347 0.242576 0.028768 153 76 0
-0.044662 0.115836 -0.387515 76 0 153
-0.013537 0.375222 0.213600 0 0 255
-0.167049 0.409761 0.341877 204 51 127
-0.235512 0.110423 -0.072709 153 0 76
-0.411121 -0.053887 -0.159449 127 127 0
0.006502 0.340683 -0.250894 0 0 255
-0.427626 -0.126147 0.314796 76 0 153
0.031636 -0.522794 0.018409 0 255 0
-0.376582 -0.198374 -0.233975 127 127 0
-0.170331 0.409761 0.217501 204 51 127
0.036863 -0.488255 -0.170167 0 255 0
0.360252 0.004257 -0.003050 127 0 127
0.394791 -0.030075 -0.028724 127 0 127
0.452316 -0.517886 0.354207 153 0 76
-0.164727 0.170866 0.127269 153 0 76
-0.237769 0.117110 0.372345 153 0 76
-0.055323 0.340683 -0.322483 0 0 255
0.181861 0.110670 -0.387515 76 0 153
-0.411121 0.081610 0.140677 127 127 0
0.394791 -0.336119 0.231595 127 0 127
-0.262057 -0.522794 0.150967 0 255 0
-0.120352 0.183510 0.381263 153 0 76
-0.411121 0.158296 0.285320 127 127 0
-0.411121 -0.219851 -0.065774 127 127 0
0.013937 0.110423 -0.146665 153 0 76
-0.263533 0.409761 0.211579 204 51 127
-0.376604 -0.268935 0.327056 76 0 153
0.466892 0.409761 -0.206167 204 51 127
-0.376582 -0.343312 0.072208 127 127 0
-0.158251 0.258020 -0.387515 76 0 153
-0.429049 0.005227 0.314796 76 0 153
-0.047470 0.375222 -0.251170 0 0 255
-0.138811 0.110423 -0.345908 153 0 76
-0.468647 -0.422188 -0.391605 76 153 0
-0.120149 0.166749 -0.352976 76 0 153
0.034219 0.375222 0.315519 204 51 127
0.403762 0.270888 0.406880 153 0 76
-0.202897 0.375222 -0.155806 204 51 127
0.218824 0.375222 0.087030 0 0 255
-0.274101 0.110423 -0.261254 153 0 76
-0.442173 -0.329323 0.314789 76 0 153
0.360285 -0.612190 -0.410016 0 127 127
0.334347 0.289757 -0.282859 153 76 0
-0.080852 0.340683 -0.150719 0 0 255
0.254743 0.327725 -0.352976 76 0 153
0.237479 0.276379 -0.387515 76 0 153
-0.015253 -0.488255 -0.227171 0 255 0
0.028831 0.364939 -0.352976 76 0 153
-0.425809 -0.180967 0.406844 76 0 153
0.360252 -0.247257 0.262137 127 0 127
-0.468647 -0.420020 0.357733 76 0 153
0.257791 0.144962 0.199416 153 0 76
0.162561 0.409761 -0.149349 204 51 127
-0.071337 -0.522794 0.107753 0 255 0
0.360252 0.053932 -0.195385 127 0 127
0.184017 -0.522794 0.217685 0 255 0
0.179418 0.340683 -0.094933 0 0 255
0.133216 0.375222 0.389042 204 51 127
0.360287 -0.668665 -0.387654 0 127 127
-0.031117 0.366770 0.337806 0 0 255
-0.102806 0.110423 -0.289074 153 0 76
-0.221709 0.322059 -0.387515 76 0 153
0.360252 -0.412029 -0.205958 127 0 127
-0.411121 0.174895 0.196715 127 127 0
0.360252 -0.376053 0.113601 127 0 127
0.057847 -0.488255 0.292011 0 255 0
0.360281 -0.509813 0.120740 0 255 0
0.170920 0.144962 0.088098 153 0 76
0.360252 -0.263719 0.027681 127 0 127
0.394791 -0.226549 0.071665 127 0 127
0.334347 0.325886 -0.213776 153 76 0
-0.451208 -0.744833 0.406844 76 0 153
-0.373704 0.314095 0.037987 76 0 153
-0.301497 0.375222 -0.250743 204 51 127
0.196520 0.121790 0.372345 153 0 76
-0.281367 0.409761 0.407055 204 51 127
-0.335341 0.340683 0.317008 0 0 255
0.394791 -0.367681 0.269442 127 0 127
0.360252 -0.515869 -0.191709 127 0 127
-0.468647 -0.349663 -0.415685 76 153 0
0.394791 -0.426827 -0.290938 127 0 127
0.264990 0.375222 -0.316494 204 51 127
0.081544 0.340683 -0.275118 0 0 255
-0.373704 0.190766 0.248702 76 0 153
0.133437 -0.488255 -0.122693 0 255 0
0.394791 -0.209415 -0.132065 127 0 127
0.374747 0.316460 -0.353013 0 127 127
0.394791 -0.312770 -0.028937 127 0 127
0.452316 -0.000230 0.347654 153 0 76
-0.048176 0.199352 -0.260872 76 0 153
0.205832 0.110423 -0.097411 153 0 76
-0.065248 -0.533359 -0.376324 0 255 0
0.247252 0.375222 0.282323 204 51 127
0.360252 0.214014 0.260028 127 0 127
-0.411121 -0.335422 -0.318468 127 127 0
-0.324089 -0.522794 0.232360 0 255 0
0.041748 0.409761 0.286628 204 51 127
-0.086907 -0.522794 0.217645 0 255 0
0.394791 0.008545 0.124011 127 0 127
-0.155563 0.340683 -0.007344 0 0 255
-0.354493 0.375222 0.342683 153 0 76
0.071578 0.267164 -0.387515 76 0 153
-0.397210 0.375222 0.077588 127 127 0
-0.233098 0.375222 0.308818 0 0 255
-0.376582 -0.385744 -0.116390 127 127 0
-0.388317 -0.645712 0.406844 76 0 153
-0.458456 0.375222 0.103304 204 51 127
-0.411121 -0.005912 -0.303903 127 127 0
0.024519 -0.497487 0.360049 0 255 0
-0.376582 -0.524042 0.103483 127 127 0
0.360273 -0.244634 -0.376817 0 127 127
0.452343 -0.015209 -0.398712 0 127 127
0.360252 -0.046784 0.298323 127 0 127
0.360280 -0.738631 0.343367 153 0 76
0.360252 -0.153162 -0.318072 127 0 127
-0.329837 0.375222 0.170873 204 51 127
-0.373704 0.178986 -0.098818 76 0 153
-0.492470 0.404170 -0.366162 204 51 127
-0.468647 -0.111835 -0.431454 76 153 0
-0.006667 -0.522794 0.192747 0 255 0
-0.318308 0.409761 -0.060682 204 51 127
0.394791 -0.501641 -0.321086 127 0 127
-0.344320 -0.488255 0.197434 0 255 0
-0.014783 0.110423 0.040814 153 0 76
-0.411121 -0.183533 0.147400 127 127 0
0.118799 0.375222 -0.204176 204 51 127
-0.411121 -0.534502 -0.192231 127 127 0
-0.036110 0.238829 0.421019 76 0 153
0.069723 0.340683 0.121208 0 0 255
0.334347 0.187541 0.097907 153 76 0
-0.200859 0.375222 0.257425 0 0 255
-0.101367 0.375222 0.150993 0 0 255
-0.468647 -0.337316 0.352532 76 0 153
0.197457 0.110423 -0.214172 153 0 76
-0.468647 -0.755373 0.337919 76 0 153
0.394791 0.153877 -0.166156 127 0 127
-0.355019 0.375222 0.055457 204 51 127
