ply
format ascii 1.0
element vertex 1269
property float x
property float y
property float z
property uchar red
property uchar green
property uchar blue
end_header
-0.468647 -0.649795 -0.385912 76 153 0
0.229367 0.149582 -0.352976 76 0 153
-0.411121 0.329491 0.202336 127 127 0
-0.123629 0.170866 -0.114667 153 0 76
-0.102767 0.409761 -0.120460 204 51 127
-0.487851 0.384439 0.405346 204 51 127
-0.376582 -0.113979 -0.126963 127 127 0
-0.411121 -0.369232 -0.057415 127 127 0
-0.000646 0.198654 -0.237846 76 0 153
-0.144465 0.144962 0.059379 153 0 76
-0.411121 -0.500786 -0.083518 127 127 0
0.452327 -0.480229 -0.420769 0 127 127
-0.376582 -0.449896 0.012443 127 127 0
-0.080128 -0.488255 -0.277309 0 255 0
0.283725 0.144962 -0.305848 153 0 76
0.094434 0.375222 -0.178966 204 51 127
0.353253 0.409761 -0.334880 204 51 127
0.360290 -0.748493 -0.428116 0 127 127
0.189849 0.375222 -0.134090 0 0 255
-0.295420 0.170866 -0.155423 153 0 76
0.394791 -0.510559 0.286395 127 0 127
-0.379799 -0.314158 -0.442405 76 153 0
-0.288452 -0.488255 0.024891 0 255 0
-0.309273 0.144962 -0.051001 153 0 76
-0.314570 0.312122 0.349319 153 0 76
0.100964 0.170866 -0.022926 153 0 76
-0.350678 0.239689 0.115864 76 0 153
-0.411121 -0.500266 -0.260717 127 127 0
-0.135146 0.340683 0.306625 0 0 255
-0.350678 0.227273 0.178777 76 0 153
0.394791 -0.458195 -0.064799 127 0 127
-0.008943 0.170866 0.320647 153 0 76
0.360252 -0.034501 0.211189 127 0 127
0.318044 0.340683 -0.037466 0 0 255
0.021908 0.144962 -0.157690 153 0 76
-0.171171 0.396991 -0.445080 204 51 127
-0.320596 0.110423 -0.091117 153 0 76
0.043709 0.342736 0.337806 0 0 255
-0.296989 -0.488255 -0.246234 0 255 0
0.452316 -0.376234 -0.379240 0 127 127
-0.114959 0.144962 -0.056100 153 0 76
-0.382660 -0.462544 -0.444289 76 153 0
-0.316419 -0.488255 -0.301888 0 255 0
-0.273954 0.340683 0.174921 0 0 255
-0.411121 -0.023366 -0.123784 127 127 0
0.229676 0.228135 -0.260872 76 0 153
-0.092884 0.409761 -0.329187 204 51 127
0.025260 0.375222 0.212734 204 51 127
-0.411121 0.268419 0.240155 127 127 0
-0.350678 0.253173 -0.212831 76 0 153
-0.376582 -0.314496 -0.328419 127 127 0
-0.376582 0.356687 -0.180497 127 127 0
-0.141349 0.226973 -0.237846 76 0 153
0.022110 -0.488255 0.153720 0 255 0
0.389165 0.375222 0.090301 127 0 127
-0.376592 -0.008111 -0.417006 76 153 0
0.123114 0.222682 -0.352976 76 0 153
0.360252 -0.127641 -0.265828 127 0 127
0.394791 0.139010 0.136208 127 0 127
0.019600 0.409761 -0.070429 204 51 127
-0.007922 0.340683 0.280164 0 0 255
0.394791 0.222455 -0.037178 127 0 127
0.360252 0.233275 -0.084188 153 76 0
0.414066 0.112741 -0.352991 0 127 127
0.183458 0.375222 -0.427919 204 51 127
-0.257601 0.375222 0.137292 0 0 255
0.360252 -0.396346 -0.000976 127 0 127
-0.061986 0.170866 -0.204722 153 0 76
-0.411121 -0.112055 -0.174880 127 127 0
-0.221919 0.375222 -0.306420 0 0 255
-0.376607 -0.635191 -0.388131 76 153 0
0.394791 -0.531397 -0.261269 127 0 127
-0.249468 0.144962 -0.108508 153 0 76
0.334347 0.336583 0.144368 153 76 0
-0.411121 -0.255948 0.176948 127 127 0
-0.375345 -0.522794 -0.253732 0 255 0
0.360252 0.346447 -0.328202 153 76 0
0.011293 0.409761 -0.282618 204 51 127
-0.096273 -0.557333 0.356039 0 255 0
0.360261 0.103676 -0.367776 76 0 153
0.360280 -0.442869 -0.418643 0 127 127
0.119113 0.212786 -0.237846 76 0 153
-0.376606 -0.322035 0.331314 76 0 153
0.360267 -0.161064 0.367659 153 0 76
-0.065514 0.144962 0.258941 153 0 76
-0.376582 0.280391 -0.184042 127 127 0
-0.402654 0.375356 0.427441 204 51 127
0.146144 0.110423 -0.272717 153 0 76
-0.049493 0.375222 0.103174 0 0 255
-0.269450 -0.488255 0.177826 0 255 0
-0.400610 0.375222 -0.341216 76 153 0
0.120875 -0.520088 0.360049 0 255 0
0.360252 0.180812 0.122631 127 0 127
-0.143541 0.337805 0.367162 153 0 76
-0.440974 -0.684494 -0.353012 76 153 0
-0.468647 0.103575 -0.377410 76 153 0
0.360252 -0.400664 -0.035538 127 0 127
0.177557 -0.488255 -0.224554 0 255 0
0.341642 -0.491313 -0.376324 0 255 0
-0.173207 0.110423 -0.322786 153 0 76
0.360252 -0.382346 -0.226785 127 0 127
-0.350678 0.242206 -0.290792 76 0 153
-0.269010 0.242403 -0.260872 76 0 153
-0.411121 0.140204 0.022240 127 127 0
-0.411121 -0.529273 -0.154853 127 127 0
-0.193741 0.170866 0.031810 153 0 76
0.325530 0.129207 0.337806 153 0 76
-0.034252 -0.556413 0.360049 0 255 0
0.109471 0.144962 -0.166228 153 0 76
0.360284 -0.576898 -0.427055 0 127 127
-0.411121 0.317950 -0.252368 127 127 0
-0.376582 -0.428167 0.065071 127 127 0
0.415446 0.259292 -0.352991 0 127 127
-0.468647 -0.465428 -0.379363 76 153 0
0.388993 -0.397528 0.314806 127 0 127
0.306498 0.319904 -0.352976 0 0 255
-0.231316 -0.545776 -0.410863 0 255 0
0.128601 0.144962 0.318964 153 0 76
-0.411121 -0.479034 -0.216509 127 127 0
0.360252 -0.499324 -0.108692 127 0 127
-0.230696 0.409761 -0.025733 204 51 127
-0.039676 0.409761 -0.172578 204 51 127
-0.409969 -0.679334 0.314806 76 0 153
-0.203984 0.110423 0.159728 153 0 76
-0.376582 -0.281431 0.295650 127 127 0
-0.242599 0.322966 0.376055 153 0 76
-0.021985 0.110423 0.224741 153 0 76
-0.439060 -0.497260 -0.445041 76 153 0
-0.187261 -0.522794 -0.156272 0 255 0
-0.376582 -0.466310 0.164982 127 127 0
-0.169219 -0.488255 0.058000 0 255 0
-0.196543 0.409761 0.268422 204 51 127
0.407605 -0.363957 -0.352995 127 0 127
-0.405536 -0.224248 0.314808 76 0 153
-0.110156 0.144962 -0.123715 153 0 76
-0.340774 0.375222 -0.068894 0 0 255
-0.466652 0.194868 0.318744 76 0 153
0.082132 0.375222 0.384072 153 0 76
-0.411121 -0.160789 0.217553 127 127 0
0.190725 0.110423 0.069796 153 0 76
-0.068218 0.170866 -0.086696 153 0 76
0.207570 0.375222 -0.395880 204 51 127
-0.222909 0.235781 -0.352976 76 0 153
-0.407543 0.347626 0.314780 127 127 0
0.425513 -0.439201 0.406856 153 0 76
-0.387477 -0.581892 0.406844 76 0 153
0.360252 -0.208616 0.173756 127 0 127
0.252927 -0.488255 0.284621 0 255 0
-0.108801 0.170866 0.136492 153 0 76
0.237870 0.207685 -0.387515 76 0 153
0.157869 0.144962 0.039882 153 0 76
0.360276 -0.330607 -0.372750 0 127 127
0.362449 -0.677295 0.403092 153 0 76
-0.260664 0.322926 -0.352976 76 0 153
-0.258741 0.144962 -0.180572 153 0 76
0.193832 0.144962 -0.036279 153 0 76
0.169011 0.151114 -0.387515 76 0 153
-0.411121 -0.085745 -0.107789 127 127 0
-0.347911 0.110423 0.161052 153 0 76
-0.347542 0.144962 0.013605 153 0 76
-0.376582 0.219831 -0.051301 127 127 0
-0.102310 0.244469 -0.260872 76 0 153
-0.468647 0.011692 -0.363160 76 153 0
0.313185 0.409761 -0.069727 204 51 127
-0.305388 0.340683 -0.220758 0 0 255
-0.277321 0.170866 0.136759 153 0 76
0.068874 0.170866 0.264340 153 0 76
-0.376582 -0.324482 0.161228 127 127 0
0.165436 0.170866 -0.050342 153 0 76
0.239854 0.105386 0.372345 153 0 76
0.281159 -0.533649 -0.410863 0 255 0
0.386136 -0.301521 0.406844 153 0 76
0.394791 0.266204 -0.146284 127 0 127
0.394791 -0.155552 -0.129533 127 0 127
0.394791 -0.305579 0.058054 127 0 127
-0.167273 0.144962 -0.102389 153 0 76
-0.247185 0.113536 -0.352976 76 0 153
-0.275103 0.375222 -0.022537 0 0 255
0.279743 -0.488255 -0.155587 0 255 0
-0.089805 0.409761 -0.179215 204 51 127
-0.000741 0.170866 0.188392 153 0 76
-0.004830 0.144962 0.032557 153 0 76
0.303907 0.340683 -0.265904 76 0 153
-0.376582 -0.314056 0.262565 127 127 0
-0.413336 0.203433 -0.352982 76 153 0
-0.411121 -0.075078 0.202105 127 127 0
-0.411121 -0.491937 -0.156867 127 127 0
-0.237682 0.199275 0.349319 153 0 76
0.143589 -0.522794 0.182384 0 255 0
0.394791 -0.252335 0.026480 127 0 127
-0.028871 0.144962 -0.131234 153 0 76
-0.411121 0.011429 -0.329413 127 127 0
0.394791 -0.202099 -0.047970 127 0 127
-0.458043 0.355942 -0.352977 76 153 0
0.360252 -0.476583 0.279721 0 255 0
-0.140561 0.375222 0.038815 204 51 127
0.360252 -0.101294 -0.089457 127 0 127
0.452316 -0.054637 0.392502 153 0 76
0.394791 -0.190051 0.236199 127 0 127
0.235852 0.409761 0.366068 204 51 127
0.394791 0.226305 0.234024 127 0 127
0.224336 0.144962 0.095701 153 0 76
-0.156505 0.144962 -0.136472 153 0 76
0.161066 0.340683 0.075320 0 0 255
0.052004 0.144962 0.007709 153 0 76
0.150550 -0.488255 -0.131314 0 255 0
-0.320912 0.264953 0.349319 153 0 76
0.328978 0.340683 -0.303858 0 0 255
0.157017 0.340683 0.313264 0 0 255
0.179881 0.265287 -0.260872 76 0 153
-0.185116 0.192279 -0.260872 76 0 153
0.005218 -0.549635 0.360049 0 255 0
-0.468647 -0.663719 0.377157 76 0 153
0.334347 0.227740 0.319795 153 76 0
0.205606 -0.488255 -0.378482 0 255 0
0.334347 0.267618 -0.082730 153 76 0
-0.077461 0.170866 0.184352 153 0 76
-0.155330 0.409761 -0.202955 204 51 127
0.394791 0.067545 -0.016016 127 0 127
0.221912 0.110423 -0.138072 153 0 76
0.394791 0.086183 0.215471 127 0 127
-0.101274 0.201823 0.349319 153 0 76
-0.051843 0.120993 -0.387515 76 0 153
0.260431 0.375222 -0.416180 204 51 127
-0.039863 0.230282 -0.237846 76 0 153
0.044416 0.159353 0.175931 153 0 76
-0.210749 0.340683 0.333215 0 0 255
-0.012316 0.110423 -0.172570 153 0 76
-0.121761 0.375222 -0.439057 204 51 127
-0.350678 0.302389 0.151769 76 0 153
-0.018811 0.172147 0.378421 153 0 76
-0.312297 0.075884 -0.353675 76 0 153
-0.092452 0.409761 0.101588 204 51 127
0.394791 -0.432004 -0.123319 127 0 127
-0.289751 0.375222 -0.094244 0 0 255
0.421576 0.375222 0.010148 204 51 127
0.360269 -0.143778 -0.388761 0 127 127
-0.411121 -0.047136 0.299286 127 127 0
-0.258770 0.173543 -0.352976 76 0 153
0.040876 0.110423 -0.340748 153 0 76
-0.437201 -0.041550 0.406844 76 0 153
-0.259752 0.144962 0.021091 153 0 76
-0.373704 0.206324 0.026050 76 0 153
0.121187 0.409761 -0.006580 204 51 127
-0.076302 0.340683 -0.021783 0 0 255
-0.405677 -0.499485 -0.445041 76 153 0
-0.260939 0.409761 -0.401431 204 51 127
0.261611 0.409761 0.190270 204 51 127
-0.091487 0.409761 -0.387155 204 51 127
0.308029 0.329602 0.374395 153 0 76
-0.411121 0.107290 -0.059335 127 127 0
0.377116 -0.079350 0.314780 153 0 76
-0.411121 0.165990 0.083101 127 127 0
0.075239 0.375222 0.188482 204 51 127
-0.324204 0.144962 -0.107782 153 0 76
-0.468677 0.096386 0.346952 76 0 153
-0.257856 0.409761 -0.042665 204 51 127
0.360252 0.016191 -0.266715 127 0 127
-0.206932 -0.522794 0.156921 0 255 0
0.137166 0.110423 -0.084365 153 0 76
-0.240796 0.318787 -0.387515 76 0 153
-0.402421 -0.270967 -0.352976 127 127 0
-0.399673 -0.355554 -0.352976 76 153 0
0.235351 0.315013 0.349319 153 0 76
-0.271302 -0.488255 -0.265623 0 255 0
-0.029537 0.375222 -0.376032 204 51 127
0.081991 0.287611 0.383858 153 0 76
-0.411121 0.135561 -0.333550 76 153 0
-0.468295 0.312807 0.321850 76 0 153
0.360252 -0.304164 -0.035606 127 0 127
-0.017183 0.409761 -0.069620 204 51 127
0.407421 0.409761 0.255081 204 51 127
0.168348 0.375222 0.316772 0 0 255
-0.411121 -0.039282 -0.149411 127 127 0
-0.350777 -0.522794 -0.302993 0 255 0
0.227849 0.375222 0.055332 0 0 255
0.329812 0.408906 -0.445080 204 51 127
0.078749 0.375222 -0.257520 0 0 255
0.440244 0.133846 0.314788 153 0 76
-0.199344 0.271778 -0.387515 76 0 153
-0.409724 0.409761 0.110152 204 51 127
-0.242012 0.144962 0.236969 153 0 76
0.408120 0.375222 -0.149255 204 51 127
-0.176211 0.170866 -0.215436 153 0 76
-0.468667 -0.186597 0.369495 76 0 153
0.360438 -0.545184 -0.437286 0 127 127
0.360252 -0.377783 -0.056306 127 0 127
-0.411121 -0.462201 0.285004 127 127 0
-0.074667 0.375222 0.394641 204 51 127
0.444965 0.409761 0.073271 204 51 127
-0.013412 0.396585 0.449367 204 51 127
-0.394667 -0.167386 -0.352995 76 153 0
-0.451204 0.375222 -0.250330 204 51 127
0.125899 -0.492500 -0.410863 0 255 0
0.390765 -0.444551 -0.353004 127 0 127
0.360252 -0.319899 0.058240 127 0 127
0.394791 -0.422723 0.078060 127 0 127
0.394791 -0.165466 -0.046839 127 0 127
-0.411121 -0.292919 0.153033 127 127 0
0.138528 0.110423 0.039041 153 0 76
0.394791 -0.417390 0.173380 127 0 127
0.191496 0.170866 0.023545 153 0 76
0.434527 -0.709348 0.314816 153 0 76
0.123302 0.144962 -0.077776 153 0 76
-0.286486 -0.488255 0.211300 0 255 0
-0.302410 0.110423 0.105266 153 0 76
0.135315 0.325757 0.375357 153 0 76
0.020320 0.375222 0.121314 204 51 127
0.311595 0.104496 -0.387515 76 0 153
0.255357 0.170866 0.027035 153 0 76
-0.011973 0.375222 0.423575 204 51 127
-0.113382 0.144962 0.063217 153 0 76
0.201726 -0.488255 -0.316461 0 255 0
0.313253 0.375222 -0.155709 204 51 127
0.285800 0.110423 0.198223 153 0 76
0.394791 -0.245375 -0.183599 127 0 127
0.400509 0.375222 -0.262626 204 51 127
0.094181 0.144962 0.309089 153 0 76
0.394791 0.272636 0.071134 127 0 127
-0.376582 0.143116 -0.376768 76 153 0
-0.411121 -0.175471 -0.262034 127 127 0
0.334774 0.110423 -0.037255 153 0 76
0.357373 0.241721 -0.185133 127 0 127
-0.411121 0.081378 -0.314799 127 127 0
-0.376582 -0.016798 -0.325052 127 127 0
-0.382569 -0.176468 -0.444251 76 153 0
0.360252 -0.317333 -0.226795 127 0 127
-0.076564 0.340683 0.129825 0 0 255
0.114261 -0.557333 0.331257 0 255 0
-0.279212 0.186062 -0.237846 76 0 153
0.360261 0.111280 -0.409541 0 127 127
0.189092 0.144962 0.254220 153 0 76
0.452316 -0.181473 0.377276 153 0 76
-0.376589 -0.289495 -0.421794 76 153 0
-0.376582 0.132181 -0.144629 153 0 76
0.334347 0.238284 -0.319518 153 76 0
-0.290619 0.350753 -0.387515 76 0 153
-0.270632 0.110423 -0.019258 153 0 76
0.093237 -0.488255 -0.377367 0 255 0
-0.096774 0.170866 0.228081 153 0 76
0.384423 0.138380 -0.445041 0 127 127
0.142039 -0.488255 -0.275127 0 255 0
-0.404712 0.059284 0.406844 76 0 153
-0.233810 0.276934 -0.352976 76 0 153
-0.376582 0.297741 0.177860 76 0 153
-0.418826 0.130953 0.314801 76 0 153
-0.376588 0.200242 0.397349 76 0 153
0.334347 0.209011 0.293405 153 76 0
-0.225620 0.409761 0.031907 204 51 127
-0.411121 -0.284602 -0.323972 127 127 0
0.360252 -0.290142 0.160884 127 0 127
-0.069086 0.170866 0.303486 153 0 76
0.079249 0.409761 0.423934 204 51 127
0.289315 0.409761 0.426307 204 51 127
-0.139665 0.110423 0.079710 153 0 76
0.360252 -0.190301 -0.121994 127 0 127
0.008510 0.170866 0.018339 153 0 76
0.360273 -0.244833 -0.385966 0 127 127
0.324207 -0.488255 -0.216671 0 255 0
0.360252 0.134994 -0.197169 153 0 76
-0.329321 0.409761 0.018161 204 51 127
-0.069764 0.170866 0.083444 153 0 76
-0.275596 0.375222 -0.185795 204 51 127
0.192443 0.110423 -0.077364 153 0 76
0.392681 0.409761 -0.124843 204 51 127
-0.207407 0.170866 -0.244454 76 0 153
0.239275 0.144962 -0.091631 153 0 76
-0.039056 0.409761 -0.289796 204 51 127
-0.376582 -0.360847 0.072941 127 127 0
0.394791 0.370355 0.233734 204 51 127
0.205688 0.375222 -0.077608 204 51 127
-0.323604 0.244660 -0.352976 76 0 153
-0.376582 -0.245790 -0.168360 127 127 0
-0.326478 0.340683 -0.246658 0 0 255
0.376381 -0.205272 -0.353012 0 127 127
-0.292200 -0.522794 0.234756 0 255 0
0.136004 0.409761 0.397623 204 51 127
0.317247 0.375222 -0.331090 204 51 127
-0.290195 0.144962 -0.023073 153 0 76
0.357373 0.273075 0.161090 153 76 0
-0.068855 0.409761 -0.226979 204 51 127
-0.376582 -0.261477 0.178843 127 127 0
0.360252 0.083615 -0.343028 127 0 127
-0.273345 0.110423 -0.286356 153 0 76
0.360290 0.337121 -0.361507 76 0 153
-0.008315 -0.488255 0.104929 0 255 0
-0.120336 0.144962 0.196081 153 0 76
-0.408762 -0.544643 0.406844 76 0 153
0.085759 0.110423 0.109309 153 0 76
-0.310193 -0.510448 -0.376324 0 255 0
-0.173868 -0.488255 -0.336658 0 255 0
0.357215 0.375222 0.182730 127 0 127
-0.079323 0.144962 0.134125 153 0 76
-0.411121 -0.275166 0.066966 127 127 0
-0.120423 0.409761 0.303218 204 51 127
-0.024777 -0.522794 0.123048 0 255 0
-0.307552 -0.542724 -0.376324 0 255 0
0.170533 0.340683 0.196007 0 0 255
-0.376582 -0.253307 -0.245176 127 127 0
0.114329 0.409761 -0.235695 204 51 127
0.360265 -0.007428 -0.412781 0 127 127
-0.411121 -0.159640 0.290853 127 127 0
0.319216 0.409761 0.067689 204 51 127
0.052104 0.340683 0.202407 0 0 255
0.240296 0.110423 0.118686 153 0 76
0.326341 -0.522794 0.062139 0 255 0
0.038810 0.144962 0.048165 153 0 76
-0.411121 -0.452111 -0.058965 127 127 0
-0.198071 0.409761 -0.146500 204 51 127
-0.356051 0.340683 0.167672 0 0 255
-0.354002 -0.506114 -0.410863 0 255 0
-0.480971 0.378317 0.263286 204 51 127
0.394791 0.150501 0.015103 127 0 127
0.161375 -0.522794 -0.097019 0 255 0
-0.321127 0.110423 -0.335805 153 0 76
0.047677 0.340683 -0.204035 0 0 255
-0.459892 -0.244469 0.406844 76 0 153
0.195429 -0.488255 0.258967 0 255 0
-0.468647 -0.564768 0.375520 76 0 153
-0.376618 0.025509 -0.368819 76 153 0
0.357373 0.181591 -0.330744 127 0 127
0.075194 0.170866 0.022812 153 0 76
-0.199210 0.409761 -0.410554 204 51 127
0.169909 -0.488255 0.014819 0 255 0
-0.333563 0.170866 -0.212142 153 0 76
0.376044 -0.532488 0.314780 153 0 76
0.321636 -0.522794 0.210893 0 255 0
0.099466 0.170866 -0.242927 76 0 153
0.307225 -0.522794 -0.299766 0 255 0
-0.411121 0.122745 -0.179449 127 127 0
0.151275 0.375222 0.181080 204 51 127
-0.376582 0.097397 0.143286 127 127 0
-0.000947 0.136211 0.372345 153 0 76
0.217218 -0.522794 -0.104202 0 255 0
-0.272604 0.216302 -0.387515 76 0 153
-0.411121 0.226667 0.293020 127 127 0
-0.376592 -0.471531 -0.416005 76 153 0
-0.303420 -0.522794 0.111656 0 255 0
0.071188 0.144962 -0.106548 153 0 76
0.360259 0.254918 0.383538 153 0 76
-0.097727 0.375222 0.050878 0 0 255
0.403570 0.409761 -0.063694 204 51 127
0.360252 -0.113186 -0.306102 127 0 127
0.360252 0.066258 -0.050280 127 0 127
0.308076 0.375222 -0.195503 0 0 255
0.097574 0.144962 0.212325 153 0 76
-0.376592 -0.132205 -0.417221 76 153 0
0.015907 0.302355 -0.237846 76 0 153
0.022712 0.409539 -0.445080 204 51 127
0.360252 0.252842 -0.028025 127 0 127
0.302240 0.144962 0.018139 153 0 76
-0.160230 -0.488255 0.086028 0 255 0
-0.114300 0.375222 0.108105 204 51 127
-0.468517 -0.266787 0.322740 76 0 153
-0.338930 0.140490 0.337806 153 0 76
-0.350678 0.189552 0.048243 76 0 153
-0.316729 -0.488255 0.310558 0 255 0
0.394791 0.188773 -0.201622 127 0 127
0.299709 0.144962 0.311671 153 0 76
0.360252 -0.523367 0.258482 0 255 0
-0.149769 -0.488255 0.225190 0 255 0
-0.172937 0.375222 -0.305776 0 0 255
-0.355378 -0.522794 0.104559 127 127 0
0.000018 -0.488255 -0.185348 0 255 0
0.145551 0.409761 0.199578 204 51 127
-0.465469 -0.306591 0.317469 76 0 153
0.034214 0.144962 0.214731 153 0 76
0.058157 0.340683 -0.095466 0 0 255
-0.432726 -0.213911 0.406844 76 0 153
-0.411121 0.232772 0.160605 127 127 0
0.456652 0.375827 -0.186272 204 51 127
0.395384 -0.669155 -0.353001 0 127 127
-0.286654 0.409761 0.050498 204 51 127
0.288418 0.159353 0.155067 153 0 76
-0.039486 -0.488255 0.162805 0 255 0
0.094791 0.409761 -0.373195 204 51 127
0.360263 -0.304450 0.376621 153 0 76
0.114705 0.110423 0.188314 153 0 76
0.452352 0.256171 -0.376928 0 127 127
0.360252 -0.071846 -0.302441 127 0 127
0.471860 0.387387 0.040074 204 51 127
-0.114532 0.110423 -0.305954 153 0 76
-0.350628 0.280899 0.378114 76 0 153
0.091720 0.161409 0.375737 153 0 76
0.077415 0.110423 -0.283957 153 0 76
-0.376582 -0.108735 0.060492 127 127 0
0.242459 0.409761 -0.315584 204 51 127
0.167268 0.159353 0.348151 153 0 76
0.072689 0.144962 -0.234084 153 0 76
0.006914 -0.522794 0.041861 0 255 0
0.322033 0.110423 -0.190746 153 0 76
-0.125797 0.144962 -0.239316 153 0 76
-0.287072 0.170866 0.260850 153 0 76
0.177307 -0.557333 -0.405204 0 255 0
-0.446888 -0.308206 0.406844 76 0 153
0.388965 0.099816 0.406874 153 0 76
0.050828 0.375222 0.243368 204 51 127
-0.376582 0.025339 -0.035335 127 127 0
0.247104 0.375222 0.182496 204 51 127
-0.165338 0.340683 -0.206683 0 0 255
0.306319 0.163279 -0.352976 76 0 153
0.005160 0.110423 0.101145 153 0 76
-0.104660 0.144962 0.260606 153 0 76
0.452316 0.355170 0.368577 153 0 76
0.391231 0.409761 0.449083 204 51 127
-0.308754 0.144962 0.039618 153 0 76
-0.088401 0.144962 -0.081551 153 0 76
-0.188216 0.110423 0.320649 153 0 76
0.452316 -0.580259 -0.398527 0 127 127
-0.411121 -0.490406 0.031307 127 127 0
0.258910 0.144962 -0.326297 153 0 76
-0.411121 0.167093 -0.243784 127 127 0
-0.255467 0.144962 0.308070 153 0 76
0.394791 -0.131585 0.301463 127 0 127
0.334347 0.152187 -0.289273 153 0 76
-0.163960 0.375222 0.128297 0 0 255
-0.293217 0.204714 0.383858 153 0 76
-0.376582 0.346051 0.042144 0 0 255
0.309841 0.190023 0.382890 153 0 76
-0.444910 0.236466 -0.352981 76 153 0
-0.411121 -0.395909 0.060810 127 127 0
0.452316 -0.228473 0.342236 153 0 76
-0.436041 -0.582512 0.314792 76 0 153
0.046302 0.170866 -0.049988 153 0 76
0.186175 0.409761 0.412797 204 51 127
0.394791 0.304414 -0.172660 127 0 127
0.155176 0.307349 -0.387515 76 0 153
-0.099701 -0.488255 -0.160273 0 255 0
0.334347 0.250908 0.237079 153 76 0
-0.411121 0.289822 -0.201865 127 127 0
-0.335681 0.340683 -0.027191 0 0 255
0.283754 0.270388 -0.352976 76 0 153
-0.300759 0.110423 0.008489 153 0 76
-0.285311 0.340683 -0.285729 0 0 255
0.387149 0.392982 -0.445080 204 51 127
0.394791 -0.514091 -0.209754 127 0 127
-0.076979 0.409761 -0.070294 204 51 127
-0.401495 0.375222 -0.236553 127 127 0
-0.431049 -0.339080 0.314794 76 0 153
-0.018825 0.340683 -0.223855 76 0 153
-0.376611 -0.480080 0.389263 76 0 153
0.410363 -0.478070 -0.352993 0 127 127
-0.248327 0.170866 -0.207001 153 0 76
0.274904 0.170866 -0.223191 153 0 76
-0.411121 -0.530023 0.151007 127 127 0
-0.376582 0.272015 0.076374 76 0 153
-0.469410 0.409761 -0.428447 204 51 127
0.304807 -0.488255 0.032484 0 255 0
0.035307 -0.522794 -0.192356 0 255 0
-0.376582 0.172667 -0.072607 127 127 0
-0.395612 -0.062200 -0.352991 76 153 0
0.360252 -0.038650 0.281692 127 0 127
-0.417146 0.409761 0.343094 204 51 127
-0.092583 0.340683 -0.261211 76 0 153
-0.376582 -0.037224 0.243509 127 127 0
0.140900 0.340683 0.215229 0 0 255
0.297263 0.170866 -0.253363 76 0 153
0.394791 0.171324 0.157557 127 0 127
-0.044058 -0.522794 0.158173 0 255 0
-0.399553 0.339664 -0.352977 76 153 0
-0.401891 -0.724452 -0.353014 76 153 0
0.395736 -0.224387 -0.445041 0 127 127
0.394791 0.134814 0.299647 127 0 127
0.084510 0.300361 0.349319 153 0 76
0.394791 -0.345094 -0.227571 127 0 127
0.127808 0.375222 -0.234428 204 51 127
0.044770 -0.522794 -0.265165 0 255 0
-0.356940 0.375222 0.144521 0 0 255
0.433305 -0.546830 0.314811 153 0 76
0.394791 0.030334 -0.156571 127 0 127
-0.262660 0.159353 0.091267 153 0 76
-0.376613 -0.584835 -0.378188 76 153 0
-0.323538 0.247548 -0.237846 76 0 153
0.343208 0.340683 0.316368 0 0 255
-0.369077 0.076745 0.372345 153 0 76
-0.376582 -0.410728 -0.155712 127 127 0
0.292218 0.340683 0.319168 0 0 255
-0.161852 -0.553861 -0.376324 0 255 0
0.181517 0.159353 0.206949 153 0 76
-0.376582 0.052675 -0.133978 127 127 0
0.394791 0.123224 0.033103 127 0 127
0.360263 -0.534071 0.376240 153 0 76
0.230519 0.340683 -0.048490 0 0 255
-0.223777 0.110423 -0.123926 153 0 76
0.263087 0.144962 0.265066 153 0 76
-0.468647 -0.695641 -0.383037 76 153 0
0.334347 0.312724 0.299446 153 76 0
-0.081164 0.144962 0.067356 153 0 76
0.261454 0.170866 -0.186351 153 0 76
-0.172528 -0.522794 -0.091331 0 255 0
-0.343251 0.340683 0.066059 0 0 255
0.123528 0.340683 0.303261 0 0 255
0.203836 0.170866 0.287279 153 0 76
-0.468647 -0.639794 -0.419432 76 153 0
0.123295 0.340683 -0.186993 0 0 255
-0.376552 -0.548805 0.337422 76 0 153
-0.003480 0.375222 -0.103985 0 0 255
0.060883 -0.527303 0.360049 0 255 0
-0.376582 -0.352641 -0.082564 127 127 0
-0.158421 0.082926 -0.387515 76 0 153
-0.376582 0.129428 -0.229958 153 0 76
-0.404932 -0.557333 -0.243953 127 127 0
0.115988 -0.522794 -0.265531 0 255 0
0.086313 0.144962 0.277453 153 0 76
-0.020839 0.110423 0.303037 153 0 76
-0.348820 0.170866 0.198459 76 0 153
-0.301799 0.170897 0.349319 153 0 76
-0.152101 0.144962 0.012626 153 0 76
-0.165011 0.277877 -0.237846 76 0 153
-0.050273 0.110423 0.139506 153 0 76
0.265778 -0.522794 0.079789 0 255 0
0.367306 -0.557333 -0.126869 127 0 127
0.071357 0.144962 -0.330970 153 0 76
-0.012528 0.170866 0.050485 153 0 76
0.360252 -0.323682 0.014758 127 0 127
0.308863 0.170866 0.334599 153 0 76
-0.037098 0.075884 0.341704 153 0 76
0.360252 -0.300268 -0.317761 127 0 127
0.360252 0.264638 0.104378 153 76 0
-0.411121 0.349096 -0.165532 127 127 0
0.114665 0.340683 0.195495 0 0 255
-0.376582 -0.044772 0.184294 127 127 0
0.077799 0.375222 0.321013 204 51 127
0.052434 0.144962 -0.070361 153 0 76
0.089796 0.409761 -0.054229 204 51 127
0.286146 0.170866 0.093695 153 0 76
0.092636 0.375222 -0.127115 0 0 255
0.348673 -0.522794 0.032161 0 255 0
0.334347 0.176613 -0.304896 153 76 0
0.004444 0.383022 -0.445080 204 51 127
-0.446772 0.375222 0.108051 204 51 127
-0.379210 0.288274 -0.352976 76 153 0
0.105877 0.340683 0.160642 0 0 255
0.122386 0.284877 0.349319 153 0 76
0.394791 -0.163912 -0.091802 127 0 127
0.265543 0.169250 -0.260872 76 0 153
-0.382510 0.409761 -0.423341 204 51 127
0.342108 -0.522794 -0.020635 0 255 0
-0.066116 0.170866 0.237168 153 0 76
-0.158576 0.340683 -0.125632 0 0 255
-0.468647 -0.759897 -0.388538 76 153 0
0.416188 0.409761 0.171200 204 51 127
-0.351955 0.375222 0.246641 204 51 127
-0.376605 -0.289776 0.360656 76 0 153
-0.350678 0.205258 0.004684 76 0 153
-0.376584 0.311831 0.340306 76 0 153
-0.166383 0.340683 0.212857 0 0 255
-0.376582 0.167748 -0.130185 76 0 153
-0.376582 0.228544 -0.164300 76 0 153
-0.114034 -0.522794 -0.061610 0 255 0
-0.491628 0.392117 -0.374708 204 51 127
0.084547 0.110423 0.010343 153 0 76
-0.064224 0.116513 0.337806 153 0 76
0.394791 0.375188 -0.335653 127 0 127
0.068051 -0.488255 -0.005581 0 255 0
-0.215881 0.375222 -0.033207 204 51 127
0.258786 0.170866 0.235757 153 0 76
-0.376582 -0.351567 0.011632 127 127 0
0.274126 0.340683 0.216397 0 0 255
-0.411121 -0.133368 -0.235031 127 127 0
-0.411121 0.319198 0.285767 127 127 0
-0.350678 0.252910 0.036999 76 0 153
0.149456 0.340683 -0.150459 0 0 255
-0.268001 0.159353 0.336645 153 0 76
-0.352122 0.110423 0.206442 153 0 76
-0.005870 -0.488255 0.348265 0 255 0
-0.376582 -0.340913 -0.044555 127 127 0
0.303567 0.202844 -0.260872 76 0 153
0.388289 -0.772519 -0.353005 0 127 127
-0.350678 0.224977 -0.192116 76 0 153
0.387575 0.077092 0.314780 127 0 127
0.262554 0.409761 -0.031948 204 51 127
0.415719 0.375222 0.133716 204 51 127
0.027369 -0.522794 0.000193 0 255 0
-0.036558 0.375222 -0.005688 204 51 127
-0.016774 0.375222 0.245071 204 51 127
-0.326379 0.375222 -0.011939 204 51 127
-0.411121 0.053301 -0.299246 127 127 0
0.212326 0.144962 -0.233408 153 0 76
0.394791 -0.395355 -0.084384 127 0 127
-0.235244 0.110423 0.106450 153 0 76
-0.191717 0.340683 -0.297377 0 0 255
-0.468647 -0.324214 -0.420896 76 153 0
0.452316 0.022119 -0.373063 0 127 127
-0.170884 0.144962 0.312778 153 0 76
-0.411121 -0.414098 0.303832 76 0 153
0.073062 0.144962 -0.274317 153 0 76
0.360252 -0.273173 0.217785 127 0 127
0.196879 0.164053 -0.387515 76 0 153
0.334347 0.245188 0.181733 153 76 0
0.306316 0.110423 0.252584 153 0 76
0.386238 -0.201799 0.314799 153 0 76
-0.019265 0.340683 -0.322598 0 0 255
-0.348096 0.340683 -0.107879 0 0 255
-0.298000 0.170866 0.026891 153 0 76
-0.411121 0.070377 0.270336 127 127 0
0.394791 0.248752 0.106404 127 0 127
-0.376582 0.138599 0.246711 127 127 0
0.210662 0.144962 -0.155831 153 0 76
0.423503 -0.312185 0.314803 153 0 76
-0.334031 -0.522794 -0.326432 0 255 0
0.109488 -0.488255 0.040548 0 255 0
-0.245700 0.170866 0.212583 153 0 76
0.360252 0.286103 -0.077538 127 0 127
-0.081719 0.375222 -0.242277 204 51 127
0.360252 0.030568 -0.317299 127 0 127
-0.376582 0.280636 -0.136315 76 0 153
0.357373 0.304948 -0.046560 153 76 0
-0.411121 -0.179354 0.069654 127 127 0
-0.411121 -0.256110 0.116355 127 127 0
0.075891 0.110423 0.201612 153 0 76
0.394791 -0.003654 -0.277758 127 0 127
0.394791 -0.264012 0.235536 127 0 127
0.332475 0.110423 -0.159903 153 0 76
-0.081085 0.170866 0.027672 153 0 76
0.287950 0.159353 0.203927 153 0 76
-0.040669 -0.557333 -0.379109 0 255 0
-0.373704 0.330878 -0.136989 127 127 0
0.007076 0.110423 0.132325 153 0 76
0.394791 -0.369066 0.210906 127 0 127
-0.436569 0.154937 -0.352984 76 153 0
0.360278 -0.748984 0.348297 153 0 76
-0.023528 -0.522794 -0.182400 0 255 0
0.093812 0.150224 -0.387515 76 0 153
-0.170176 0.144962 -0.349654 76 0 153
-0.411121 -0.053010 0.033853 127 127 0
0.208582 0.110423 0.284484 153 0 76
0.258544 0.409761 0.438356 204 51 127
0.205697 0.409761 -0.010987 204 51 127
-0.057991 0.284746 -0.237846 76 0 153
-0.352026 -0.500951 0.325510 0 255 0
-0.392498 0.409761 0.044055 204 51 127
-0.041798 0.144962 0.312784 153 0 76
-0.376612 -0.764906 -0.379482 76 153 0
0.060270 0.409761 -0.238572 204 51 127
-0.008726 0.375222 -0.195664 204 51 127
-0.465179 -0.127790 -0.442741 76 153 0
0.205310 0.207198 -0.352976 76 0 153
-0.101584 0.289877 -0.237846 76 0 153
0.075495 0.340683 -0.324429 0 0 255
-0.078736 -0.522794 -0.051597 0 255 0
-0.207741 0.110423 0.227640 153 0 76
-0.351138 0.125387 0.372345 153 0 76
-0.038361 -0.488255 0.056064 0 255 0
0.081482 -0.488255 0.047472 0 255 0
-0.194683 0.340683 -0.233251 0 0 255
-0.410981 -0.282500 0.314780 76 0 153
0.291747 -0.522794 0.297668 0 255 0
-0.376582 0.050893 0.200345 127 127 0
0.013749 0.409761 -0.337801 204 51 127
0.395454 0.409761 -0.378852 204 51 127
0.465732 0.380083 0.383514 204 51 127
0.362747 -0.483032 0.403440 153 0 76
-0.217583 0.409761 -0.256344 204 51 127
-0.012860 -0.522794 0.243522 0 255 0
-0.424257 0.178808 0.314798 76 0 153
0.394791 -0.394516 -0.196013 127 0 127
-0.337098 0.170866 -0.099426 153 0 76
-0.373704 0.248532 0.217298 76 0 153
0.360262 0.007475 0.378572 153 0 76
0.412405 0.375222 0.067583 204 51 127
0.092855 0.219810 -0.260872 76 0 153
0.334347 0.201849 0.038150 153 76 0
-0.411121 -0.378241 0.212063 127 127 0
-0.334483 0.170866 -0.043264 153 0 76
0.328257 -0.551944 0.360049 0 255 0
0.360252 0.108057 0.232267 127 0 127
-0.376582 -0.543772 -0.155931 127 127 0
0.394791 0.097777 -0.096780 127 0 127
0.126153 0.409761 0.253615 204 51 127
-0.411121 -0.212656 0.164964 127 127 0
-0.411121 0.179830 0.239277 127 127 0
-0.376582 -0.024799 0.211036 127 127 0
0.216184 0.266979 -0.237846 76 0 153
-0.249193 0.159353 -0.134688 153 0 76
0.360252 -0.360323 -0.322857 127 0 127
-0.334473 0.170672 -0.260872 153 0 76
-0.112823 0.170866 -0.164882 153 0 76
-0.288712 0.409761 0.269316 204 51 127
0.310399 0.340683 -0.332098 0 0 255
0.360252 -0.470538 0.054506 127 0 127
-0.399876 0.301054 0.314811 127 127 0
0.251029 0.170866 -0.126855 153 0 76
0.360289 -0.261920 0.328340 153 0 76
0.236328 0.170866 0.160862 153 0 76
-0.463600 -0.198854 0.405655 76 0 153
-0.112175 -0.522794 0.248333 0 255 0
-0.309170 0.116757 0.337806 153 0 76
0.360267 -0.213183 0.368393 153 0 76
-0.401466 0.072132 -0.445041 76 153 0
0.224693 0.144962 -0.274161 153 0 76
0.334347 0.239433 0.122719 153 76 0
-0.130856 0.409761 -0.228883 204 51 127
-0.028037 0.289269 -0.260872 76 0 153
-0.347685 0.272944 -0.352976 76 0 153
-0.257544 0.294778 -0.237846 76 0 153
-0.049181 0.170866 0.180283 153 0 76
0.452316 0.208179 -0.369737 0 127 127
0.422889 -0.608750 -0.352987 0 127 127
-0.097043 0.144962 0.038788 153 0 76
-0.153948 0.375222 -0.374779 204 51 127
-0.046492 0.170866 0.121351 153 0 76
-0.225634 0.110423 -0.332103 153 0 76
0.360252 -0.137210 0.067843 127 0 127
-0.292843 0.159353 -0.124047 153 0 76
-0.397162 -0.529207 0.314813 127 127 0
-0.376582 0.235650 -0.123977 76 0 153
0.043233 0.375222 -0.075148 0 0 255
0.394791 -0.117742 0.005889 127 0 127
-0.285003 0.110423 -0.046863 153 0 76
0.271180 -0.522794 -0.148112 0 255 0
0.278680 0.170866 -0.152059 153 0 76
0.252726 -0.488255 0.103964 0 255 0
-0.468647 -0.353056 0.354058 76 0 153
-0.468382 0.218174 -0.360294 76 153 0
-0.019805 0.293285 -0.387515 76 0 153
0.215989 0.287657 -0.260872 76 0 153
0.415276 -0.465819 0.406844 153 0 76
-0.350678 0.331023 -0.188929 76 0 153
0.337600 0.152183 -0.387515 0 127 127
0.335201 0.159353 -0.071727 153 76 0
-0.185316 0.144962 0.100402 153 0 76
0.057161 0.184062 -0.237846 153 0 76
0.413635 -0.067001 0.406869 153 0 76
-0.376582 -0.152867 0.266107 127 127 0
0.360252 -0.230851 -0.072344 127 0 127
-0.356717 0.340683 0.307846 76 0 153
-0.444519 -0.130859 -0.352993 76 153 0
-0.451751 -0.367222 -0.353001 76 153 0
0.137958 0.409761 -0.346944 204 51 127
0.204435 0.375222 0.386357 204 51 127
-0.021281 -0.488255 -0.073056 0 255 0
-0.373704 0.215796 0.268625 127 127 0
0.394791 -0.153723 -0.158229 127 0 127
0.151385 0.170866 -0.115620 153 0 76
0.360252 -0.446011 0.193677 127 0 127
-0.411121 -0.496979 0.104690 127 127 0
-0.468659 -0.417030 0.377524 76 0 153
0.036106 0.409761 0.265305 204 51 127
-0.059343 -0.513948 0.360049 0 255 0
0.394791 -0.011586 0.273246 127 0 127
0.174317 0.375222 -0.321567 0 0 255
0.394791 0.056438 -0.190328 127 0 127
-0.279465 0.144962 0.273479 153 0 76
-0.411121 0.053225 -0.018350 127 127 0
0.314604 0.375222 0.300586 204 51 127
0.189891 0.171542 0.378270 153 0 76
-0.302344 0.170866 0.095471 153 0 76
-0.104325 0.375222 -0.055676 204 51 127
0.360252 0.300901 -0.146249 127 0 127
0.360252 0.050332 0.026213 127 0 127
-0.275767 -0.522794 0.289836 0 255 0
-0.434979 0.375222 -0.063621 204 51 127
-0.154283 0.409761 0.413567 204 51 127
-0.227807 0.209914 0.383858 153 0 76
-0.197772 0.409761 0.227303 204 51 127
0.360252 0.008811 0.289462 127 0 127
0.415873 0.348175 -0.352990 0 127 127
0.204560 0.267154 -0.387515 76 0 153
0.378237 0.409761 -0.006840 204 51 127
0.179770 0.110423 -0.217627 153 0 76
0.222872 0.110423 0.189261 153 0 76
0.334347 0.317321 0.092257 153 76 0
-0.049347 0.144962 0.193967 153 0 76
-0.285757 0.110423 -0.102385 153 0 76
-0.468168 0.409761 0.121206 204 51 127
0.001645 0.409761 -0.382390 204 51 127
0.264675 0.110423 0.170241 153 0 76
-0.016241 0.170866 -0.025849 153 0 76
0.394791 -0.532536 -0.182101 127 0 127
0.339903 0.148052 0.355075 153 0 76
-0.012688 0.409761 0.026700 204 51 127
-0.225153 0.340683 0.074913 0 0 255
0.030349 0.409761 0.380006 204 51 127
0.357373 0.273101 0.218725 127 0 127
0.360252 -0.160832 0.249781 127 0 127
-0.029634 -0.522794 -0.005176 0 255 0
-0.468647 -0.449686 0.375431 76 0 153
-0.387359 -0.089770 -0.445041 76 153 0
0.360252 -0.245571 0.211323 127 0 127
0.425433 0.024433 0.314791 153 0 76
0.203629 0.340683 -0.324738 0 0 255
0.202245 0.110423 0.230849 153 0 76
0.089569 0.290904 -0.237846 76 0 153
-0.269661 -0.522794 -0.067015 0 255 0
-0.143496 0.409761 0.117174 204 51 127
-0.411121 0.135017 0.135648 127 127 0
0.394791 -0.160841 -0.247220 127 0 127
-0.013575 0.409761 -0.127500 204 51 127
-0.468647 -0.640728 0.324854 76 0 153
-0.105543 0.409761 -0.419032 204 51 127
0.282870 0.260047 -0.237846 76 0 153
-0.462848 0.409761 -0.316518 204 51 127
-0.127362 0.409761 0.170911 204 51 127
0.268617 0.340683 -0.151152 0 0 255
0.326179 0.409761 -0.030926 204 51 127
0.334347 0.191876 0.344406 153 76 0
0.261098 0.409761 -0.086414 204 51 127
0.360252 -0.129951 -0.046733 127 0 127
-0.298290 -0.504027 0.325510 0 255 0
-0.343325 0.409761 0.205671 204 51 127
0.314185 0.170866 -0.180021 153 0 76
-0.303561 0.409761 0.384626 204 51 127
-0.199727 0.161513 -0.352976 76 0 153
0.057089 0.276010 -0.260872 76 0 153
0.129999 0.087748 -0.352976 76 0 153
0.398882 -0.002405 0.406871 153 0 76
-0.468647 0.284743 -0.369586 76 153 0
-0.233032 0.375222 -0.187196 204 51 127
0.425550 -0.787594 -0.420205 0 127 127
-0.350678 0.210339 0.343828 76 0 153
-0.139020 0.144962 0.315686 153 0 76
0.256512 0.214831 -0.237846 76 0 153
0.154687 -0.522794 -0.192726 0 255 0
0.360252 -0.225716 0.234523 127 0 127
0.152946 0.110423 0.006354 153 0 76
0.334347 0.279045 -0.155321 153 76 0
-0.149726 0.110423 -0.039581 153 0 76
0.204362 -0.522794 -0.195495 0 255 0
-0.173513 0.375222 -0.406493 204 51 127
-0.305600 0.340683 0.272653 0 0 255
0.360252 -0.473914 0.129881 127 0 127
-0.026447 0.375222 -0.410040 204 51 127
-0.364693 0.375222 -0.097699 204 51 127
-0.270989 -0.488255 -0.027072 0 255 0
-0.390641 0.291985 -0.445058 76 153 0
0.334347 0.319208 0.225272 153 76 0
-0.376582 0.267736 -0.214316 76 0 153
0.334347 0.284831 0.143146 153 76 0
0.360252 0.124713 -0.289928 153 0 76
-0.411121 -0.168234 0.128196 127 127 0
-0.226832 -0.488255 0.213656 0 255 0
0.360252 -0.175681 -0.223348 127 0 127
0.254816 0.375222 -0.198196 204 51 127
-0.239986 -0.488255 -0.095007 0 255 0
-0.312998 0.228512 -0.260872 76 0 153
-0.100018 0.110423 -0.177109 153 0 76
-0.435957 0.085089 0.314792 76 0 153
-0.138734 -0.522794 0.095478 0 255 0
0.214567 0.170866 -0.188436 153 0 76
-0.166438 0.292115 0.383767 153 0 76
-0.350678 0.300712 0.047478 76 0 153
0.360252 0.113042 0.144180 127 0 127
-0.429683 -0.429863 -0.353004 76 153 0
0.394791 -0.000034 0.087803 127 0 127
0.306739 0.173549 -0.387515 76 0 153
-0.150515 0.144962 -0.038935 153 0 76
0.114703 0.375222 0.236255 204 51 127
0.394791 0.350537 -0.238609 127 0 127
-0.065798 0.110423 0.267834 153 0 76
-0.365670 0.375222 0.388780 204 51 127
0.360281 -0.517748 0.353240 0 255 0
-0.337753 0.191929 -0.237846 76 0 153
0.044561 0.110423 0.125400 153 0 76
-0.007043 0.375222 0.365664 153 0 76
0.083471 0.110423 -0.197814 153 0 76
0.421367 0.409761 -0.292582 204 51 127
0.409956 0.325749 -0.445041 0 127 127
0.214779 -0.488255 0.162401 0 255 0
0.079918 -0.522794 0.188474 0 255 0
0.360252 -0.285003 -0.223355 127 0 127
-0.278349 0.098017 -0.387515 76 0 153
-0.040411 0.144962 0.272420 153 0 76
-0.376582 -0.202350 -0.125984 127 127 0
0.360252 0.351971 -0.104900 0 0 255
-0.280189 0.378103 -0.445080 204 51 127
0.305128 0.091340 0.372345 153 0 76
-0.444064 0.409761 -0.082544 204 51 127
0.383264 0.409761 0.396017 204 51 127
-0.376582 0.355780 0.289106 0 0 255
0.160406 0.159353 0.164084 153 0 76
0.408114 0.409761 0.112062 204 51 127
-0.348075 0.377022 -0.445080 204 51 127
-0.031133 0.144962 0.164806 153 0 76
-0.264605 0.144962 -0.011325 153 0 76
0.014986 0.340683 -0.202252 0 0 255
0.394791 0.354392 -0.120041 127 0 127
-0.321648 0.375222 0.356512 153 0 76
-0.063318 0.178215 -0.352976 76 0 153
-0.178720 0.340683 -0.062586 0 0 255
0.360252 -0.236912 -0.318248 127 0 127
0.394791 0.188442 0.190046 127 0 127
0.289789 0.110423 -0.137363 153 0 76
0.103434 0.375222 -0.089693 204 51 127
0.281995 0.375222 0.361697 204 51 127
0.057905 0.144962 0.330897 153 0 76
-0.024396 0.349514 -0.387515 76 0 153
0.011483 0.144962 0.301157 153 0 76
0.074022 -0.522794 -0.143003 0 255 0
-0.468681 0.227232 0.363549 76 0 153
-0.268734 0.144962 0.221957 153 0 76
0.124142 0.375222 0.013262 0 0 255
-0.273182 0.110423 -0.143826 153 0 76
0.444671 0.409761 0.036709 204 51 127
-0.460782 0.409761 -0.346188 204 51 127
0.230928 0.170866 0.294820 153 0 76
-0.411121 0.265928 0.314353 76 0 153
0.360252 -0.451588 0.246268 127 0 127
0.121102 0.318708 -0.260872 76 0 153
-0.262413 0.409761 -0.250208 204 51 127
0.428700 -0.002300 -0.445041 0 127 127
0.394791 -0.043482 0.135998 127 0 127
0.394791 -0.453999 -0.193283 127 0 127
-0.411121 -0.415172 0.038405 127 127 0
0.065747 0.340683 -0.129176 0 0 255
-0.411121 -0.355048 0.152678 127 127 0
0.283364 0.144962 -0.099025 153 0 76
0.360252 -0.197145 -0.001038 127 0 127
0.394791 -0.529808 0.052397 127 0 127
0.394791 -0.078619 -0.302983 127 0 127
0.341673 0.409761 0.194707 204 51 127
-0.355462 0.166129 -0.387515 76 0 153
0.334347 0.255325 0.062128 153 76 0
0.086074 0.110423 0.079454 153 0 76
-0.468678 0.128460 0.388618 76 0 153
-0.411121 -0.127102 0.026891 127 127 0
0.027053 -0.488255 -0.050042 0 255 0
-0.015170 0.190739 -0.260872 76 0 153
-0.252402 0.340683 -0.127132 0 0 255
0.382225 0.286279 -0.445041 0 127 127
-0.181543 -0.522794 0.076533 0 255 0
0.129138 0.375222 0.350684 204 51 127
0.360252 0.202858 0.054673 127 0 127
0.360252 -0.314391 -0.168663 127 0 127
-0.200484 -0.522794 -0.222559 0 255 0
0.452316 -0.045894 -0.380655 0 127 127
0.115795 0.110423 0.328221 153 0 76
-0.220052 -0.522794 -0.093502 0 255 0
0.314181 0.110423 -0.094685 153 0 76
-0.411121 0.062097 -0.119820 127 127 0
0.357373 0.282272 -0.212872 127 0 127
0.394791 0.067268 -0.132131 127 0 127
-0.411121 -0.205465 -0.115733 127 127 0
-0.288390 0.278542 0.383858 153 0 76
0.129600 0.375222 0.113589 204 51 127
-0.468647 -0.512262 -0.417115 76 153 0
0.045180 -0.545100 0.325510 0 255 0
0.452316 -0.048417 0.350289 153 0 76
-0.397943 -0.165890 0.314780 76 0 153
0.096638 0.340683 0.251233 0 0 255
0.203454 0.409761 -0.152395 204 51 127
-0.432507 -0.163806 0.314794 76 0 153
0.203363 -0.557175 -0.376324 0 255 0
0.310229 0.144962 -0.251012 153 0 76
0.385222 0.375222 0.151831 127 0 127
-0.379564 -0.016158 0.404094 76 0 153
0.360252 0.141923 0.036040 153 0 76
-0.411121 -0.145621 -0.325241 127 127 0
-0.233166 0.341644 -0.352976 76 0 153
0.462388 0.409761 -0.047938 204 51 127
0.157037 0.375222 -0.377998 76 0 153
0.100848 0.144962 -0.095902 153 0 76
-0.468647 -0.721692 0.362639 76 0 153
0.360252 0.355357 -0.143244 127 0 127
-0.430889 0.409761 0.005804 204 51 127
0.472103 0.387878 -0.104982 204 51 127
-0.350678 0.216534 0.238849 76 0 153
-0.146982 0.170866 -0.229711 153 0 76
-0.290764 0.355231 -0.352976 0 0 255
-0.448702 -0.572021 0.406844 76 0 153
-0.376596 -0.020274 0.339338 76 0 153
0.339669 0.103165 0.337806 153 0 76
0.394791 0.364681 0.020396 204 51 127
0.394791 0.189947 0.297115 127 0 127
0.295014 0.375222 0.250018 204 51 127
-0.356017 0.375222 -0.013283 0 0 255
0.049885 0.110423 -0.193535 153 0 76
-0.082746 0.283620 -0.352976 76 0 153
0.208150 0.144962 0.305341 153 0 76
0.305801 0.110423 -0.253448 153 0 76
0.143186 0.170866 -0.184765 153 0 76
-0.419712 -0.787594 0.315505 76 0 153
0.360252 -0.429594 -0.181444 127 0 127
-0.411121 0.284048 -0.055453 127 127 0
0.201409 0.149460 -0.352976 76 0 153
0.452316 -0.337601 -0.382244 0 127 127
0.452316 -0.484773 -0.377258 0 127 127
0.360265 -0.269268 0.371998 153 0 76
-0.015181 0.110423 0.081971 153 0 76
-0.404867 -0.363258 0.406844 76 0 153
-0.077785 0.320843 0.376585 153 0 76
-0.259498 0.170866 0.267087 153 0 76
0.000726 0.340683 0.339889 0 0 255
-0.373704 0.282908 0.005619 76 0 153
-0.376582 -0.293489 0.017573 127 127 0
0.116911 0.144962 -0.050582 153 0 76
0.128224 0.375222 -0.333214 0 0 255
-0.400120 0.409761 0.162971 204 51 127
0.023455 0.340683 -0.104149 0 0 255
-0.348650 0.315299 -0.237846 76 0 153
0.394791 -0.063467 0.213986 127 0 127
-0.106619 0.170866 -0.218053 153 0 76
-0.411121 -0.143241 -0.189655 127 127 0
0.145038 0.340683 -0.293327 0 0 255
0.143250 0.144962 0.248625 153 0 76
-0.094949 0.138985 0.372345 153 0 76
-0.468647 0.191071 -0.417191 76 153 0
0.360252 0.221363 -0.153829 127 0 127
0.387846 -0.310416 -0.352976 0 127 127
-0.223896 0.210648 -0.237846 76 0 153
0.233882 -0.522794 -0.314602 0 255 0
0.062451 0.409761 0.158791 204 51 127
0.394791 0.221223 -0.209449 127 0 127
0.360252 0.095638 0.269527 127 0 127
-0.376582 -0.342980 -0.257533 127 127 0
0.254688 -0.522794 -0.057299 0 255 0
-0.376582 -0.260482 0.145437 127 127 0
0.360252 -0.314176 -0.081926 127 0 127
0.102020 -0.522794 0.062016 0 255 0
0.433321 -0.114990 -0.445041 0 127 127
-0.198553 -0.488255 -0.029472 0 255 0
-0.393520 0.071799 -0.352976 76 153 0
0.051232 0.170866 0.315983 153 0 76
-0.376582 -0.425245 0.287911 127 127 0
0.394791 -0.253754 -0.226043 127 0 127
0.464512 0.409761 -0.391220 204 51 127
0.360285 -0.009361 0.335641 153 0 76
0.360262 -0.411151 0.377720 153 0 76
0.360252 0.302375 0.059239 127 0 127
-0.138890 -0.519800 0.360049 0 255 0
0.339375 0.144962 -0.118496 153 0 76
-0.428710 -0.270741 0.406844 76 0 153
-0.002884 0.110423 0.272947 153 0 76
-0.210585 0.170866 -0.133338 153 0 76
-0.050729 0.144962 0.106084 153 0 76
0.113383 0.377931 0.436593 204 51 127
-0.373704 0.224714 0.093335 76 0 153
-0.437534 0.409761 -0.192361 204 51 127
-0.329564 0.343149 -0.387515 76 0 153
-0.467302 -0.105562 0.402048 76 0 153
-0.411121 0.248014 -0.034192 127 127 0
0.129007 -0.522794 0.158659 0 255 0
-0.452929 0.107520 -0.352985 76 153 0
-0.137247 0.375222 -0.260396 204 51 127
0.360252 -0.077215 0.228911 127 0 127
0.369316 -0.443502 0.406844 153 0 76
0.044177 0.375222 -0.221419 0 0 255
0.136644 0.375222 -0.280849 204 51 127
-0.454078 -0.756803 -0.445041 76 153 0
0.221790 0.144962 0.003687 153 0 76
0.394791 -0.213733 -0.239175 127 0 127
-0.376582 0.212233 0.296069 127 127 0
0.109633 0.144962 -0.344583 76 0 153
-0.118858 0.375222 -0.181164 0 0 255
0.137036 0.129776 -0.352976 153 0 76
0.123220 0.170866 0.282708 153 0 76
-0.399637 -0.543791 -0.353008 76 153 0
0.394791 0.206096 0.033351 127 0 127
-0.150455 0.409761 -0.319673 204 51 127
-0.468647 -0.306626 -0.370648 76 153 0
0.241147 0.110423 -0.185372 153 0 76
0.078366 0.409761 0.048629 204 51 127
0.284411 0.409761 -0.166987 204 51 127
-0.161449 0.174223 -0.260872 153 0 76
0.385774 0.375222 0.333495 153 0 76
0.134808 0.340683 0.156413 0 0 255
0.360252 -0.352795 0.149910 127 0 127
0.394791 -0.389097 0.115211 127 0 127
0.287809 0.409761 0.022531 204 51 127
0.334347 0.182768 0.168812 153 0 76
0.360252 -0.063914 -0.124153 127 0 127
-0.405855 0.169635 0.406844 76 0 153
0.000247 -0.488255 -0.389644 0 255 0
0.198649 -0.522794 -0.231507 0 255 0
0.337927 -0.522794 -0.281343 0 255 0
-0.400034 -0.557333 0.104628 127 127 0
0.166745 0.317492 0.349319 153 0 76
0.394791 -0.234265 0.185980 127 0 127
0.303746 -0.522794 0.112213 0 255 0
0.197322 0.236346 -0.352976 76 0 153
-0.173337 0.232664 -0.237846 76 0 153
0.188505 0.316858 -0.260872 76 0 153
-0.268928 0.375222 -0.234797 0 0 255
0.114662 0.356367 -0.352976 0 0 255
0.330432 0.075884 -0.371891 76 0 153
0.053739 0.170866 -0.188569 153 0 76
-0.411121 -0.434907 0.095946 127 127 0
-0.092535 -0.522794 -0.200900 0 255 0
-0.411121 0.286820 -0.257260 127 127 0
-0.118925 0.170866 0.315321 153 0 76
0.334347 0.187142 0.222624 153 76 0
0.290100 0.144962 -0.204643 153 0 76
-0.376552 -0.503575 0.060125 127 127 0
0.071813 0.237576 -0.387515 76 0 153
0.309853 0.240850 0.349319 153 0 76
0.394791 -0.020050 -0.331766 127 0 127
0.360097 0.409761 0.257764 204 51 127
0.360759 -0.557333 0.207579 127 0 127
0.173032 0.110423 -0.173706 153 0 76
-0.193144 -0.488255 -0.195331 0 255 0
-0.468647 0.360672 -0.383577 76 153 0
-0.222075 0.110423 0.322457 153 0 76
0.425245 -0.496175 0.314809 153 0 76
-0.451302 0.231059 -0.445075 76 153 0
-0.249172 0.409761 0.319263 204 51 127
0.341205 -0.488255 0.097119 0 255 0
-0.376582 -0.512787 -0.184638 0 255 0
-0.292176 0.267422 -0.352976 76 0 153
0.334347 0.259290 -0.220370 153 76 0
0.337517 0.144962 0.019855 153 0 76
-0.164433 0.106152 0.337806 153 0 76
-0.305157 0.340683 0.197612 0 0 255
0.190186 0.340683 0.134950 0 0 255
-0.075952 0.375222 0.249280 0 0 255
0.026855 0.110423 -0.214084 153 0 76
-0.376582 0.107566 -0.130191 153 0 76
-0.007036 0.170866 -0.078874 153 0 76
-0.428622 0.375222 0.373891 204 51 127
-0.376592 0.098506 0.353290 76 0 153
-0.280109 -0.522794 -0.312400 0 255 0
0.334347 0.184146 0.314702 153 76 0
-0.079255 -0.508285 0.325510 0 255 0
-0.331050 0.340683 -0.055580 0 0 255
0.007871 0.170866 -0.203292 153 0 76
0.360252 0.206306 -0.074536 153 76 0
0.357373 0.277404 0.327120 153 76 0
0.472332 0.409761 -0.172591 204 51 127
-0.431059 0.349753 -0.352977 76 153 0
0.299067 0.375222 -0.284542 0 0 255
-0.172723 -0.522794 0.129281 0 255 0
-0.411121 0.048040 0.093656 127 127 0
0.214355 -0.488255 0.299044 0 255 0
0.092190 -0.496096 0.325510 0 255 0
-0.121884 0.258230 -0.352976 76 0 153
-0.411121 -0.306612 0.177206 127 127 0
0.149116 0.409761 -0.189272 204 51 127
-0.411121 0.305990 -0.017199 127 127 0
-0.411121 -0.227033 -0.201597 127 127 0
-0.183503 -0.488255 -0.072738 0 255 0
-0.376582 -0.507452 -0.149909 127 127 0
0.335981 -0.522794 0.301212 0 255 0
-0.286307 0.144962 -0.182832 153 0 76
0.278255 0.110423 -0.187718 153 0 76
0.360252 0.229556 0.244552 153 76 0
0.449824 -0.539328 0.403601 153 0 76
0.360252 -0.411029 0.116367 127 0 127
-0.350678 0.265911 -0.000917 76 0 153
-0.220824 0.375222 0.270779 0 0 255
0.101460 0.340683 0.052956 0 0 255
-0.133115 0.284618 -0.237846 76 0 153
0.110549 0.269311 0.383858 153 0 76
-0.349058 0.409761 -0.197361 204 51 127
0.120398 -0.494498 0.325510 0 255 0
-0.468647 0.065667 -0.427810 76 153 0
-0.243603 0.340683 0.162129 0 0 255
-0.364662 0.323337 0.374605 153 0 76
0.446176 -0.414322 0.315484 153 0 76
-0.119300 -0.488255 -0.029999 0 255 0
-0.118158 0.409761 0.370111 204 51 127
0.316009 -0.488255 -0.278872 0 255 0
-0.411121 0.118561 -0.233105 127 127 0
-0.488002 0.384665 0.325047 204 51 127
0.226759 0.170866 0.239931 153 0 76
0.118928 0.409761 -0.109562 204 51 127
-0.373704 0.202590 0.056155 127 127 0
-0.310710 0.110423 0.051032 153 0 76
0.394791 -0.133976 -0.299421 127 0 127
0.115867 -0.522794 -0.225367 0 255 0
-0.068049 0.311484 0.349319 153 0 76
0.275682 0.340683 0.017438 0 0 255
-0.008982 -0.522794 -0.284863 0 255 0
0.360252 -0.446731 0.000572 127 0 127
-0.132152 0.144962 0.109978 153 0 76
0.070044 0.409761 0.361185 204 51 127
0.394791 0.135649 0.207919 127 0 127
-0.033090 0.271067 -0.352976 76 0 153
0.298934 -0.488255 0.213081 0 255 0
0.394791 -0.110630 -0.331060 127 0 127
0.170295 0.277072 -0.237846 76 0 153
