-0.199587 -0.318952 -0.219074 0.300000 0.000000 0.600000
-0.311652 0.236313 0.366456 0.000000 0.500000 0.500000
-0.441685 -0.318952 0.229934 0.300000 0.000000 0.600000
-0.447817 0.371751 0.411790 0.300000 0.600000 0.000000
0.284349 0.053816 0.366456 0.000000 0.500000 0.500000
-0.226911 -0.277344 0.054941 0.300000 0.000000 0.600000
-0.464495 0.042339 0.256659 0.300000 0.000000 0.600000
-0.061718 -0.254264 -0.403303 0.600000 0.300000 0.000000
0.289938 0.165116 -0.361695 0.300000 0.000000 0.600000
0.150061 0.177551 0.445324 0.500000 0.000000 0.500000
-0.052513 0.013917 0.292611 0.600000 0.000000 0.300000
-0.149656 0.309338 0.241083 0.300000 0.600000 0.000000
0.421041 -0.041578 0.408065 0.800000 0.200000 0.500000
-0.441249 -0.277344 0.127988 0.300000 0.000000 0.600000
0.070800 0.201419 -0.403303 0.600000 0.300000 0.000000
-0.568063 -0.677550 -0.403303 0.000000 1.000000 0.000000
-0.464495 0.087839 0.045100 0.300000 0.000000 0.600000
0.396804 0.045200 0.166948 0.600000 0.300000 0.000000
0.534112 -0.723196 0.347731 0.800000 0.200000 0.500000
-0.105073 0.074110 0.366456 0.000000 0.500000 0.500000
-0.467628 -0.045274 -0.278478 0.000000 1.000000 0.000000
0.357275 0.112859 0.046144 0.300000 0.600000 0.000000
-0.239312 0.154540 0.408065 0.000000 0.500000 0.500000
0.421399 -0.196722 -0.278478 0.000000 0.000000 1.000000
0.074708 0.093791 0.366456 0.000000 0.500000 0.500000
-0.265063 0.260026 -0.382499 0.300000 0.000000 0.600000
-0.284184 -0.318952 -0.157116 0.300000 0.000000 0.600000
0.366355 0.263569 -0.151614 0.300000 0.600000 0.000000
-0.501943 0.306333 -0.103721 0.300000 0.000000 0.600000
-0.412484 0.160067 -0.175922 0.600000 0.000000 0.300000
0.157549 -0.318952 -0.161096 0.300000 0.000000 0.600000
0.409002 -0.277344 -0.152580 0.300000 0.000000 0.600000
-0.557921 0.105660 -0.278478 0.000000 1.000000 0.000000
0.534112 0.277925 0.376367 0.800000 0.200000 0.500000
0.396804 0.035014 0.028061 0.600000 0.300000 0.000000
0.346145 -0.318952 -0.251558 0.300000 0.000000 0.600000
-0.589321 0.256310 0.307827 1.000000 0.000000 0.000000
0.023640 0.309338 -0.199725 0.300000 0.600000 0.000000
-0.589321 -0.306998 0.367644 1.000000 0.000000 0.000000
-0.164986 0.034721 0.025462 0.600000 0.300000 0.000000
-0.238626 0.055525 0.271444 0.600000 0.300000 0.000000
0.034852 -0.277344 0.196340 0.300000 0.000000 0.600000
-0.037060 0.034721 0.217565 0.600000 0.300000 0.000000
-0.139626 0.242211 -0.403303 0.600000 0.300000 0.000000
-0.010329 0.371751 0.385973 0.300000 0.600000 0.000000
0.014457 0.309338 0.004674 0.300000 0.600000 0.000000
0.075421 0.371751 -0.061822 0.300000 0.600000 0.000000
-0.402737 -0.277344 -0.075823 0.300000 0.000000 0.600000
0.103360 -0.277344 -0.362614 0.300000 0.000000 0.600000
0.388482 0.138219 -0.041129 0.300000 0.600000 0.000000
0.414540 0.013917 0.249999 0.600000 0.000000 0.300000
-0.502310 -0.293386 0.283239 1.000000 0.000000 0.000000
-0.211025 0.362300 0.460076 0.300000 0.600000 0.000000
-0.309291 -0.277344 0.059519 0.300000 0.000000 0.600000
0.524358 0.079319 -0.278478 0.000000 0.000000 1.000000
-0.373522 0.371751 0.222139 0.300000 0.600000 0.000000
0.329182 0.034721 -0.263096 0.600000 0.300000 0.000000
-0.544260 -0.384858 0.283239 1.000000 0.000000 0.000000
-0.557007 0.371751 0.183965 0.300000 0.600000 0.000000
0.054977 0.371751 0.398975 0.300000 0.600000 0.000000
0.534112 -0.269805 -0.348185 0.000000 0.000000 1.000000
0.343904 0.055525 -0.007800 0.600000 0.300000 0.000000
0.461695 -0.154548 -0.278478 0.000000 0.000000 1.000000
-0.064173 0.309338 -0.030307 0.300000 0.600000 0.000000
0.496528 0.118076 -0.403303 0.000000 0.000000 1.000000
0.356784 0.205585 -0.382499 0.300000 0.000000 0.600000
0.411205 0.309338 0.399937 0.800000 0.200000 0.500000
-0.286040 -0.277344 0.168922 0.300000 0.000000 0.600000
-0.175839 0.131682 0.366456 0.000000 0.500000 0.500000
0.446734 0.050142 -0.013687 0.600000 0.000000 0.300000
0.409286 0.134274 -0.209329 0.600000 0.000000 0.300000
-0.043877 0.055525 -0.159215 0.600000 0.300000 0.000000
0.447546 -0.505459 0.408065 0.800000 0.200000 0.500000
0.533288 -0.180690 0.408065 0.800000 0.200000 0.500000
-0.308086 0.064354 0.408065 0.000000 0.500000 0.500000
0.446734 0.186518 -0.006100 0.600000 0.000000 0.300000
-0.281209 0.190755 0.408065 0.000000 0.500000 0.500000
-0.079533 -0.318952 0.030718 0.300000 0.000000 0.600000
0.141417 0.309338 0.016867 0.300000 0.600000 0.000000
0.457701 0.122581 0.408065 0.800000 0.200000 0.500000
-0.278731 0.070353 0.366456 0.000000 0.500000 0.500000
0.160115 0.371751 -0.145031 0.300000 0.600000 0.000000
-0.335789 -0.277344 0.346945 0.300000 0.000000 0.600000
0.421688 -0.142272 0.408065 0.800000 0.200000 0.500000
-0.501943 0.197510 0.158157 0.300000 0.000000 0.600000
-0.255799 0.132172 -0.403303 0.600000 0.300000 0.000000
0.262664 -0.277344 0.034830 0.300000 0.000000 0.600000
-0.522809 0.323721 -0.413706 0.300000 0.600000 0.000000
0.219803 0.309338 0.255677 0.300000 0.600000 0.000000
-0.464495 0.055125 -0.296924 0.000000 1.000000 0.000000
-0.551642 0.371751 0.446503 0.300000 0.600000 0.000000
-0.306283 -0.225937 -0.403303 0.600000 0.300000 0.000000
0.359631 -0.277344 0.371942 0.300000 0.000000 0.600000
-0.165696 0.371751 0.105320 0.300000 0.600000 0.000000
0.388482 0.127215 0.239535 0.300000 0.600000 0.000000
-0.511380 0.309338 0.261900 0.300000 0.600000 0.000000
-0.038171 -0.277344 -0.046191 0.300000 0.000000 0.600000
-0.251901 0.371751 -0.067268 0.300000 0.600000 0.000000
-0.316685 0.206288 -0.403303 0.600000 0.300000 0.000000
0.544514 0.322280 0.416695 0.300000 0.600000 0.000000
0.272631 0.371751 0.244451 0.300000 0.600000 0.000000
-0.508534 -0.690959 0.408065 1.000000 0.000000 0.000000
-0.035501 -0.318952 -0.007751 0.300000 0.000000 0.600000
0.106111 -0.277344 0.256757 0.300000 0.000000 0.600000
0.100789 -0.277344 0.014658 0.300000 0.000000 0.600000
-0.473100 -0.196407 -0.403303 0.000000 1.000000 0.000000
0.469973 0.227937 0.408065 0.800000 0.200000 0.500000
-0.256721 0.278132 0.341345 0.300000 0.000000 0.600000
0.311110 0.034721 0.062012 0.600000 0.300000 0.000000
-0.025169 -0.318952 0.228840 0.300000 0.000000 0.600000
-0.564096 -0.395033 0.408065 1.000000 0.000000 0.000000
-0.180536 -0.277344 0.148271 0.300000 0.000000 0.600000
-0.501943 0.135928 -0.198792 0.300000 0.000000 0.600000
-0.440953 0.263569 0.171272 0.600000 0.000000 0.300000
-0.133972 -0.318952 0.020568 0.300000 0.000000 0.600000
-0.007619 -0.277344 0.045813 0.300000 0.000000 0.600000
-0.519488 0.165071 -0.278478 0.000000 1.000000 0.000000
-0.435901 0.371751 0.004942 0.300000 0.600000 0.000000
0.051236 -0.318952 -0.178981 0.300000 0.000000 0.600000
0.544514 0.311242 -0.074792 0.300000 0.600000 0.000000
-0.206872 0.013917 0.374749 0.000000 0.500000 0.500000
0.221530 0.064586 -0.403303 0.600000 0.300000 0.000000
0.243486 0.309338 0.090972 0.300000 0.600000 0.000000
-0.505060 -0.464208 0.408065 1.000000 0.000000 0.000000
-0.464495 -0.655355 -0.349948 0.000000 1.000000 0.000000
0.291170 -0.318952 0.373122 0.300000 0.000000 0.600000
-0.315888 -0.318952 -0.195376 0.300000 0.000000 0.600000
-0.369312 0.309338 0.045509 0.300000 0.600000 0.000000
0.282726 -0.277344 -0.105213 0.300000 0.000000 0.600000
-0.249591 -0.277344 -0.078503 0.300000 0.000000 0.600000
-0.477269 -0.138921 0.283239 1.000000 0.000000 0.000000
0.409286 0.181582 -0.088581 0.600000 0.000000 0.300000
0.246288 -0.017167 -0.382499 0.600000 0.300000 0.000000
0.446734 0.275185 -0.215794 0.600000 0.000000 0.300000
0.153212 -0.318952 0.315764 0.300000 0.000000 0.600000
-0.166690 -0.277344 -0.308253 0.300000 0.000000 0.600000
-0.547349 0.092337 0.283239 1.000000 0.000000 0.000000
-0.265806 0.371751 0.137557 0.300000 0.600000 0.000000
0.366439 0.055525 -0.299295 0.600000 0.300000 0.000000
-0.178864 -0.318952 -0.102930 0.300000 0.000000 0.600000
0.534112 0.155730 -0.327346 0.000000 0.000000 1.000000
0.201872 -0.277344 -0.057356 0.300000 0.000000 0.600000
0.042912 0.309338 0.258065 0.300000 0.600000 0.000000
0.315954 0.198383 0.366456 0.000000 0.500000 0.500000
-0.296153 0.371751 0.308541 0.300000 0.600000 0.000000
-0.218543 0.309338 0.303324 0.300000 0.600000 0.000000
0.202536 -0.277344 0.070001 0.300000 0.000000 0.600000
-0.255826 -0.298294 -0.377493 0.300000 0.000000 0.600000
-0.273202 -0.277344 -0.256009 0.300000 0.000000 0.600000
0.472885 -0.696957 -0.278478 0.000000 0.000000 1.000000
-0.115178 -0.318952 0.336835 0.300000 0.000000 0.600000
-0.051349 0.034721 -0.306115 0.600000 0.300000 0.000000
-0.367235 0.034721 -0.327954 0.600000 0.300000 0.000000
-0.328872 -0.277344 -0.036485 0.300000 0.000000 0.600000
0.239728 0.235040 0.366456 0.000000 0.500000 0.500000
0.409286 -0.305848 -0.221540 0.300000 0.000000 0.600000
0.357275 0.192965 0.293896 0.300000 0.600000 0.000000
0.170818 -0.277344 -0.129002 0.300000 0.000000 0.600000
-0.464495 0.189253 0.233788 0.300000 0.000000 0.600000
-0.242297 0.371751 -0.167296 0.300000 0.600000 0.000000
-0.410253 0.371751 -0.184925 0.300000 0.600000 0.000000
-0.405146 0.349557 0.460076 0.300000 0.600000 0.000000
-0.063084 0.371751 0.433393 0.300000 0.600000 0.000000
-0.505111 -0.526251 0.283239 1.000000 0.000000 0.000000
0.409286 0.058985 -0.050706 0.600000 0.000000 0.300000
-0.002198 -0.277344 -0.178660 0.300000 0.000000 0.600000
-0.387718 0.055525 0.201875 0.600000 0.300000 0.000000
-0.589321 0.307089 0.316868 1.000000 0.000000 0.000000
0.534112 -0.477912 -0.289856 0.000000 0.000000 1.000000
-0.003405 0.034721 -0.231961 0.600000 0.300000 0.000000
0.303409 0.309338 -0.316919 0.300000 0.600000 0.000000
-0.005082 0.262850 -0.403303 0.600000 0.300000 0.000000
-0.273099 0.055525 0.311321 0.600000 0.300000 0.000000
0.218027 -0.277344 -0.369393 0.300000 0.000000 0.600000
0.295322 -0.277344 0.252327 0.300000 0.000000 0.600000
0.532983 -0.280807 0.408065 0.800000 0.200000 0.500000
-0.308392 0.176313 -0.361695 0.300000 0.000000 0.600000
0.481542 0.309338 0.044618 0.300000 0.600000 0.000000
0.011271 0.371751 -0.254129 0.300000 0.600000 0.000000
0.409286 0.253725 0.094188 0.600000 0.000000 0.300000
0.271757 -0.277344 0.156080 0.300000 0.000000 0.600000
-0.350696 -0.188821 -0.403303 0.600000 0.300000 0.000000
-0.578240 0.371751 -0.190522 0.300000 0.600000 0.000000
0.357275 0.172766 -0.013402 0.300000 0.600000 0.000000
-0.567512 -0.041218 0.408065 1.000000 0.000000 0.000000
0.446734 0.280297 0.239899 0.600000 0.000000 0.300000
0.504630 0.004028 0.283239 0.800000 0.200000 0.500000
0.519095 -0.610558 0.283239 0.800000 0.200000 0.500000
-0.443691 0.243393 -0.060258 0.600000 0.000000 0.300000
-0.085437 0.034721 0.078354 0.600000 0.300000 0.000000
-0.443691 0.150682 0.303639 0.600000 0.000000 0.300000
0.526903 -0.304929 -0.403303 0.000000 0.000000 1.000000
-0.412484 0.127937 0.146085 0.600000 0.000000 0.300000
-0.426224 -0.318952 0.312970 0.300000 0.000000 0.600000
-0.127401 -0.277344 -0.232725 0.300000 0.000000 0.600000
-0.589321 0.259225 -0.399012 0.000000 1.000000 0.000000
-0.355775 -0.318952 -0.166151 0.300000 0.000000 0.600000
0.446734 0.085092 -0.172902 0.600000 0.000000 0.300000
-0.337836 -0.277344 -0.211752 0.300000 0.000000 0.600000
-0.412484 0.213451 0.171881 0.600000 0.000000 0.300000
0.167978 0.055525 0.082062 0.600000 0.300000 0.000000
0.141176 0.253701 -0.361695 0.300000 0.000000 0.600000
-0.529308 0.061052 0.408065 1.000000 0.000000 0.000000
0.309972 0.232295 -0.361695 0.300000 0.000000 0.600000
0.169902 0.039965 -0.403303 0.600000 0.300000 0.000000
-0.385879 0.263569 -0.364921 0.300000 0.000000 0.600000
0.357275 0.115081 -0.207790 0.300000 0.600000 0.000000
-0.369366 0.117864 0.366456 0.000000 0.500000 0.500000
0.073897 0.055525 -0.010219 0.600000 0.300000 0.000000
-0.438995 0.020119 0.408065 0.000000 0.500000 0.500000
0.072694 0.309338 0.457594 0.300000 0.600000 0.000000
0.255599 -0.318952 0.241055 0.300000 0.000000 0.600000
-0.463467 -0.277344 0.407457 0.300000 0.000000 0.600000
0.536325 0.371751 0.051436 0.300000 0.600000 0.000000
0.190412 0.055525 0.311506 0.600000 0.300000 0.000000
-0.353176 0.034721 -0.212126 0.600000 0.300000 0.000000
0.012931 0.055525 0.285855 0.600000 0.300000 0.000000
-0.235085 -0.277344 0.148344 0.300000 0.000000 0.600000
-0.426991 0.055525 0.079725 0.600000 0.300000 0.000000
-0.006329 0.055525 0.026097 0.600000 0.300000 0.000000
-0.354840 0.081959 -0.403303 0.600000 0.300000 0.000000
0.258179 0.214655 0.408065 0.000000 0.500000 0.500000
-0.464495 0.120207 0.098293 0.300000 0.000000 0.600000
0.363098 -0.026217 -0.382499 0.600000 0.300000 0.000000
-0.464495 -0.264423 -0.359587 0.000000 1.000000 0.000000
-0.490584 0.184218 0.283239 0.300000 0.000000 0.600000
0.409286 0.141624 0.074540 0.600000 0.000000 0.300000
0.401547 -0.318952 -0.124010 0.300000 0.000000 0.600000
-0.177935 0.309338 0.145973 0.300000 0.600000 0.000000
0.544514 0.368870 -0.159869 0.300000 0.600000 0.000000
0.315918 -0.318952 0.065558 0.300000 0.000000 0.600000
0.357275 0.101152 0.319315 0.300000 0.600000 0.000000
0.438366 -0.267490 0.408065 0.800000 0.200000 0.500000
-0.185036 0.022151 -0.403303 0.600000 0.300000 0.000000
0.107077 0.055525 0.261022 0.600000 0.300000 0.000000
0.160878 0.309338 -0.204214 0.300000 0.600000 0.000000
0.331372 0.034721 -0.083811 0.600000 0.300000 0.000000
-0.589321 0.124751 -0.400738 0.000000 1.000000 0.000000
-0.451173 -0.318952 0.024403 0.300000 0.000000 0.600000
-0.553307 0.235230 0.283239 1.000000 0.000000 0.000000
-0.091367 0.309338 -0.211914 0.300000 0.600000 0.000000
0.495558 -0.065095 -0.403303 0.000000 0.000000 1.000000
0.322025 0.055525 0.205667 0.600000 0.300000 0.000000
0.250896 -0.261450 -0.403303 0.600000 0.300000 0.000000
0.030461 0.184215 0.366456 0.000000 0.500000 0.500000
-0.118546 -0.087282 -0.382499 0.600000 0.300000 0.000000
-0.565263 0.046244 0.283239 1.000000 0.000000 0.000000
-0.030084 -0.277344 0.402946 0.300000 0.000000 0.600000
0.224827 -0.185502 -0.382499 0.600000 0.300000 0.000000
0.129951 -0.318952 0.023247 0.300000 0.000000 0.600000
0.415719 -0.301169 -0.278478 0.000000 0.000000 1.000000
-0.053698 -0.171540 -0.403303 0.600000 0.300000 0.000000
0.385514 0.034721 -0.364284 0.600000 0.300000 0.000000
0.446734 0.109503 0.219081 0.600000 0.000000 0.300000
-0.135424 0.371751 -0.366005 0.300000 0.600000 0.000000
0.446734 0.115060 0.095001 0.600000 0.000000 0.300000
0.370682 0.371751 -0.193778 0.300000 0.600000 0.000000
0.436913 -0.184548 0.283239 0.800000 0.200000 0.500000
0.169058 0.116417 0.366456 0.000000 0.500000 0.500000
0.515575 -0.072002 0.408065 0.800000 0.200000 0.500000
0.237607 0.034721 0.062284 0.600000 0.300000 0.000000
0.409286 -0.046572 -0.392864 0.600000 0.300000 0.000000
-0.206355 0.189699 -0.403303 0.600000 0.300000 0.000000
-0.144918 -0.277344 -0.121375 0.300000 0.000000 0.600000
-0.123829 0.371751 -0.129805 0.300000 0.600000 0.000000
0.514417 -0.281245 0.283239 0.800000 0.200000 0.500000
0.394338 0.263741 0.366456 0.000000 0.500000 0.500000
0.240578 -0.318952 0.126037 0.300000 0.000000 0.600000
0.357275 0.215244 0.198797 0.300000 0.600000 0.000000
-0.418719 0.211465 0.408065 0.000000 0.500000 0.500000
-0.464495 0.129665 0.156441 0.300000 0.000000 0.600000
0.450571 0.309338 -0.256271 0.300000 0.600000 0.000000
0.168275 -0.271635 -0.382499 0.600000 0.300000 0.000000
-0.225230 -0.318952 0.282356 0.300000 0.000000 0.600000
0.534112 0.188340 -0.399467 0.000000 0.000000 1.000000
-0.369338 0.309338 -0.176925 0.300000 0.600000 0.000000
-0.599723 0.312239 -0.251399 0.300000 0.600000 0.000000
0.107014 -0.318952 -0.218394 0.300000 0.000000 0.600000
-0.568066 -0.684821 0.408065 1.000000 0.000000 0.000000
-0.423815 0.055525 0.330273 0.600000 0.300000 0.000000
-0.464495 0.280843 -0.287963 0.000000 1.000000 0.000000
-0.464495 0.188187 0.003761 0.300000 0.000000 0.600000
-0.122928 0.055525 -0.367643 0.300000 0.000000 0.600000
-0.412484 0.211264 -0.043562 0.600000 0.000000 0.300000
0.087616 0.034721 -0.093649 0.600000 0.300000 0.000000
-0.460924 0.371751 0.231242 0.300000 0.600000 0.000000
-0.109445 0.141491 -0.403303 0.600000 0.300000 0.000000
-0.129132 0.019554 0.408065 0.000000 0.500000 0.500000
0.027371 -0.318952 -0.087132 0.300000 0.000000 0.600000
0.446734 0.242215 -0.027393 0.600000 0.000000 0.300000
-0.225120 -0.277344 -0.232198 0.300000 0.000000 0.600000
0.007877 0.055525 0.335047 0.600000 0.300000 0.000000
-0.181041 0.309338 -0.217941 0.300000 0.600000 0.000000
0.146730 0.371751 -0.369215 0.300000 0.600000 0.000000
0.493934 0.309338 0.288069 0.300000 0.600000 0.000000
0.103942 -0.277344 -0.032886 0.300000 0.000000 0.600000
0.250455 0.371751 -0.172576 0.300000 0.600000 0.000000
-0.021522 -0.318952 0.327357 0.300000 0.000000 0.600000
-0.588252 -0.052686 0.283239 1.000000 0.000000 0.000000
-0.160306 0.190327 0.408065 0.000000 0.500000 0.500000
-0.389089 -0.272383 -0.382499 0.600000 0.300000 0.000000
0.348710 0.309338 0.046417 0.300000 0.600000 0.000000
0.432064 -0.055062 0.283239 0.800000 0.200000 0.500000
-0.467487 -0.674140 -0.403303 0.000000 1.000000 0.000000
-0.085188 0.210321 -0.361695 0.300000 0.000000 0.600000
0.162353 -0.277344 -0.257558 0.300000 0.000000 0.600000
0.534112 -0.644096 0.402370 0.800000 0.200000 0.500000
0.440323 0.371751 0.182950 0.300000 0.600000 0.000000
-0.285657 -0.002287 -0.403303 0.600000 0.300000 0.000000
0.534112 -0.730313 -0.359624 0.000000 0.000000 1.000000
-0.049381 0.013917 0.354997 0.600000 0.000000 0.300000
-0.295781 0.071939 -0.361695 0.300000 0.000000 0.600000
-0.464495 0.151018 0.395934 1.000000 0.000000 0.000000
-0.176970 0.034721 0.175099 0.600000 0.300000 0.000000
-0.130475 0.371751 0.459324 0.300000 0.600000 0.000000
0.166128 0.371751 0.353748 0.300000 0.600000 0.000000
-0.122412 0.371751 0.322547 0.300000 0.600000 0.000000
-0.119345 0.309338 -0.087021 0.300000 0.600000 0.000000
-0.405611 0.053924 0.408065 0.000000 0.500000 0.500000
-0.464495 -0.582566 0.324740 1.000000 0.000000 0.000000
0.138194 0.371751 0.121871 0.300000 0.600000 0.000000
-0.555956 0.309338 0.358168 0.300000 0.600000 0.000000
-0.142939 -0.277344 0.058757 0.300000 0.000000 0.600000
-0.589321 -0.595551 0.398287 1.000000 0.000000 0.000000
-0.589321 -0.209660 -0.333279 0.000000 1.000000 0.000000
-0.501943 0.127447 -0.073971 0.300000 0.000000 0.600000
-0.433765 0.309338 -0.024322 0.300000 0.600000 0.000000
-0.070546 -0.293252 -0.377493 0.300000 0.000000 0.600000
0.274440 0.263569 -0.362516 0.300000 0.000000 0.600000
-0.463807 0.371751 0.318399 0.300000 0.600000 0.000000
0.296118 0.055525 -0.348633 0.600000 0.300000 0.000000
0.085335 0.055525 0.308331 0.600000 0.300000 0.000000
0.311891 -0.318952 -0.296783 0.300000 0.000000 0.600000
0.534112 -0.179873 -0.326001 0.000000 0.000000 1.000000
0.223892 0.034721 0.005711 0.600000 0.300000 0.000000
-0.135023 -0.318952 0.135255 0.300000 0.000000 0.600000
0.418646 -0.409149 -0.278478 0.000000 0.000000 1.000000
-0.173023 0.156447 -0.361695 0.300000 0.000000 0.600000
-0.491175 0.371751 0.144056 0.300000 0.600000 0.000000
-0.589321 -0.146476 0.337487 1.000000 0.000000 0.000000
-0.126838 -0.277344 -0.055674 0.300000 0.000000 0.600000
0.409286 -0.395517 0.321052 0.800000 0.200000 0.500000
-0.307241 -0.318952 0.031800 0.300000 0.000000 0.600000
-0.016627 0.215456 -0.403303 0.600000 0.300000 0.000000
-0.321602 0.371751 -0.220817 0.300000 0.600000 0.000000
-0.350691 -0.146464 -0.382499 0.600000 0.300000 0.000000
0.345594 -0.304252 0.408065 0.300000 0.000000 0.600000
-0.522945 0.371751 0.086687 0.300000 0.600000 0.000000
-0.443691 0.108433 -0.292414 0.600000 0.000000 0.300000
-0.237609 -0.318952 -0.164368 0.300000 0.000000 0.600000
-0.285609 -0.318952 0.131765 0.300000 0.000000 0.600000
0.409286 -0.567305 0.385120 0.800000 0.200000 0.500000
-0.019700 0.215468 0.408065 0.000000 0.500000 0.500000
-0.440055 -0.112819 -0.382499 0.600000 0.300000 0.000000
0.035836 0.371751 -0.153556 0.300000 0.600000 0.000000
0.068364 -0.277344 0.353194 0.300000 0.000000 0.600000
0.197416 -0.318952 0.037263 0.300000 0.000000 0.600000
0.098732 0.309338 0.181131 0.300000 0.600000 0.000000
0.320339 0.219891 0.408065 0.000000 0.500000 0.500000
-0.437363 0.214713 -0.382499 0.300000 0.000000 0.600000
0.444344 -0.351003 0.408065 0.800000 0.200000 0.500000
0.026111 -0.277344 0.081227 0.300000 0.000000 0.600000
0.207095 0.309338 -0.400381 0.300000 0.600000 0.000000
-0.419336 0.263569 -0.280090 0.600000 0.000000 0.300000
0.360812 -0.318952 -0.051450 0.300000 0.000000 0.600000
-0.134808 -0.277344 0.171388 0.300000 0.000000 0.600000
-0.205700 0.095004 0.408065 0.000000 0.500000 0.500000
0.357275 0.257242 -0.238108 0.300000 0.600000 0.000000
0.017564 -0.090412 -0.382499 0.600000 0.300000 0.000000
-0.589321 -0.411013 -0.279410 0.000000 1.000000 0.000000
-0.096232 0.309338 -0.258603 0.300000 0.600000 0.000000
0.342433 -0.318952 0.127169 0.300000 0.000000 0.600000
0.409286 -0.110195 0.351778 0.800000 0.200000 0.500000
0.357275 0.199799 0.119646 0.300000 0.600000 0.000000
-0.543451 0.371751 -0.004184 0.300000 0.600000 0.000000
-0.501943 0.217235 -0.078855 0.300000 0.000000 0.600000
0.488390 -0.257102 0.408065 0.800000 0.200000 0.500000
0.417153 0.013917 -0.010207 0.600000 0.000000 0.300000
0.265595 0.278132 0.348012 0.300000 0.000000 0.600000
-0.176379 0.309338 0.401171 0.300000 0.600000 0.000000
-0.583986 -0.125196 -0.403303 0.000000 1.000000 0.000000
-0.562791 0.114576 0.408065 1.000000 0.000000 0.000000
-0.269825 -0.277344 -0.141073 0.300000 0.000000 0.600000
-0.315676 0.257369 0.408065 0.000000 0.500000 0.500000
0.049117 0.249865 -0.403303 0.600000 0.300000 0.000000
0.348396 -0.318952 0.265121 0.300000 0.000000 0.600000
0.534112 -0.012049 -0.312225 0.000000 0.000000 1.000000
0.317278 0.371751 0.195445 0.300000 0.600000 0.000000
0.357275 0.140259 0.126570 0.300000 0.600000 0.000000
0.236060 0.171581 -0.382499 0.600000 0.300000 0.000000
-0.208638 -0.318952 0.212313 0.300000 0.000000 0.600000
0.409286 0.112456 -0.318155 0.000000 0.000000 1.000000
-0.266806 0.309338 -0.118835 0.300000 0.600000 0.000000
-0.109254 0.196702 0.408065 0.000000 0.500000 0.500000
-0.033830 0.172852 0.448195 0.500000 0.000000 0.500000
0.370667 0.371751 0.362448 0.300000 0.600000 0.000000
0.244551 0.309338 -0.017223 0.300000 0.600000 0.000000
0.237073 0.371751 0.384405 0.300000 0.600000 0.000000
-0.081903 0.055525 -0.234742 0.600000 0.300000 0.000000
0.409286 0.070728 -0.218276 0.600000 0.000000 0.300000
-0.267416 0.055525 -0.044872 0.600000 0.300000 0.000000
0.028284 0.309338 0.167546 0.300000 0.600000 0.000000
0.534112 -0.103922 -0.297188 0.000000 0.000000 1.000000
-0.266079 -0.318952 0.304467 0.300000 0.000000 0.600000
-0.578494 0.309338 -0.381604 0.300000 0.600000 0.000000
0.190819 0.055525 -0.258301 0.600000 0.300000 0.000000
0.238405 -0.318952 -0.317322 0.300000 0.000000 0.600000
-0.501943 0.133736 0.070335 0.300000 0.000000 0.600000
-0.085908 0.371751 -0.086575 0.300000 0.600000 0.000000
-0.211687 -0.318952 0.154909 0.300000 0.000000 0.600000
0.320394 0.083035 0.366456 0.000000 0.500000 0.500000
-0.121956 -0.208812 -0.382499 0.600000 0.300000 0.000000
0.303560 0.055525 0.324302 0.600000 0.300000 0.000000
0.357275 0.169199 -0.283142 0.300000 0.600000 0.000000
-0.236231 0.048789 0.366456 0.600000 0.300000 0.000000
0.326702 0.108032 -0.403303 0.600000 0.300000 0.000000
-0.388262 0.371751 -0.352487 0.300000 0.600000 0.000000
0.168689 -0.277344 0.362299 0.300000 0.000000 0.600000
0.036289 -0.277344 -0.340508 0.300000 0.000000 0.600000
-0.005464 0.326525 -0.413706 0.300000 0.600000 0.000000
0.341987 0.034721 -0.216449 0.600000 0.300000 0.000000
-0.509251 -0.213229 -0.278478 0.000000 1.000000 0.000000
0.112473 0.163266 0.408065 0.000000 0.500000 0.500000
0.009034 0.371751 0.038652 0.300000 0.600000 0.000000
-0.178650 -0.318952 0.120102 0.300000 0.000000 0.600000
0.118294 0.109042 0.366456 0.000000 0.500000 0.500000
-0.309089 0.034721 0.139234 0.600000 0.300000 0.000000
-0.422808 0.263569 -0.149557 0.600000 0.000000 0.300000
0.052665 -0.277344 0.291748 0.300000 0.000000 0.600000
0.233054 -0.318952 -0.087013 0.300000 0.000000 0.600000
0.091716 -0.318952 0.387845 0.300000 0.000000 0.600000
0.357275 0.218352 -0.150593 0.300000 0.600000 0.000000
-0.358984 0.031250 0.283239 0.600000 0.000000 0.300000
0.409286 -0.275116 0.299265 0.800000 0.200000 0.500000
0.381587 0.097927 -0.361695 0.300000 0.000000 0.600000
-0.418976 -0.312996 -0.377493 0.300000 0.000000 0.600000
0.063395 -0.318952 -0.125207 0.300000 0.000000 0.600000
0.486687 0.309338 -0.166397 0.300000 0.600000 0.000000
0.409286 0.149917 -0.146232 0.600000 0.000000 0.300000
0.346454 0.278312 0.324848 0.300000 0.000000 0.600000
-0.464495 0.229427 -0.233702 0.300000 0.000000 0.600000
-0.262413 0.178152 -0.361695 0.300000 0.000000 0.600000
-0.198433 0.105496 -0.361695 0.300000 0.000000 0.600000
-0.374939 0.309338 0.353452 0.300000 0.000000 0.600000
-0.412484 0.063921 0.031708 0.600000 0.000000 0.300000
-0.501943 0.273830 0.194717 0.300000 0.000000 0.600000
0.410346 0.309338 -0.102395 0.600000 0.000000 0.300000
0.225595 0.013917 0.285491 0.600000 0.000000 0.300000
0.487759 0.151784 -0.278478 0.000000 0.000000 1.000000
-0.332400 -0.318952 0.275306 0.300000 0.000000 0.600000
-0.370440 -0.318952 -0.077278 0.300000 0.000000 0.600000
0.486547 -0.594683 0.408065 0.800000 0.200000 0.500000
0.370998 0.034721 0.273952 0.600000 0.300000 0.000000
-0.453660 0.309338 -0.362964 0.300000 0.600000 0.000000
-0.510409 0.371751 -0.373086 0.300000 0.600000 0.000000
-0.133711 0.288685 0.324848 0.300000 0.000000 0.600000
0.521348 -0.335497 0.408065 0.800000 0.200000 0.500000
-0.326951 0.371751 -0.169067 0.300000 0.600000 0.000000
-0.173620 0.371751 -0.405510 0.300000 0.600000 0.000000
-0.312328 0.127611 -0.403303 0.600000 0.300000 0.000000
-0.587526 -0.728668 -0.278478 0.000000 1.000000 0.000000
0.145367 0.034721 0.013640 0.600000 0.300000 0.000000
-0.464495 0.213145 -0.118971 0.300000 0.000000 0.600000
0.213327 0.371751 -0.243791 0.300000 0.600000 0.000000
-0.063203 0.202474 0.366456 0.000000 0.500000 0.500000
-0.112996 0.055525 -0.173746 0.600000 0.300000 0.000000
-0.464495 -0.609996 -0.344776 0.000000 1.000000 0.000000
0.409286 -0.434724 0.292483 0.800000 0.200000 0.500000
-0.352957 -0.078698 -0.403303 0.600000 0.300000 0.000000
-0.412484 0.213841 -0.295066 0.600000 0.000000 0.300000
0.409286 0.304165 0.254762 0.600000 0.000000 0.300000
-0.212610 -0.318952 -0.267682 0.300000 0.000000 0.600000
-0.341860 -0.277344 0.091454 0.300000 0.000000 0.600000
0.544514 0.329786 -0.203449 0.300000 0.600000 0.000000
-0.464495 0.024887 0.351128 0.600000 0.000000 0.300000
-0.175336 -0.318952 0.001490 0.300000 0.000000 0.600000
-0.121023 0.245633 0.408065 0.000000 0.500000 0.500000
0.321674 -0.277344 -0.233864 0.300000 0.000000 0.600000
0.481767 0.133125 0.283239 0.800000 0.200000 0.500000
-0.431535 0.055525 0.168973 0.600000 0.000000 0.300000
0.406327 0.285290 -0.382499 0.600000 0.300000 0.000000
-0.285337 0.309338 -0.197215 0.300000 0.600000 0.000000
-0.288694 0.034721 -0.099582 0.600000 0.300000 0.000000
0.240739 -0.277344 -0.161256 0.300000 0.000000 0.600000
0.496168 0.344804 0.460076 0.300000 0.600000 0.000000
0.409286 -0.679807 -0.370408 0.000000 0.000000 1.000000
-0.373584 -0.277344 0.267162 0.300000 0.000000 0.600000
-0.036118 0.055525 -0.207971 0.600000 0.300000 0.000000
-0.464495 0.259266 -0.099478 0.300000 0.000000 0.600000
-0.098281 0.309338 -0.363779 0.300000 0.600000 0.000000
-0.203403 0.034721 -0.185845 0.600000 0.300000 0.000000
0.469465 -0.573867 -0.278478 0.000000 0.000000 1.000000
-0.283267 0.175480 -0.403303 0.600000 0.300000 0.000000
-0.096118 -0.002850 -0.403303 0.600000 0.300000 0.000000
0.082948 -0.318952 0.247065 0.300000 0.000000 0.600000
-0.443691 0.231425 0.026354 0.600000 0.000000 0.300000
0.409286 0.082050 -0.089837 0.600000 0.000000 0.300000
-0.199649 0.309338 0.240926 0.300000 0.600000 0.000000
-0.015274 0.062617 0.408065 0.000000 0.500000 0.500000
-0.589321 0.081167 0.357902 1.000000 0.000000 0.000000
-0.076696 0.144705 0.408065 0.000000 0.500000 0.500000
0.446734 0.207832 -0.163110 0.600000 0.000000 0.300000
-0.197293 0.278132 0.340075 0.300000 0.000000 0.600000
0.409286 0.203344 0.024546 0.600000 0.000000 0.300000
0.323788 -0.277344 0.337748 0.300000 0.000000 0.600000
-0.189721 0.371751 -0.103137 0.300000 0.600000 0.000000
-0.032747 -0.318952 -0.326457 0.300000 0.000000 0.600000
0.514380 0.371751 -0.377492 0.300000 0.600000 0.000000
0.514759 -0.264553 -0.278478 0.000000 0.000000 1.000000
-0.470692 0.309338 0.387902 1.000000 0.000000 0.000000
-0.164732 0.323192 -0.413706 0.300000 0.600000 0.000000
0.419155 0.370632 -0.413706 0.300000 0.600000 0.000000
-0.357569 -0.318952 -0.264894 0.300000 0.000000 0.600000
-0.191712 0.239797 -0.403303 0.600000 0.300000 0.000000
0.434862 -0.660133 0.408065 0.800000 0.200000 0.500000
0.409286 -0.644850 0.326705 0.800000 0.200000 0.500000
0.446734 0.278941 0.193940 0.600000 0.000000 0.300000
-0.501943 0.134023 0.228873 0.300000 0.000000 0.600000
0.034619 0.368259 0.460076 0.300000 0.600000 0.000000
-0.430231 0.309338 -0.123251 0.300000 0.600000 0.000000
-0.053585 0.309338 0.284390 0.300000 0.600000 0.000000
0.370104 0.157075 0.408065 0.000000 0.500000 0.500000
0.084104 0.034721 -0.322945 0.600000 0.300000 0.000000
-0.043999 -0.318952 0.065500 0.300000 0.000000 0.600000
0.435376 -0.602482 0.283239 0.800000 0.200000 0.500000
-0.288247 0.309338 0.104838 0.300000 0.600000 0.000000
0.141236 -0.318952 0.359221 0.300000 0.000000 0.600000
0.407478 0.302342 0.324848 0.300000 0.000000 0.600000
0.088875 0.047832 0.366456 0.600000 0.300000 0.000000
0.085802 0.034721 0.068758 0.600000 0.300000 0.000000
0.078140 0.309338 -0.265708 0.300000 0.600000 0.000000
0.478576 0.371751 0.012765 0.300000 0.600000 0.000000
0.534112 -0.409514 0.326860 0.800000 0.200000 0.500000
0.212493 -0.093533 -0.382499 0.600000 0.300000 0.000000
0.313946 0.309338 0.017835 0.300000 0.600000 0.000000
0.534112 -0.408853 0.406672 0.800000 0.200000 0.500000
0.106335 0.339046 0.460076 0.300000 0.600000 0.000000
0.211978 -0.318952 -0.145442 0.300000 0.000000 0.600000
-0.009729 0.034721 0.112935 0.600000 0.300000 0.000000
-0.443691 0.113030 -0.179121 0.600000 0.000000 0.300000
0.446734 0.189122 0.055335 0.600000 0.000000 0.300000
0.165429 -0.318952 0.129652 0.300000 0.000000 0.600000
0.069040 -0.318952 0.033098 0.300000 0.000000 0.600000
0.276424 -0.277344 -0.240204 0.300000 0.000000 0.600000
-0.321543 0.309338 -0.372600 0.300000 0.600000 0.000000
-0.469870 -0.362352 0.408065 1.000000 0.000000 0.000000
0.309955 0.371751 0.407773 0.300000 0.600000 0.000000
-0.383939 0.180864 -0.403303 0.600000 0.300000 0.000000
0.534112 0.044595 -0.377440 0.000000 0.000000 1.000000
-0.235988 0.371751 0.186597 0.300000 0.600000 0.000000
0.187587 -0.318952 -0.194333 0.300000 0.000000 0.600000
-0.046020 0.309338 0.082145 0.300000 0.600000 0.000000
0.098803 -0.277344 0.316332 0.300000 0.000000 0.600000
-0.589321 -0.619190 0.319545 1.000000 0.000000 0.000000
0.442297 -0.730878 -0.323179 0.000000 0.000000 1.000000
0.221076 0.013917 0.349011 0.600000 0.000000 0.300000
0.302839 0.371751 -0.012345 0.300000 0.600000 0.000000
0.503177 0.371751 -0.255920 0.300000 0.600000 0.000000
0.124809 0.371751 0.422363 0.300000 0.600000 0.000000
-0.589321 -0.718909 -0.335264 0.000000 1.000000 0.000000
-0.037112 0.034721 -0.359912 0.600000 0.300000 0.000000
-0.331486 0.055525 -0.165572 0.600000 0.300000 0.000000
0.544514 0.349698 0.187631 0.300000 0.600000 0.000000
-0.501943 0.112039 0.173297 0.300000 0.000000 0.600000
-0.045544 -0.277344 0.096912 0.300000 0.000000 0.600000
0.332769 -0.318952 -0.148129 0.300000 0.000000 0.600000
-0.360043 -0.277344 -0.321715 0.300000 0.000000 0.600000
0.496644 0.263768 0.408065 0.800000 0.200000 0.500000
0.435676 0.371751 0.275082 0.300000 0.600000 0.000000
0.379680 -0.318952 0.359958 0.300000 0.000000 0.600000
-0.211095 0.145034 -0.403303 0.600000 0.300000 0.000000
0.534112 -0.054169 -0.351601 0.000000 0.000000 1.000000
-0.412211 -0.318952 -0.324007 0.300000 0.000000 0.600000
0.032103 0.371751 -0.343550 0.300000 0.600000 0.000000
-0.275240 -0.277344 -0.343290 0.300000 0.000000 0.600000
-0.218667 -0.266543 -0.403303 0.600000 0.300000 0.000000
-0.328253 -0.318952 -0.374329 0.300000 0.000000 0.600000
-0.517799 -0.406330 0.408065 1.000000 0.000000 0.000000
0.516695 0.219216 0.283239 0.800000 0.200000 0.500000
-0.400502 -0.277344 -0.031327 0.300000 0.000000 0.600000
0.197670 0.177465 0.366456 0.000000 0.500000 0.500000
0.388482 0.081084 0.058815 0.300000 0.600000 0.000000
0.366303 -0.277344 0.257732 0.300000 0.000000 0.600000
-0.057353 0.371751 0.383378 0.300000 0.600000 0.000000
-0.056461 -0.277344 -0.265982 0.300000 0.000000 0.600000
-0.531124 -0.284249 -0.403303 0.000000 1.000000 0.000000
0.409286 0.006018 -0.297599 0.000000 0.000000 1.000000
0.292578 0.309338 0.168207 0.300000 0.600000 0.000000
-0.247745 0.309338 0.429586 0.300000 0.600000 0.000000
0.425837 0.371751 -0.303293 0.300000 0.600000 0.000000
0.343187 -0.277344 -0.090817 0.300000 0.000000 0.600000
-0.239087 -0.213813 -0.403303 0.600000 0.300000 0.000000
-0.464495 -0.436618 0.286083 1.000000 0.000000 0.000000
-0.360230 0.371751 -0.056699 0.300000 0.600000 0.000000
-0.170616 -0.277344 0.208470 0.300000 0.000000 0.600000
-0.382454 -0.015377 -0.382499 0.600000 0.300000 0.000000
0.116538 0.187824 -0.403303 0.600000 0.300000 0.000000
0.152432 -0.277344 -0.088607 0.300000 0.000000 0.600000
-0.443691 0.211806 0.271269 0.600000 0.000000 0.300000
-0.464495 -0.437194 -0.347183 0.000000 1.000000 0.000000
-0.464495 0.167552 -0.124454 0.300000 0.000000 0.600000
-0.589321 -0.624908 -0.359587 0.000000 1.000000 0.000000
-0.501943 0.045681 0.084932 0.300000 0.000000 0.600000
0.319331 -0.277344 -0.003347 0.300000 0.000000 0.600000
-0.102001 0.055525 0.007776 0.600000 0.300000 0.000000
0.128863 0.055525 0.145394 0.600000 0.300000 0.000000
-0.439622 0.371751 -0.060854 0.300000 0.600000 0.000000
0.446734 0.229615 -0.268193 0.600000 0.000000 0.300000
-0.561045 0.171939 0.283239 1.000000 0.000000 0.000000
-0.538121 -0.363828 -0.278478 0.000000 1.000000 0.000000
-0.097439 -0.318952 -0.261738 0.300000 0.000000 0.600000
0.019519 0.055525 0.087009 0.600000 0.300000 0.000000
0.373603 0.055944 0.408065 0.000000 0.500000 0.500000
0.216749 0.371751 0.190363 0.300000 0.600000 0.000000
-0.198899 0.034721 -0.298372 0.600000 0.300000 0.000000
0.125236 -0.301574 -0.403303 0.600000 0.300000 0.000000
0.019863 -0.234318 -0.382499 0.600000 0.300000 0.000000
-0.287604 0.309338 0.409990 0.300000 0.600000 0.000000
0.277622 0.228897 -0.403303 0.600000 0.300000 0.000000
-0.112803 0.371751 -0.014338 0.300000 0.600000 0.000000
-0.545390 -0.009108 0.283239 1.000000 0.000000 0.000000
-0.412484 0.087366 0.106762 0.600000 0.000000 0.300000
-0.181670 -0.156048 -0.403303 0.600000 0.300000 0.000000
0.534112 -0.621547 -0.372735 0.000000 0.000000 1.000000
0.516428 0.003528 -0.403303 0.000000 0.000000 1.000000
-0.589321 -0.292804 -0.400459 0.000000 1.000000 0.000000
-0.091619 0.371751 0.199293 0.300000 0.600000 0.000000
0.209062 -0.318952 0.303462 0.300000 0.000000 0.600000
-0.522902 -0.710779 -0.403303 0.000000 1.000000 0.000000
-0.533137 -0.024518 -0.403303 0.000000 1.000000 0.000000
-0.558704 0.309338 -0.180056 0.300000 0.600000 0.000000
0.409286 0.208112 0.122857 0.600000 0.000000 0.300000
0.388482 0.087289 0.156952 0.300000 0.600000 0.000000
-0.126686 0.371751 0.084872 0.300000 0.600000 0.000000
-0.464498 -0.610141 0.283239 1.000000 0.000000 0.000000
-0.168894 -0.318952 0.360860 0.300000 0.000000 0.600000
-0.589321 -0.497067 -0.299820 0.000000 1.000000 0.000000
0.035807 0.309338 -0.038640 0.300000 0.600000 0.000000
0.534112 -0.016486 0.341328 0.800000 0.200000 0.500000
0.303555 0.371751 -0.192764 0.300000 0.600000 0.000000
-0.516287 0.309338 0.396393 0.300000 0.600000 0.000000
-0.326133 0.309338 -0.273267 0.300000 0.600000 0.000000
-0.475989 -0.721845 -0.278478 0.000000 1.000000 0.000000
0.074635 0.034721 0.205978 0.600000 0.300000 0.000000
0.175732 0.371751 0.040072 0.300000 0.600000 0.000000
-0.340925 -0.277344 0.195526 0.300000 0.000000 0.600000
-0.593225 0.371751 0.338792 0.300000 0.600000 0.000000
0.472480 -0.629994 -0.403303 0.000000 0.000000 1.000000
0.442832 0.309338 -0.299512 0.000000 0.000000 1.000000
0.013254 0.138927 0.366456 0.000000 0.500000 0.500000
0.388482 0.190346 -0.135565 0.300000 0.600000 0.000000
0.357275 0.077625 -0.053108 0.300000 0.600000 0.000000
0.153971 0.309338 -0.410709 0.300000 0.600000 0.000000
-0.464495 -0.376241 0.285169 1.000000 0.000000 0.000000
0.409286 0.268213 -0.137743 0.600000 0.000000 0.300000
-0.369593 0.371751 0.103997 0.300000 0.600000 0.000000
0.363697 0.309338 0.135175 0.300000 0.600000 0.000000
0.027403 0.102343 0.408065 0.000000 0.500000 0.500000
0.454835 0.371751 -0.148019 0.300000 0.600000 0.000000
-0.544114 0.362055 -0.413706 0.300000 0.600000 0.000000
-0.530804 -0.588950 0.283239 1.000000 0.000000 0.000000
0.242975 0.309338 -0.240327 0.300000 0.600000 0.000000
-0.464495 -0.044557 0.315375 1.000000 0.000000 0.000000
-0.502019 -0.115678 0.408065 1.000000 0.000000 0.000000
0.119366 0.062422 -0.382499 0.300000 0.000000 0.600000
0.441945 -0.730878 0.313955 0.800000 0.200000 0.500000
0.389027 0.092401 0.366456 0.000000 0.500000 0.500000
-0.523997 -0.730878 0.295351 1.000000 0.000000 0.000000
-0.334718 0.055525 -0.024887 0.600000 0.300000 0.000000
-0.142643 -0.128857 -0.382499 0.600000 0.300000 0.000000
-0.412484 0.210551 0.333869 0.600000 0.000000 0.300000
-0.149208 0.055525 -0.282710 0.600000 0.300000 0.000000
0.184533 0.034721 -0.188137 0.600000 0.300000 0.000000
0.272944 0.371751 0.443449 0.300000 0.600000 0.000000
-0.489512 -0.730878 -0.362042 0.000000 1.000000 0.000000
0.454772 0.076985 -0.403303 0.000000 0.000000 1.000000
0.114400 -0.277344 0.401221 0.300000 0.000000 0.600000
-0.406862 -0.277344 0.024126 0.300000 0.000000 0.600000
-0.277769 0.309338 0.215835 0.300000 0.600000 0.000000
-0.261474 0.309338 -0.376546 0.300000 0.600000 0.000000
0.222845 -0.277344 0.178513 0.300000 0.000000 0.600000
-0.012631 0.309338 -0.084500 0.300000 0.600000 0.000000
-0.413963 0.371751 0.096010 0.300000 0.600000 0.000000
-0.493815 0.371751 -0.097956 0.300000 0.600000 0.000000
0.171254 0.309338 0.166590 0.300000 0.600000 0.000000
-0.589321 -0.132663 0.382213 1.000000 0.000000 0.000000
0.409286 0.020207 0.350855 0.800000 0.200000 0.500000
0.080466 0.202812 0.366456 0.000000 0.500000 0.500000
0.529236 0.309338 -0.401787 0.300000 0.600000 0.000000
0.209917 0.371751 0.274804 0.300000 0.600000 0.000000
0.196741 0.126595 0.408065 0.000000 0.500000 0.500000
0.444497 0.055918 0.408065 0.800000 0.200000 0.500000
0.354633 0.034721 0.169568 0.600000 0.300000 0.000000
0.446734 0.188219 0.233527 0.600000 0.000000 0.300000
0.176639 -0.318952 -0.281090 0.300000 0.000000 0.600000
-0.501943 0.066632 0.038696 0.300000 0.000000 0.600000
0.002737 -0.277344 -0.061008 0.300000 0.000000 0.600000
0.409286 -0.659855 0.372898 0.800000 0.200000 0.500000
-0.443691 0.103650 -0.084353 0.600000 0.000000 0.300000
0.424419 -0.425637 0.408065 0.800000 0.200000 0.500000
-0.501943 0.124400 -0.156878 0.300000 0.000000 0.600000
0.544514 0.323061 0.125010 0.300000 0.600000 0.000000
-0.345566 0.371751 -0.007253 0.300000 0.600000 0.000000
-0.385017 0.013917 0.327032 0.600000 0.000000 0.300000
-0.353451 -0.277344 -0.127890 0.300000 0.000000 0.600000
-0.501943 0.246677 0.088093 0.300000 0.000000 0.600000
-0.589321 -0.071354 -0.401741 0.000000 1.000000 0.000000
0.072439 -0.318952 0.138025 0.300000 0.000000 0.600000
-0.349038 -0.318952 0.220301 0.300000 0.000000 0.600000
-0.286113 -0.083338 -0.403303 0.600000 0.300000 0.000000
-0.524706 0.309338 0.303227 0.300000 0.600000 0.000000
-0.014759 0.371751 0.127389 0.300000 0.600000 0.000000
-0.430822 0.262233 -0.382499 0.300000 0.000000 0.600000
0.456056 0.300081 0.408065 0.800000 0.200000 0.500000
0.052924 -0.054309 -0.382499 0.600000 0.300000 0.000000
0.052430 0.157475 -0.403303 0.600000 0.300000 0.000000
0.409286 0.267656 -0.011274 0.600000 0.000000 0.300000
0.121749 -0.098852 -0.382499 0.600000 0.300000 0.000000
-0.334839 0.371751 0.069995 0.300000 0.600000 0.000000
0.447825 0.371751 0.320708 0.300000 0.600000 0.000000
-0.331508 -0.318952 0.400833 0.300000 0.000000 0.600000
-0.125654 -0.318952 -0.356804 0.300000 0.000000 0.600000
-0.572075 0.261650 0.408065 1.000000 0.000000 0.000000
0.357275 0.136384 -0.167305 0.300000 0.600000 0.000000
0.534112 0.115582 -0.311021 0.000000 0.000000 1.000000
-0.085236 0.055525 -0.097479 0.600000 0.300000 0.000000
0.446734 0.132780 -0.132765 0.600000 0.000000 0.300000
0.409286 0.140580 -0.390913 0.600000 0.300000 0.000000
-0.019023 -0.277344 0.306291 0.300000 0.000000 0.600000
-0.443691 0.222469 -0.196392 0.600000 0.000000 0.300000
0.272901 0.309338 -0.129018 0.300000 0.600000 0.000000
-0.184085 -0.015783 -0.382499 0.600000 0.300000 0.000000
0.315800 0.309338 -0.148880 0.300000 0.600000 0.000000
-0.501943 0.244345 -0.024739 0.300000 0.000000 0.600000
-0.015388 0.371751 0.193262 0.300000 0.600000 0.000000
-0.565524 0.309338 0.115186 0.300000 0.600000 0.000000
0.159401 0.039611 0.408065 0.000000 0.500000 0.500000
0.516418 0.371751 0.337406 0.300000 0.600000 0.000000
0.083143 -0.277344 -0.098329 0.300000 0.000000 0.600000
-0.437587 0.034721 -0.265782 0.600000 0.300000 0.000000
0.533125 -0.438358 -0.403303 0.000000 0.000000 1.000000
-0.464495 -0.355632 -0.322411 0.000000 1.000000 0.000000
-0.172841 0.248611 0.366456 0.000000 0.500000 0.500000
-0.076650 0.055525 -0.277598 0.600000 0.300000 0.000000
-0.296378 -0.277344 0.316718 0.300000 0.000000 0.600000
-0.165164 0.371751 0.275381 0.300000 0.600000 0.000000
0.534112 -0.712058 0.289455 0.800000 0.200000 0.500000
0.132174 0.309338 0.247253 0.300000 0.600000 0.000000
-0.412484 0.078123 -0.224736 0.600000 0.000000 0.300000
-0.253795 -0.318952 0.218763 0.300000 0.000000 0.600000
-0.501943 0.063147 -0.222772 0.300000 0.000000 0.600000
-0.391716 0.371751 0.179438 0.300000 0.600000 0.000000
-0.324499 0.055525 0.324289 0.600000 0.300000 0.000000
-0.501943 0.231640 0.203508 0.300000 0.000000 0.600000
0.260941 -0.277344 -0.280394 0.300000 0.000000 0.600000
0.287390 -0.277344 0.301351 0.300000 0.000000 0.600000
-0.426585 -0.277344 -0.120590 0.300000 0.000000 0.600000
0.137380 -0.318952 0.096984 0.300000 0.000000 0.600000
-0.464495 -0.709905 0.358921 1.000000 0.000000 0.000000
-0.246226 0.221952 -0.361695 0.300000 0.000000 0.600000
0.192114 0.309338 -0.253058 0.300000 0.600000 0.000000
0.492778 0.371751 -0.111212 0.300000 0.600000 0.000000
0.468765 -0.107609 0.408065 0.800000 0.200000 0.500000
0.527802 -0.142092 0.283239 0.800000 0.200000 0.500000
0.264438 0.371751 -0.072871 0.300000 0.600000 0.000000
-0.589321 0.294131 -0.297632 0.000000 1.000000 0.000000
0.447237 0.371751 0.390707 0.300000 0.600000 0.000000
-0.423725 -0.152006 -0.403303 0.600000 0.300000 0.000000
-0.114753 0.055525 0.287901 0.600000 0.300000 0.000000
0.018948 0.160408 -0.361695 0.300000 0.000000 0.600000
0.045182 0.370727 -0.413706 0.300000 0.600000 0.000000
0.030652 0.034721 -0.359424 0.600000 0.300000 0.000000
-0.197669 0.039420 0.408065 0.000000 0.500000 0.500000
-0.589321 -0.372410 -0.358603 0.000000 1.000000 0.000000
0.307790 0.309338 0.370751 0.300000 0.600000 0.000000
0.094636 0.309338 -0.044698 0.300000 0.600000 0.000000
0.388482 0.190863 -0.219150 0.300000 0.600000 0.000000
0.029668 0.014742 0.366456 0.600000 0.000000 0.300000
-0.501943 0.258962 -0.271080 0.300000 0.000000 0.600000
-0.412802 -0.318952 0.387746 0.300000 0.000000 0.600000
-0.472317 0.013917 -0.090770 0.300000 0.000000 0.600000
0.111592 0.034721 -0.226690 0.600000 0.300000 0.000000
-0.122069 0.309338 -0.044227 0.300000 0.600000 0.000000
0.007378 0.055525 0.242083 0.600000 0.300000 0.000000
-0.412484 0.111971 -0.054582 0.600000 0.000000 0.300000
0.409286 -0.088381 0.303140 0.800000 0.200000 0.500000
0.279750 -0.318952 -0.015927 0.300000 0.000000 0.600000
-0.250457 0.309338 -0.160347 0.300000 0.600000 0.000000
0.476233 0.176227 -0.403303 0.000000 0.000000 1.000000
-0.431229 -0.026015 -0.382499 0.600000 0.300000 0.000000
-0.429241 -0.277344 -0.282960 0.300000 0.000000 0.600000
-0.374955 -0.318952 0.292484 0.300000 0.000000 0.600000
0.433466 -0.355024 0.283239 0.800000 0.200000 0.500000
0.057159 0.309338 -0.350619 0.300000 0.600000 0.000000
0.409286 0.187053 -0.026622 0.600000 0.000000 0.300000
-0.544130 -0.510910 0.408065 1.000000 0.000000 0.000000
0.109782 -0.277344 -0.301432 0.300000 0.000000 0.600000
0.288405 -0.277344 -0.053383 0.300000 0.000000 0.600000
0.409286 -0.022496 0.349035 0.800000 0.200000 0.500000
0.005210 -0.277344 0.366544 0.300000 0.000000 0.600000
-0.363987 0.309338 0.219868 0.300000 0.600000 0.000000
0.206433 0.128696 -0.361695 0.300000 0.000000 0.600000
0.022153 0.265063 0.366456 0.000000 0.500000 0.500000
0.094943 0.371751 0.038594 0.300000 0.600000 0.000000
0.394064 0.189688 -0.361695 0.300000 0.000000 0.600000
0.089192 -0.277344 0.079044 0.300000 0.000000 0.600000
-0.048605 -0.277344 0.006006 0.300000 0.000000 0.600000
-0.229783 0.038046 -0.403303 0.600000 0.300000 0.000000
-0.475285 0.309338 -0.033871 0.300000 0.600000 0.000000
0.517289 0.371751 0.137157 0.300000 0.600000 0.000000
-0.412484 0.214146 -0.086057 0.600000 0.000000 0.300000
-0.568081 0.371751 -0.105098 0.300000 0.600000 0.000000
0.205553 0.293661 0.408065 0.000000 0.500000 0.500000
0.357275 0.099830 -0.135571 0.300000 0.600000 0.000000
0.209319 -0.277344 0.250894 0.300000 0.000000 0.600000
0.089516 -0.269363 -0.403303 0.600000 0.300000 0.000000
0.137930 0.309338 0.298297 0.300000 0.600000 0.000000
-0.070302 0.172329 -0.403303 0.600000 0.300000 0.000000
-0.407208 0.034721 -0.077851 0.600000 0.300000 0.000000
-0.313535 0.161126 0.408065 0.000000 0.500000 0.500000
0.516709 -0.682432 0.408065 0.800000 0.200000 0.500000
-0.256206 0.309338 0.024478 0.300000 0.600000 0.000000
0.080970 0.371751 -0.187625 0.300000 0.600000 0.000000
-0.147996 0.241048 -0.361695 0.300000 0.000000 0.600000
-0.501943 0.165440 0.038793 0.300000 0.000000 0.600000
0.266673 -0.096494 -0.403303 0.600000 0.300000 0.000000
0.322458 -0.318952 0.231262 0.300000 0.000000 0.600000
-0.464495 0.069879 0.221022 0.300000 0.000000 0.600000
-0.599723 0.322361 0.405188 0.300000 0.600000 0.000000
-0.223996 -0.313191 0.408065 0.300000 0.000000 0.600000
0.388482 0.166976 0.254256 0.300000 0.600000 0.000000
-0.374313 0.305177 0.406717 0.000000 0.500000 0.500000
0.409286 -0.288026 -0.387402 0.600000 0.300000 0.000000
0.357275 0.165466 0.179384 0.300000 0.600000 0.000000
-0.429547 0.371751 0.293435 0.300000 0.600000 0.000000
-0.183149 -0.277344 -0.032017 0.300000 0.000000 0.600000
0.260173 0.034721 -0.192323 0.600000 0.300000 0.000000
0.146814 0.213949 0.366456 0.000000 0.500000 0.500000
-0.290332 0.090481 -0.403303 0.600000 0.300000 0.000000
0.134810 -0.318952 -0.253708 0.300000 0.000000 0.600000
-0.583849 -0.161137 -0.278478 0.000000 1.000000 0.000000
0.396940 -0.318952 0.199615 0.300000 0.000000 0.600000
-0.112742 0.371751 -0.298548 0.300000 0.600000 0.000000
-0.465354 -0.730878 0.287858 1.000000 0.000000 0.000000
-0.412484 0.086578 -0.167967 0.600000 0.000000 0.300000
0.127130 0.099548 -0.403303 0.600000 0.300000 0.000000
-0.239645 0.055525 0.225591 0.600000 0.300000 0.000000
0.329456 0.034721 0.250327 0.600000 0.300000 0.000000
0.365142 0.371751 -0.151870 0.300000 0.600000 0.000000
0.517119 0.260248 -0.278478 0.000000 0.000000 1.000000
0.534112 -0.395200 -0.287959 0.000000 0.000000 1.000000
-0.420828 0.309338 0.272280 0.300000 0.600000 0.000000
0.231129 0.055525 0.103487 0.600000 0.300000 0.000000
0.075657 0.371751 -0.299645 0.300000 0.600000 0.000000
-0.475838 -0.386016 -0.403303 0.000000 1.000000 0.000000
-0.454367 0.248779 0.408065 0.000000 0.500000 0.500000
-0.227658 0.263569 -0.363265 0.300000 0.000000 0.600000
-0.263381 -0.150747 -0.382499 0.600000 0.300000 0.000000
-0.589321 -0.150635 0.295487 1.000000 0.000000 0.000000
0.186563 0.309338 0.316886 0.300000 0.600000 0.000000
0.242154 -0.277344 0.089257 0.300000 0.000000 0.600000
-0.269358 0.118032 0.366456 0.000000 0.500000 0.500000
0.506782 -0.605459 -0.403303 0.000000 0.000000 1.000000
0.409286 -0.497358 -0.284573 0.000000 0.000000 1.000000
0.071112 0.149289 0.408065 0.000000 0.500000 0.500000
-0.560650 0.093945 -0.403303 0.000000 1.000000 0.000000
