0.209109 0.374626 -0.295106 0.300000 0.000000 0.600000
0.103707 0.383968 -0.297402 0.300000 0.000000 0.600000
-0.001619 -0.224874 -0.200888 0.000000 0.500000 0.500000
0.031698 -0.298427 0.651466 0.000000 0.500000 0.500000
-0.548267 -0.268576 -0.230387 0.000000 0.500000 0.500000
0.562585 -0.241009 0.133602 0.000000 0.500000 0.500000
-0.006490 -0.298427 0.436617 0.000000 0.500000 0.500000
0.234982 0.210264 -0.267148 0.300000 0.000000 0.600000
0.218016 0.466341 -0.311820 0.300000 0.000000 0.600000
-0.086088 -0.235562 0.092200 0.500000 0.500000 0.000000
0.149050 -0.235562 0.163880 0.500000 0.500000 0.000000
0.172830 -0.053217 -0.223188 0.600000 0.300000 0.000000
-0.213003 -0.298427 0.129290 0.000000 0.500000 0.500000
0.514324 0.016000 -0.285901 0.600000 0.300000 0.000000
0.194604 -0.224257 0.476181 0.000000 0.500000 0.500000
0.243329 -0.223922 0.674862 0.000000 0.500000 0.500000
-0.006378 -0.224094 0.212959 0.500000 0.500000 0.000000
-0.491182 -0.008799 -0.281528 0.600000 0.300000 0.000000
-0.248956 -0.224272 0.567231 0.000000 0.500000 0.500000
0.341125 -0.225277 0.305472 0.500000 0.500000 0.000000
-0.039569 0.301768 -0.283275 0.300000 0.000000 0.600000
-0.078019 0.470387 -0.312930 0.300000 0.000000 0.600000
-0.438884 -0.223922 0.729093 0.000000 0.500000 0.500000
-0.152498 0.562973 -0.382346 0.600000 0.300000 0.000000
-0.546608 -0.150561 -0.196299 0.600000 0.300000 0.000000
0.201645 0.208921 -0.266911 0.300000 0.000000 0.600000
0.003128 -0.298427 -0.047590 0.000000 0.500000 0.500000
0.564320 0.216078 -0.277195 0.600000 0.300000 0.000000
-0.576514 -0.234580 -0.152167 0.000000 0.500000 0.500000
0.157924 0.651758 -0.398002 0.600000 0.300000 0.000000
-0.578425 -0.258423 0.638943 0.000000 0.500000 0.500000
-0.334815 -0.224521 0.063754 0.500000 0.500000 0.000000
-0.546968 -0.298207 -0.209329 0.000000 0.500000 0.500000
0.407449 -0.224822 0.699837 0.000000 0.500000 0.500000
0.461455 -0.298427 0.196309 0.000000 0.500000 0.500000
-0.018512 -0.298427 -0.165647 0.000000 0.500000 0.500000
0.045640 -0.298427 -0.197632 0.000000 0.500000 0.500000
-0.244791 0.271480 -0.330948 0.600000 0.300000 0.000000
0.409459 -0.235562 0.011777 0.500000 0.500000 0.000000
-0.524385 -0.298427 0.317209 0.000000 0.500000 0.500000
0.236111 0.177935 -0.314454 0.600000 0.300000 0.000000
-0.258504 -0.224922 0.646427 0.000000 0.500000 0.500000
0.051414 -0.222589 -0.199679 0.600000 0.300000 0.000000
-0.243930 -0.030782 -0.224560 0.300000 0.000000 0.600000
0.186387 -0.224893 -0.158790 0.000000 0.500000 0.500000
-0.106037 0.342055 -0.292796 0.600000 0.300000 0.000000
-0.135009 -0.235562 0.193279 0.500000 0.500000 0.000000
-0.467614 -0.223922 0.500802 0.000000 0.500000 0.500000
0.236969 -0.298427 0.071284 0.000000 0.500000 0.500000
0.268482 -0.298427 0.400460 0.000000 0.500000 0.500000
0.199616 0.297715 -0.335574 0.600000 0.300000 0.000000
-0.230648 -0.224593 0.167083 0.500000 0.500000 0.000000
0.030331 -0.223963 -0.106599 0.000000 0.500000 0.500000
0.354061 -0.231391 0.392871 0.000000 0.500000 0.500000
-0.085702 -0.235562 0.125397 0.500000 0.500000 0.000000
0.123350 -0.038954 -0.223119 0.300000 0.000000 0.600000
0.082119 0.136119 -0.307081 0.600000 0.300000 0.000000
-0.236545 -0.088460 -0.267481 0.600000 0.300000 0.000000
0.431835 0.532385 -0.376953 0.600000 0.300000 0.000000
-0.367041 0.750561 -0.388865 0.600000 0.300000 0.000000
-0.191633 0.475715 -0.316412 0.600000 0.300000 0.000000
-0.298185 0.497658 -0.370830 0.600000 0.300000 0.000000
-0.579510 -0.229232 -0.012460 0.000000 0.500000 0.500000
-0.207125 -0.240113 -0.234685 0.600000 0.300000 0.000000
-0.292989 -0.028615 -0.227438 0.600000 0.300000 0.000000
-0.090689 -0.298427 0.347287 0.000000 0.500000 0.500000
-0.013304 -0.123275 -0.201067 0.600000 0.300000 0.000000
0.194587 -0.224108 0.395855 0.000000 0.500000 0.500000
-0.231396 -0.298427 0.430789 0.000000 0.500000 0.500000
0.272508 0.479140 -0.367564 0.600000 0.300000 0.000000
-0.343768 0.195449 -0.263434 0.300000 0.000000 0.600000
-0.578368 -0.246899 -0.114512 0.000000 0.500000 0.500000
0.389100 -0.232920 0.299494 0.500000 0.500000 0.000000
0.026053 0.695875 -0.342636 0.600000 0.300000 0.000000
0.297343 0.094887 -0.249302 0.600000 0.300000 0.000000
0.321234 0.747944 -0.392510 0.600000 0.300000 0.000000
0.222542 -0.170527 -0.189179 0.600000 0.300000 0.000000
0.390883 0.334002 -0.341973 0.600000 0.300000 0.000000
-0.133089 -0.298427 0.674014 0.000000 0.500000 0.500000
-0.346514 0.213577 -0.270213 0.600000 0.300000 0.000000
-0.232084 0.064525 -0.241418 0.300000 0.000000 0.600000
0.083713 -0.076998 -0.215031 0.300000 0.000000 0.600000
-0.004336 0.569093 -0.330341 0.300000 0.000000 0.600000
-0.303428 0.022677 -0.233986 0.300000 0.000000 0.600000
-0.167255 0.023371 -0.234109 0.300000 0.000000 0.600000
0.290868 -0.228410 0.047031 0.500000 0.500000 0.000000
0.563528 0.339848 -0.287430 0.600000 0.300000 0.000000
-0.316111 -0.095728 -0.213845 0.600000 0.300000 0.000000
0.058286 -0.298427 0.374122 0.000000 0.500000 0.500000
-0.077872 0.067491 -0.241969 0.300000 0.000000 0.600000
0.288298 0.469794 -0.365916 0.600000 0.300000 0.000000
-0.536584 -0.222710 -0.203233 0.600000 0.300000 0.000000
-0.264353 -0.224981 0.747997 0.000000 0.500000 0.500000
-0.108469 0.646552 -0.342593 0.600000 0.300000 0.000000
0.381884 -0.280833 0.748475 0.000000 0.500000 0.500000
-0.505130 0.135599 -0.306989 0.600000 0.300000 0.000000
-0.587589 0.164020 -0.310674 0.600000 0.300000 0.000000
0.553692 -0.057201 -0.266388 0.600000 0.300000 0.000000
0.266691 -0.024155 -0.278820 0.600000 0.300000 0.000000
0.341357 -0.297566 0.726137 0.000000 0.500000 0.500000
0.042574 -0.233788 0.145705 0.000000 0.500000 0.500000
0.074733 -0.235562 0.193914 0.500000 0.500000 0.000000
-0.427062 0.000602 -0.229095 0.300000 0.000000 0.600000
-0.539743 -0.298427 0.614597 0.000000 0.500000 0.500000
0.003358 -0.224175 -0.060458 0.000000 0.500000 0.500000
-0.499323 -0.298427 0.236452 0.000000 0.500000 0.500000
-0.490501 -0.298427 -0.002579 0.000000 0.500000 0.500000
0.365481 -0.226462 -0.040391 0.500000 0.500000 0.000000
-0.579973 -0.285168 -0.067271 0.000000 0.500000 0.500000
0.524975 -0.223922 -0.093748 0.000000 0.500000 0.500000
0.268262 0.003937 -0.233264 0.600000 0.300000 0.000000
-0.314420 0.737355 -0.352854 0.600000 0.300000 0.000000
-0.146796 0.363573 -0.347187 0.600000 0.300000 0.000000
0.033577 -0.235562 0.324296 0.500000 0.500000 0.000000
-0.157921 -0.224768 0.007316 0.500000 0.500000 0.000000
-0.575206 0.234926 -0.324503 0.600000 0.300000 0.000000
-0.018500 0.275602 -0.331675 0.600000 0.300000 0.000000
-0.022485 0.198322 -0.264957 0.300000 0.000000 0.600000
0.125550 -0.235562 0.058091 0.500000 0.500000 0.000000
0.056620 0.577075 -0.384833 0.600000 0.300000 0.000000
-0.527150 0.569213 -0.319635 0.600000 0.300000 0.000000
0.200268 -0.233788 0.016293 0.000000 0.500000 0.500000
0.347444 -0.235562 0.336246 0.500000 0.500000 0.000000
-0.493184 -0.298427 0.701736 0.000000 0.500000 0.500000
-0.303284 0.520350 -0.374831 0.600000 0.300000 0.000000
-0.426205 0.100349 -0.250265 0.600000 0.300000 0.000000
0.216787 0.691763 -0.405055 0.600000 0.300000 0.000000
0.538939 -0.224202 -0.017788 0.000000 0.500000 0.500000
-0.137949 -0.217548 -0.184826 0.600000 0.300000 0.000000
-0.510155 0.436617 -0.360067 0.600000 0.300000 0.000000
-0.304680 0.182867 -0.264773 0.600000 0.300000 0.000000
-0.341758 -0.298427 0.621597 0.000000 0.500000 0.500000
0.372507 0.587368 -0.333355 0.300000 0.000000 0.600000
0.554197 0.187794 -0.255849 0.600000 0.300000 0.000000
0.179817 0.190085 -0.316596 0.600000 0.300000 0.000000
0.276199 -0.235562 0.113151 0.500000 0.500000 0.000000
-0.273545 0.355024 -0.345679 0.600000 0.300000 0.000000
0.164384 -0.298427 0.029550 0.000000 0.500000 0.500000
-0.534690 0.076506 -0.236336 0.600000 0.300000 0.000000
-0.037127 -0.123320 -0.261335 0.600000 0.300000 0.000000
0.561742 0.153887 -0.251288 0.600000 0.300000 0.000000
0.272231 -0.182574 -0.250887 0.600000 0.300000 0.000000
0.265856 -0.224281 0.516890 0.000000 0.500000 0.500000
-0.158462 -0.237297 -0.234685 0.600000 0.300000 0.000000
-0.146704 -0.225177 0.158082 0.500000 0.500000 0.000000
-0.201293 0.207723 -0.269133 0.600000 0.300000 0.000000
0.433803 -0.298427 0.396706 0.000000 0.500000 0.500000
0.151364 -0.295118 0.734739 0.000000 0.500000 0.500000
0.293538 0.140373 -0.257233 0.600000 0.300000 0.000000
0.236538 -0.235562 -0.040824 0.500000 0.500000 0.000000
0.146161 0.096534 -0.300101 0.600000 0.300000 0.000000
-0.275584 -0.235562 -0.005659 0.500000 0.500000 0.000000
-0.144319 0.654086 -0.398412 0.600000 0.300000 0.000000
0.346637 0.435840 -0.309421 0.600000 0.300000 0.000000
0.388548 -0.225545 0.228079 0.500000 0.500000 0.000000
0.319688 0.757541 -0.369217 0.600000 0.300000 0.000000
-0.046541 -0.145664 -0.194115 0.600000 0.300000 0.000000
0.199047 0.598405 -0.388594 0.600000 0.300000 0.000000
-0.270239 -0.298427 0.392039 0.000000 0.500000 0.500000
-0.572718 0.723165 -0.372711 0.600000 0.300000 0.000000
-0.581354 0.009598 -0.270820 0.600000 0.300000 0.000000
-0.140808 -0.235562 0.076794 0.500000 0.500000 0.000000
-0.472966 0.005409 -0.233523 0.600000 0.300000 0.000000
-0.302254 -0.224156 0.322814 0.500000 0.500000 0.000000
0.557846 -0.260071 0.524156 0.000000 0.500000 0.500000
0.368749 0.421379 -0.303279 0.300000 0.000000 0.600000
-0.357544 -0.298427 0.137178 0.000000 0.500000 0.500000
-0.313884 -0.224743 -0.014935 0.500000 0.500000 0.000000
-0.050059 -0.235562 0.222195 0.500000 0.500000 0.000000
0.478921 -0.298427 -0.147520 0.000000 0.500000 0.500000
-0.025815 -0.234619 0.160458 0.000000 0.500000 0.500000
0.119013 0.439460 -0.360568 0.600000 0.300000 0.000000
0.243828 -0.298427 0.145111 0.000000 0.500000 0.500000
0.269408 0.548436 -0.326692 0.300000 0.000000 0.600000
0.250663 -0.228106 0.372994 0.000000 0.500000 0.500000
0.201694 -0.090193 -0.267176 0.600000 0.300000 0.000000
0.041384 0.058261 -0.242756 0.600000 0.300000 0.000000
-0.232301 -0.224391 0.743735 0.000000 0.500000 0.500000
-0.275198 -0.298427 0.015423 0.000000 0.500000 0.500000
-0.329821 -0.224590 -0.074117 0.000000 0.500000 0.500000
-0.373735 0.312497 -0.338181 0.600000 0.300000 0.000000
0.198481 0.190330 -0.266055 0.600000 0.300000 0.000000
0.559898 0.100986 -0.280553 0.600000 0.300000 0.000000
0.552972 0.553245 -0.319582 0.600000 0.300000 0.000000
0.315427 0.338782 -0.288709 0.300000 0.000000 0.600000
-0.552128 0.211414 -0.257342 0.600000 0.300000 0.000000
-0.145588 -0.223922 0.453723 0.000000 0.500000 0.500000
0.185094 -0.298427 0.318064 0.000000 0.500000 0.500000
-0.398739 -0.298427 -0.205778 0.000000 0.500000 0.500000
0.080923 -0.251693 0.760351 0.000000 0.500000 0.500000
0.258534 0.489593 -0.369408 0.600000 0.300000 0.000000
0.451321 -0.224219 0.490028 0.000000 0.500000 0.500000
0.168567 -0.235562 0.146700 0.500000 0.500000 0.000000
0.180947 -0.298427 0.084146 0.000000 0.500000 0.500000
-0.368872 -0.040926 -0.275863 0.600000 0.300000 0.000000
-0.021611 -0.298427 -0.122979 0.000000 0.500000 0.500000
0.081393 -0.298427 0.169349 0.000000 0.500000 0.500000
-0.125262 -0.167373 -0.253567 0.600000 0.300000 0.000000
0.352002 -0.235492 0.027612 0.500000 0.500000 0.000000
-0.364704 0.721673 -0.408731 0.600000 0.300000 0.000000
-0.066711 -0.223985 -0.066481 0.000000 0.500000 0.500000
0.185903 -0.298427 0.057602 0.000000 0.500000 0.500000
0.441640 0.023720 -0.236753 0.600000 0.300000 0.000000
-0.397949 -0.220735 -0.226214 0.600000 0.300000 0.000000
0.561108 -0.273372 0.084235 0.000000 0.500000 0.500000
-0.575949 -0.103053 -0.202652 0.600000 0.300000 0.000000
-0.188943 -0.235562 0.014607 0.500000 0.500000 0.000000
-0.019912 -0.224383 0.025996 0.500000 0.500000 0.000000
0.287202 0.363651 -0.296651 0.600000 0.300000 0.000000
-0.339710 -0.224566 0.622416 0.000000 0.500000 0.500000
0.009966 -0.224590 -0.179149 0.000000 0.500000 0.500000
0.289453 -0.224143 -0.044599 0.500000 0.500000 0.000000
0.514421 -0.298427 0.630643 0.000000 0.500000 0.500000
-0.014757 -0.087363 -0.209885 0.600000 0.300000 0.000000
0.370197 -0.298427 0.445927 0.000000 0.500000 0.500000
0.342406 -0.298427 0.184839 0.000000 0.500000 0.500000
0.341255 -0.234789 0.263825 0.000000 0.500000 0.500000
0.039534 0.685302 -0.340778 0.600000 0.300000 0.000000
0.443222 0.170481 -0.262632 0.600000 0.300000 0.000000
0.178430 -0.055106 -0.273363 0.600000 0.300000 0.000000
-0.576055 -0.298384 0.223316 0.000000 0.500000 0.500000
0.282263 0.234850 -0.273982 0.600000 0.300000 0.000000
0.205191 -0.235562 -0.017533 0.500000 0.500000 0.000000
-0.483836 -0.226543 0.099020 0.000000 0.500000 0.500000
-0.244314 -0.225695 0.044796 0.500000 0.500000 0.000000
0.439695 -0.224090 -0.125851 0.000000 0.500000 0.500000
-0.013364 0.634468 -0.335439 0.300000 0.000000 0.600000
-0.449970 -0.298427 0.601904 0.000000 0.500000 0.500000
0.523996 -0.298427 0.112157 0.000000 0.500000 0.500000
0.161516 0.001115 -0.283276 0.600000 0.300000 0.000000
0.379321 -0.298427 0.373461 0.000000 0.500000 0.500000
0.104156 -0.235562 0.039166 0.500000 0.500000 0.000000
-0.591519 -0.241277 0.303765 0.000000 0.500000 0.500000
-0.511336 -0.298427 0.064042 0.000000 0.500000 0.500000
0.019328 -0.298427 0.664376 0.000000 0.500000 0.500000
-0.185761 0.325859 -0.290029 0.600000 0.300000 0.000000
-0.292780 -0.224087 0.192998 0.500000 0.500000 0.000000
-0.442465 -0.223922 0.673318 0.000000 0.500000 0.500000
0.491423 0.426570 -0.294690 0.600000 0.300000 0.000000
-0.445770 -0.093035 -0.266675 0.600000 0.300000 0.000000
0.229247 0.343075 -0.343572 0.600000 0.300000 0.000000
-0.055977 0.680055 -0.339407 0.600000 0.300000 0.000000
-0.229028 -0.229875 -0.034626 0.000000 0.500000 0.500000
-0.392226 0.595928 -0.335140 0.300000 0.000000 0.600000
0.074961 -0.225872 0.162885 0.500000 0.500000 0.000000
0.120470 -0.219660 -0.195000 0.600000 0.300000 0.000000
-0.267074 -0.235562 0.084066 0.500000 0.500000 0.000000
-0.025348 0.661006 -0.335805 0.600000 0.300000 0.000000
-0.446246 -0.235562 -0.030289 0.500000 0.500000 0.000000
-0.007065 0.482630 -0.317596 0.600000 0.300000 0.000000
-0.497850 0.585527 -0.327349 0.300000 0.000000 0.600000
0.228846 -0.298427 -0.124429 0.000000 0.500000 0.500000
-0.156804 0.447343 -0.361958 0.600000 0.300000 0.000000
0.004523 0.164316 -0.259024 0.300000 0.000000 0.600000
-0.499254 -0.232587 -0.230954 0.000000 0.500000 0.500000
-0.298051 0.679197 -0.402840 0.600000 0.300000 0.000000
-0.417619 -0.298427 0.430772 0.000000 0.500000 0.500000
0.422014 0.752656 -0.353681 0.600000 0.300000 0.000000
-0.009676 -0.226003 0.301842 0.500000 0.500000 0.000000
0.374234 -0.226996 0.265325 0.500000 0.500000 0.000000
0.071638 0.001201 -0.230275 0.300000 0.000000 0.600000
0.024334 -0.168788 -0.253318 0.600000 0.300000 0.000000
-0.577710 0.544536 -0.316275 0.600000 0.300000 0.000000
-0.409826 -0.034570 -0.223449 0.300000 0.000000 0.600000
0.132131 -0.224290 0.152057 0.500000 0.500000 0.000000
-0.329646 -0.298427 0.572868 0.000000 0.500000 0.500000
-0.510853 0.660774 -0.399591 0.600000 0.300000 0.000000
0.291334 -0.224797 0.193350 0.500000 0.500000 0.000000
0.523940 -0.298427 0.250433 0.000000 0.500000 0.500000
0.044885 -0.227077 -0.085054 0.000000 0.500000 0.500000
0.232948 0.731178 -0.351774 0.600000 0.300000 0.000000
-0.144769 0.596802 -0.388311 0.600000 0.300000 0.000000
-0.386511 0.469868 -0.365929 0.600000 0.300000 0.000000
0.407669 0.606574 -0.390034 0.600000 0.300000 0.000000
-0.497381 -0.064681 -0.271674 0.600000 0.300000 0.000000
0.350917 0.714573 -0.409078 0.600000 0.300000 0.000000
-0.426002 -0.298427 0.655324 0.000000 0.500000 0.500000
0.456527 -0.057131 -0.273006 0.600000 0.300000 0.000000
0.332403 -0.166626 -0.193447 0.600000 0.300000 0.000000
-0.391465 -0.298427 -0.155509 0.000000 0.500000 0.500000
0.561777 -0.245966 0.116744 0.000000 0.500000 0.500000
-0.122619 0.431822 -0.306206 0.300000 0.000000 0.600000
-0.345170 -0.298427 0.083055 0.000000 0.500000 0.500000
-0.415090 -0.228470 0.341002 0.000000 0.500000 0.500000
0.279999 0.651672 -0.335120 0.600000 0.300000 0.000000
0.447492 0.293707 -0.284359 0.600000 0.300000 0.000000
0.278282 -0.029192 -0.227340 0.600000 0.300000 0.000000
0.318977 -0.232559 0.109762 0.500000 0.500000 0.000000
0.279213 -0.044033 -0.275315 0.600000 0.300000 0.000000
0.297246 -0.199161 -0.188908 0.600000 0.300000 0.000000
0.386820 -0.071999 -0.217380 0.300000 0.000000 0.600000
-0.496972 0.299017 -0.335804 0.600000 0.300000 0.000000
-0.327973 0.374041 -0.298525 0.600000 0.300000 0.000000
0.211295 0.145650 -0.308761 0.600000 0.300000 0.000000
0.251630 -0.298427 0.687505 0.000000 0.500000 0.500000
0.265290 0.688868 -0.341567 0.600000 0.300000 0.000000
0.209720 -0.062643 -0.272034 0.600000 0.300000 0.000000
-0.262939 -0.234252 0.316652 0.000000 0.500000 0.500000
-0.157116 0.723464 -0.350414 0.600000 0.300000 0.000000
-0.050415 -0.235562 0.128386 0.500000 0.500000 0.000000
-0.498464 -0.181191 -0.251131 0.600000 0.300000 0.000000
-0.026432 -0.224642 -0.219577 0.000000 0.500000 0.500000
0.461813 0.213546 -0.320733 0.600000 0.300000 0.000000
0.546171 -0.298139 0.524317 0.000000 0.500000 0.500000
-0.218647 0.442209 -0.361053 0.600000 0.300000 0.000000
0.412677 0.393736 -0.352505 0.600000 0.300000 0.000000
-0.067026 -0.251482 -0.235317 0.000000 0.500000 0.500000
0.470295 0.145648 -0.257958 0.600000 0.300000 0.000000
0.067543 -0.224934 0.025322 0.500000 0.500000 0.000000
0.157476 -0.181637 -0.251052 0.600000 0.300000 0.000000
0.201802 -0.233788 0.096321 0.000000 0.500000 0.500000
-0.327263 -0.018509 -0.279816 0.600000 0.300000 0.000000
0.187634 0.671722 -0.401522 0.600000 0.300000 0.000000
-0.020559 -0.235562 0.055354 0.500000 0.500000 0.000000
0.218408 -0.076731 -0.218952 0.600000 0.300000 0.000000
0.506222 0.555696 -0.317418 0.600000 0.300000 0.000000
-0.567065 0.125226 -0.305160 0.600000 0.300000 0.000000
-0.362684 -0.224840 0.293562 0.500000 0.500000 0.000000
0.444998 -0.235562 0.252371 0.500000 0.500000 0.000000
-0.297918 -0.225087 0.041300 0.500000 0.500000 0.000000
0.189831 -0.222694 -0.207928 0.600000 0.300000 0.000000
-0.429598 -0.235562 0.032100 0.500000 0.500000 0.000000
-0.483329 0.387098 -0.297695 0.300000 0.000000 0.600000
-0.277998 0.699783 -0.346148 0.600000 0.300000 0.000000
-0.473683 -0.298427 0.231955 0.000000 0.500000 0.500000
0.280316 -0.131760 -0.199614 0.600000 0.300000 0.000000
0.136126 -0.229789 0.266702 0.500000 0.500000 0.000000
0.231332 -0.224736 -0.172029 0.000000 0.500000 0.500000
-0.233620 -0.223922 0.501425 0.000000 0.500000 0.500000
0.249322 0.362943 -0.347076 0.600000 0.300000 0.000000
-0.095019 0.574014 -0.384293 0.600000 0.300000 0.000000
-0.566185 -0.088720 -0.204721 0.600000 0.300000 0.000000
0.350313 -0.224922 0.556207 0.000000 0.500000 0.500000
-0.098991 -0.112879 -0.200315 0.600000 0.300000 0.000000
0.231770 -0.235562 0.056371 0.500000 0.500000 0.000000
-0.024811 -0.298427 0.591495 0.000000 0.500000 0.500000
-0.139255 0.250441 -0.276731 0.600000 0.300000 0.000000
0.042063 0.471640 -0.313151 0.300000 0.000000 0.600000
0.016362 0.119842 -0.304211 0.600000 0.300000 0.000000
-0.200988 -0.235562 -0.026823 0.500000 0.500000 0.000000
-0.466693 -0.298427 0.537478 0.000000 0.500000 0.500000
0.436239 0.537655 -0.327375 0.600000 0.300000 0.000000
-0.250640 0.751894 -0.353560 0.600000 0.300000 0.000000
0.445325 -0.224922 0.620759 0.000000 0.500000 0.500000
0.459097 0.478823 -0.310817 0.600000 0.300000 0.000000
-0.591069 0.268351 -0.327511 0.600000 0.300000 0.000000
-0.032762 0.217526 -0.268428 0.300000 0.000000 0.600000
-0.193022 -0.224504 0.149154 0.500000 0.500000 0.000000
0.000989 -0.298427 0.392220 0.000000 0.500000 0.500000
0.372410 0.653291 -0.398272 0.600000 0.300000 0.000000
0.119551 0.144934 -0.258064 0.600000 0.300000 0.000000
0.185729 0.483895 -0.315311 0.300000 0.000000 0.600000
-0.413546 0.099427 -0.300611 0.600000 0.300000 0.000000
-0.299184 -0.298427 0.052986 0.000000 0.500000 0.500000
-0.032774 0.387657 -0.298363 0.300000 0.000000 0.600000
-0.027078 -0.224466 -0.023240 0.500000 0.500000 0.000000
-0.538849 0.576239 -0.384686 0.600000 0.300000 0.000000
-0.227607 -0.224193 0.418077 0.000000 0.500000 0.500000
0.094174 -0.298427 0.294049 0.000000 0.500000 0.500000
-0.359736 -0.298427 0.347969 0.000000 0.500000 0.500000
-0.572877 0.478036 -0.304495 0.600000 0.300000 0.000000
0.255616 -0.298427 0.497226 0.000000 0.500000 0.500000
-0.209917 0.638838 -0.343166 0.600000 0.300000 0.000000
0.136152 -0.209935 -0.246062 0.600000 0.300000 0.000000
-0.140226 0.285485 -0.333418 0.600000 0.300000 0.000000
-0.439949 -0.226744 -0.047178 0.000000 0.500000 0.500000
0.058599 0.191241 -0.316800 0.600000 0.300000 0.000000
0.124644 0.374725 -0.349153 0.600000 0.300000 0.000000
0.118280 0.552553 -0.327418 0.300000 0.000000 0.600000
-0.424224 -0.224922 0.391137 0.000000 0.500000 0.500000
0.311912 0.579062 -0.334622 0.600000 0.300000 0.000000
-0.042190 -0.272526 0.752962 0.000000 0.500000 0.500000
-0.439514 -0.224971 0.135797 0.500000 0.500000 0.000000
0.436681 0.022446 -0.287037 0.600000 0.300000 0.000000
-0.174539 -0.224394 0.071154 0.500000 0.500000 0.000000
-0.414270 -0.227066 0.044743 0.500000 0.500000 0.000000
0.095777 0.377370 -0.349620 0.600000 0.300000 0.000000
-0.516881 -0.223922 0.098731 0.000000 0.500000 0.500000
0.418994 -0.298427 0.064704 0.000000 0.500000 0.500000
-0.173455 -0.235562 -0.020659 0.500000 0.500000 0.000000
0.232044 0.017738 -0.286207 0.600000 0.300000 0.000000
0.036092 0.611395 -0.390885 0.600000 0.300000 0.000000
-0.076585 -0.234911 0.209500 0.500000 0.500000 0.000000
0.259855 -0.235562 0.036151 0.500000 0.500000 0.000000
0.151392 0.757156 -0.371402 0.600000 0.300000 0.000000
-0.543486 -0.298427 0.133988 0.000000 0.500000 0.500000
-0.060273 0.189781 -0.316543 0.600000 0.300000 0.000000
-0.241156 0.623763 -0.342509 0.600000 0.300000 0.000000
-0.551237 0.447821 -0.362042 0.600000 0.300000 0.000000
0.448041 -0.171741 -0.192537 0.600000 0.300000 0.000000
0.484944 -0.298427 0.671253 0.000000 0.500000 0.500000
0.455218 0.429781 -0.304014 0.600000 0.300000 0.000000
-0.531455 -0.298427 -0.102616 0.000000 0.500000 0.500000
0.320688 0.025388 -0.287556 0.600000 0.300000 0.000000
0.109865 -0.223922 0.729548 0.000000 0.500000 0.500000
-0.465742 0.170203 -0.313091 0.600000 0.300000 0.000000
0.557978 0.056531 -0.250788 0.600000 0.300000 0.000000
0.152007 -0.224671 0.151411 0.500000 0.500000 0.000000
-0.441371 0.365157 -0.347466 0.600000 0.300000 0.000000
0.432535 -0.105458 -0.264484 0.600000 0.300000 0.000000
-0.071035 -0.298427 0.219601 0.000000 0.500000 0.500000
-0.467206 0.686045 -0.343726 0.600000 0.300000 0.000000
-0.499538 0.453321 -0.363012 0.600000 0.300000 0.000000
-0.487472 -0.298427 0.666626 0.000000 0.500000 0.500000
0.417143 -0.234789 0.176708 0.000000 0.500000 0.500000
0.403911 -0.016296 -0.229605 0.600000 0.300000 0.000000
-0.551868 -0.223922 0.712342 0.000000 0.500000 0.500000
-0.585889 -0.254406 0.448605 0.000000 0.500000 0.500000
-0.297604 -0.035044 -0.276900 0.600000 0.300000 0.000000
0.265433 -0.224365 0.380631 0.500000 0.500000 0.000000
-0.309584 -0.298427 -0.009714 0.000000 0.500000 0.500000
-0.437923 -0.298427 0.286606 0.000000 0.500000 0.500000
-0.346125 -0.225097 0.126571 0.500000 0.500000 0.000000
-0.188995 -0.224898 0.382705 0.000000 0.500000 0.500000
0.439302 0.732562 -0.404957 0.600000 0.300000 0.000000
-0.077920 -0.092955 -0.266689 0.600000 0.300000 0.000000
0.151880 0.089613 -0.248372 0.600000 0.300000 0.000000
-0.585065 -0.288407 0.088733 0.000000 0.500000 0.500000
0.355406 -0.298427 -0.181498 0.000000 0.500000 0.500000
-0.234280 -0.298427 0.029681 0.000000 0.500000 0.500000
0.099414 -0.007181 -0.228797 0.300000 0.000000 0.600000
-0.262624 0.277020 -0.331925 0.600000 0.300000 0.000000
-0.331789 -0.298427 0.203081 0.000000 0.500000 0.500000
-0.386306 -0.088190 -0.209465 0.600000 0.300000 0.000000
0.530275 0.082606 -0.297645 0.600000 0.300000 0.000000
-0.412003 -0.298427 0.529476 0.000000 0.500000 0.500000
0.382948 0.043726 -0.240223 0.600000 0.300000 0.000000
0.247101 0.409771 -0.355333 0.600000 0.300000 0.000000
0.370090 -0.223927 0.463643 0.000000 0.500000 0.500000
-0.038174 -0.228960 0.339245 0.000000 0.500000 0.500000
-0.302847 -0.298427 0.713144 0.000000 0.500000 0.500000
-0.337023 -0.234789 0.290861 0.000000 0.500000 0.500000
0.414327 -0.233918 0.140348 0.000000 0.500000 0.500000
-0.438181 0.091333 -0.299184 0.600000 0.300000 0.000000
-0.157971 -0.235562 0.314076 0.500000 0.500000 0.000000
-0.332558 0.487766 -0.315994 0.300000 0.000000 0.600000
-0.334022 -0.298427 0.650907 0.000000 0.500000 0.500000
0.346165 0.506309 -0.321831 0.600000 0.300000 0.000000
-0.024974 0.537196 -0.377801 0.600000 0.300000 0.000000
0.258484 -0.298427 0.243546 0.000000 0.500000 0.500000
-0.439908 -0.298427 0.712061 0.000000 0.500000 0.500000
-0.452766 0.747666 -0.392868 0.600000 0.300000 0.000000
-0.075703 -0.223929 0.386821 0.000000 0.500000 0.500000
0.436059 -0.078589 -0.218624 0.600000 0.300000 0.000000
-0.368094 -0.162332 -0.254456 0.600000 0.300000 0.000000
-0.481675 -0.223922 0.465666 0.000000 0.500000 0.500000
-0.332296 -0.224949 0.035587 0.500000 0.500000 0.000000
0.005551 0.199141 -0.318193 0.600000 0.300000 0.000000
0.390671 -0.014301 -0.280558 0.600000 0.300000 0.000000
-0.413464 -0.298427 -0.131699 0.000000 0.500000 0.500000
-0.445961 -0.216099 -0.183825 0.600000 0.300000 0.000000
-0.269892 -0.224289 -0.073292 0.000000 0.500000 0.500000
0.132661 -0.233927 0.011832 0.500000 0.500000 0.000000
0.051633 -0.298427 0.200080 0.000000 0.500000 0.500000
0.209809 0.038521 -0.239343 0.600000 0.300000 0.000000
-0.581342 -0.298245 0.287677 0.000000 0.500000 0.500000
-0.046001 -0.298427 0.259556 0.000000 0.500000 0.500000
-0.419495 -0.224379 -0.101961 0.000000 0.500000 0.500000
0.207105 -0.242882 0.761402 0.000000 0.500000 0.500000
0.213941 -0.224433 0.188472 0.500000 0.500000 0.000000
-0.039629 -0.235562 -0.016730 0.500000 0.500000 0.000000
-0.113901 -0.235562 0.167444 0.500000 0.500000 0.000000
-0.541289 -0.128875 -0.196863 0.600000 0.300000 0.000000
-0.100739 -0.223923 0.591185 0.000000 0.500000 0.500000
0.082319 -0.225501 -0.059682 0.500000 0.500000 0.000000
0.243884 0.073440 -0.243022 0.300000 0.000000 0.600000
0.459841 -0.227718 0.174845 0.000000 0.500000 0.500000
-0.354092 -0.223922 0.529820 0.000000 0.500000 0.500000
-0.003444 -0.224025 -0.022394 0.500000 0.500000 0.000000
-0.260757 0.321090 -0.289188 0.600000 0.300000 0.000000
0.248412 0.314495 -0.338533 0.600000 0.300000 0.000000
0.027471 0.093881 -0.246571 0.300000 0.000000 0.600000
-0.588608 0.338572 -0.290575 0.600000 0.300000 0.000000
0.095426 0.530786 -0.326163 0.600000 0.300000 0.000000
-0.224862 -0.224327 0.195824 0.500000 0.500000 0.000000
-0.517984 0.730531 -0.351660 0.600000 0.300000 0.000000
0.410227 -0.224923 -0.182001 0.000000 0.500000 0.500000
-0.182800 -0.235562 0.123872 0.500000 0.500000 0.000000
-0.029173 -0.173897 -0.192152 0.600000 0.300000 0.000000
-0.518549 -0.223922 -0.094578 0.000000 0.500000 0.500000
-0.002603 0.471200 -0.366164 0.600000 0.300000 0.000000
0.063700 0.081095 -0.297378 0.600000 0.300000 0.000000
0.430084 -0.154062 -0.192167 0.600000 0.300000 0.000000
-0.209476 0.589709 -0.387061 0.600000 0.300000 0.000000
0.478795 -0.275154 0.751637 0.000000 0.500000 0.500000
0.066301 -0.233788 0.065344 0.000000 0.500000 0.500000
0.063615 -0.129442 -0.200021 0.600000 0.300000 0.000000
-0.393114 0.144138 -0.257916 0.600000 0.300000 0.000000
0.029826 -0.225904 0.558419 0.300000 0.600000 0.000000
0.205604 0.350595 -0.344898 0.600000 0.300000 0.000000
0.094809 -0.235562 -0.065329 0.500000 0.500000 0.000000
-0.231362 -0.298427 -0.198809 0.000000 0.500000 0.500000
-0.412744 -0.298427 0.460599 0.000000 0.500000 0.500000
-0.197968 0.292434 -0.334643 0.600000 0.300000 0.000000
0.520994 -0.054401 -0.273487 0.600000 0.300000 0.000000
0.079907 -0.235562 -0.035908 0.500000 0.500000 0.000000
0.184384 -0.235562 -0.046252 0.500000 0.500000 0.000000
0.448687 -0.218091 -0.237063 0.600000 0.300000 0.000000
-0.223814 -0.223922 0.447610 0.000000 0.500000 0.500000
-0.008743 0.010625 -0.284953 0.600000 0.300000 0.000000
0.371307 -0.224737 0.117020 0.500000 0.500000 0.000000
0.188309 -0.225160 0.182640 0.500000 0.500000 0.000000
0.325584 -0.014202 -0.227512 0.300000 0.000000 0.600000
0.542924 -0.125367 -0.260974 0.600000 0.300000 0.000000
-0.325953 -0.298427 0.013753 0.000000 0.500000 0.500000
0.395736 0.198266 -0.318039 0.600000 0.300000 0.000000
0.157094 0.602022 -0.389232 0.600000 0.300000 0.000000
0.053635 -0.235562 -0.043815 0.500000 0.500000 0.000000
0.310375 0.297838 -0.285088 0.600000 0.300000 0.000000
0.394577 -0.090173 -0.267179 0.600000 0.300000 0.000000
0.148143 0.063074 -0.294201 0.600000 0.300000 0.000000
-0.111481 -0.223970 0.439366 0.000000 0.500000 0.500000
0.117388 0.476691 -0.367133 0.600000 0.300000 0.000000
-0.226209 -0.061533 -0.272229 0.600000 0.300000 0.000000
-0.010134 0.415390 -0.356324 0.600000 0.300000 0.000000
0.414634 -0.232715 -0.065383 0.000000 0.500000 0.500000
-0.367112 -0.235562 0.018392 0.500000 0.500000 0.000000
-0.090283 -0.225421 0.631592 0.600000 0.000000 0.300000
-0.034349 0.696156 -0.405830 0.600000 0.300000 0.000000
-0.520535 0.642846 -0.336372 0.600000 0.300000 0.000000
-0.097431 0.292723 -0.334694 0.600000 0.300000 0.000000
-0.060301 -0.225910 0.661906 0.600000 0.000000 0.300000
0.155871 -0.230115 -0.058640 0.500000 0.500000 0.000000
-0.513079 0.006675 -0.227365 0.600000 0.300000 0.000000
0.430159 -0.298427 0.665628 0.000000 0.500000 0.500000
0.512668 0.198454 -0.255279 0.600000 0.300000 0.000000
-0.447820 0.424343 -0.357902 0.600000 0.300000 0.000000
0.532298 -0.298427 0.164021 0.000000 0.500000 0.500000
0.107728 -0.224092 0.022933 0.500000 0.500000 0.000000
-0.098993 -0.151310 -0.256399 0.600000 0.300000 0.000000
0.427192 -0.062021 -0.272143 0.600000 0.300000 0.000000
-0.466546 0.295583 -0.284690 0.600000 0.300000 0.000000
-0.506099 0.092727 -0.299429 0.600000 0.300000 0.000000
-0.137574 -0.099819 -0.211549 0.600000 0.300000 0.000000
0.376626 -0.235562 0.037773 0.500000 0.500000 0.000000
0.215286 -0.298427 0.580960 0.000000 0.500000 0.500000
0.329977 0.076351 -0.296542 0.600000 0.300000 0.000000
-0.554615 -0.223922 0.029097 0.000000 0.500000 0.500000
0.083315 -0.298427 0.626888 0.000000 0.500000 0.500000
-0.555769 0.271186 -0.268153 0.600000 0.300000 0.000000
-0.004651 0.707257 -0.345056 0.600000 0.300000 0.000000
0.488521 0.163147 -0.311846 0.600000 0.300000 0.000000
0.515687 -0.223922 0.470123 0.000000 0.500000 0.500000
0.071593 -0.298427 0.607050 0.000000 0.500000 0.500000
-0.101562 0.614825 -0.340982 0.600000 0.300000 0.000000
-0.468146 0.626868 -0.393613 0.600000 0.300000 0.000000
-0.096228 0.117597 -0.250723 0.300000 0.000000 0.600000
0.524972 -0.298427 0.692181 0.000000 0.500000 0.500000
-0.084092 0.487927 -0.369114 0.600000 0.300000 0.000000
0.459243 -0.226585 -0.070992 0.000000 0.500000 0.500000
-0.225692 0.457866 -0.363813 0.600000 0.300000 0.000000
-0.554756 -0.224403 0.435812 0.000000 0.500000 0.500000
0.473172 0.067783 -0.235987 0.600000 0.300000 0.000000
-0.118724 -0.225025 0.151789 0.500000 0.500000 0.000000
0.455165 0.253968 -0.327861 0.600000 0.300000 0.000000
0.078204 -0.225292 0.039411 0.500000 0.500000 0.000000
0.564086 -0.234122 0.342785 0.000000 0.500000 0.500000
0.213357 0.225343 -0.322813 0.600000 0.300000 0.000000
-0.287081 -0.298427 0.667216 0.000000 0.500000 0.500000
-0.268860 -0.298427 0.189698 0.000000 0.500000 0.500000
0.254499 0.284282 -0.282628 0.600000 0.300000 0.000000
0.347114 -0.224814 0.215821 0.500000 0.500000 0.000000
-0.546258 0.110012 -0.302477 0.600000 0.300000 0.000000
-0.193371 0.256176 -0.277714 0.600000 0.300000 0.000000
0.369664 0.257164 -0.328424 0.600000 0.300000 0.000000
0.248079 -0.298427 -0.045469 0.000000 0.500000 0.500000
-0.031012 -0.235562 0.188978 0.500000 0.500000 0.000000
0.351021 0.758096 -0.357969 0.600000 0.300000 0.000000
-0.129184 -0.224365 0.411501 0.000000 0.500000 0.500000
-0.407796 -0.249139 0.760734 0.000000 0.500000 0.500000
-0.327404 -0.226580 0.329697 0.500000 0.500000 0.000000
-0.378451 -0.224327 0.006575 0.500000 0.500000 0.000000
0.524791 -0.240076 0.756360 0.000000 0.500000 0.500000
0.531536 -0.162524 -0.254422 0.600000 0.300000 0.000000
-0.452049 -0.222437 -0.213265 0.600000 0.300000 0.000000
-0.517403 -0.298427 0.096722 0.000000 0.500000 0.500000
-0.335518 -0.140481 -0.258309 0.600000 0.300000 0.000000
-0.462660 0.114996 -0.303356 0.600000 0.300000 0.000000
-0.572803 -0.298175 0.058608 0.000000 0.500000 0.500000
0.309896 -0.234789 0.295260 0.000000 0.500000 0.500000
-0.122228 -0.131286 -0.259930 0.600000 0.300000 0.000000
0.543502 0.265703 -0.269607 0.600000 0.300000 0.000000
-0.335012 0.315430 -0.288191 0.600000 0.300000 0.000000
0.083387 -0.298427 0.661932 0.000000 0.500000 0.500000
-0.517672 -0.291583 -0.223283 0.000000 0.500000 0.500000
-0.383009 0.013874 -0.235018 0.600000 0.300000 0.000000
0.490816 -0.175890 -0.252065 0.600000 0.300000 0.000000
-0.437817 0.638942 -0.395742 0.600000 0.300000 0.000000
-0.540808 -0.224590 0.378883 0.000000 0.500000 0.500000
0.310812 0.585272 -0.386278 0.600000 0.300000 0.000000
0.566960 -0.240435 0.240157 0.000000 0.500000 0.500000
0.215797 -0.116119 -0.198845 0.600000 0.300000 0.000000
-0.212661 -0.298427 -0.110296 0.000000 0.500000 0.500000
-0.099726 -0.298427 0.535956 0.000000 0.500000 0.500000
-0.135804 -0.233354 0.006862 0.500000 0.500000 0.000000
-0.531599 -0.025322 -0.215770 0.600000 0.300000 0.000000
-0.577133 -0.231601 0.646353 0.000000 0.500000 0.500000
-0.575173 -0.225186 0.451823 0.000000 0.500000 0.500000
0.290689 0.574505 -0.384380 0.600000 0.300000 0.000000
-0.259102 0.278075 -0.281516 0.600000 0.300000 0.000000
-0.507366 0.220808 -0.322014 0.600000 0.300000 0.000000
0.361513 0.180343 -0.314879 0.600000 0.300000 0.000000
-0.235759 0.317201 -0.339010 0.600000 0.300000 0.000000
-0.298080 -0.298427 0.185331 0.000000 0.500000 0.500000
-0.009911 0.103483 -0.301326 0.600000 0.300000 0.000000
0.222404 0.689481 -0.341667 0.600000 0.300000 0.000000
-0.450180 0.447476 -0.361981 0.600000 0.300000 0.000000
0.135976 0.261117 -0.329121 0.600000 0.300000 0.000000
0.100945 -0.223969 0.703072 0.000000 0.500000 0.500000
-0.069492 -0.206835 -0.189169 0.600000 0.300000 0.000000
0.332220 -0.043364 -0.222348 0.300000 0.000000 0.600000
0.284884 -0.224543 -0.007236 0.500000 0.500000 0.000000
-0.301190 0.658665 -0.399219 0.600000 0.300000 0.000000
-0.119157 -0.279236 -0.228297 0.000000 0.500000 0.500000
0.021389 0.267185 -0.276593 0.300000 0.000000 0.600000
0.350698 -0.224124 0.719702 0.000000 0.500000 0.500000
0.432976 -0.224922 0.681489 0.000000 0.500000 0.500000
0.535325 0.354534 -0.345593 0.600000 0.300000 0.000000
0.073920 -0.223922 0.718427 0.000000 0.500000 0.500000
-0.401714 -0.235562 0.224625 0.500000 0.500000 0.000000
0.059148 -0.225458 0.175359 0.500000 0.500000 0.000000
0.127945 -0.235562 -0.015678 0.500000 0.500000 0.000000
-0.484265 0.331310 -0.286088 0.300000 0.000000 0.600000
0.407886 -0.298427 -0.060868 0.000000 0.500000 0.500000
-0.571822 0.236466 -0.261317 0.600000 0.300000 0.000000
0.475839 -0.029186 -0.216348 0.600000 0.300000 0.000000
0.298083 0.325648 -0.340500 0.600000 0.300000 0.000000
0.157114 0.197574 -0.267330 0.600000 0.300000 0.000000
-0.474368 -0.228973 0.303723 0.000000 0.500000 0.500000
-0.110715 0.149267 -0.258871 0.600000 0.300000 0.000000
0.524218 -0.109539 -0.203441 0.600000 0.300000 0.000000
-0.021346 -0.108176 -0.206856 0.600000 0.300000 0.000000
0.519218 -0.223922 0.594262 0.000000 0.500000 0.500000
0.131948 0.294248 -0.280933 0.300000 0.000000 0.600000
-0.077901 -0.298427 0.195286 0.000000 0.500000 0.500000
0.415356 0.370195 -0.348354 0.600000 0.300000 0.000000
-0.521893 0.197075 -0.255090 0.600000 0.300000 0.000000
-0.054537 0.544921 -0.326072 0.300000 0.000000 0.600000
-0.222119 -0.206237 -0.246714 0.600000 0.300000 0.000000
-0.569219 -0.298255 0.449681 0.000000 0.500000 0.500000
-0.544675 -0.223922 0.671365 0.000000 0.500000 0.500000
0.170909 -0.018191 -0.226780 0.300000 0.000000 0.600000
0.345504 -0.225636 0.101916 0.500000 0.500000 0.000000
-0.153176 0.739795 -0.400491 0.600000 0.300000 0.000000
-0.408042 0.190848 -0.266146 0.600000 0.300000 0.000000
-0.112137 0.122558 -0.304690 0.600000 0.300000 0.000000
0.538552 -0.206483 -0.193430 0.600000 0.300000 0.000000
0.009062 -0.235562 0.168589 0.500000 0.500000 0.000000
0.251620 0.339110 -0.288767 0.300000 0.000000 0.600000
-0.071527 0.221161 -0.322076 0.600000 0.300000 0.000000
0.465372 0.712127 -0.408646 0.600000 0.300000 0.000000
-0.480830 -0.298427 -0.161808 0.000000 0.500000 0.500000
0.226148 -0.224592 0.738508 0.000000 0.500000 0.500000
0.365654 -0.224956 -0.101776 0.000000 0.500000 0.500000
-0.574232 0.073855 -0.232888 0.600000 0.300000 0.000000
-0.483304 -0.135221 -0.259236 0.600000 0.300000 0.000000
-0.219950 -0.112462 -0.200385 0.600000 0.300000 0.000000
0.260070 0.733920 -0.404270 0.600000 0.300000 0.000000
-0.437371 -0.225054 0.251235 0.500000 0.500000 0.000000
-0.088067 0.090425 -0.299024 0.600000 0.300000 0.000000
-0.563368 -0.298368 0.559271 0.000000 0.500000 0.500000
0.257681 -0.222301 -0.214954 0.600000 0.300000 0.000000
0.454016 -0.133168 -0.199366 0.600000 0.300000 0.000000
0.550473 -0.277493 0.711424 0.000000 0.500000 0.500000
-0.193453 -0.027090 -0.225211 0.300000 0.000000 0.600000
-0.532913 -0.298427 -0.084755 0.000000 0.500000 0.500000
0.301697 0.459908 -0.313665 0.600000 0.300000 0.000000
0.554880 0.554156 -0.342040 0.600000 0.300000 0.000000
-0.221428 -0.298427 -0.064877 0.000000 0.500000 0.500000
0.185798 0.225087 -0.322768 0.600000 0.300000 0.000000
0.344729 0.559969 -0.331219 0.600000 0.300000 0.000000
-0.453745 0.376923 -0.296526 0.300000 0.000000 0.600000
-0.034698 0.294758 -0.335053 0.600000 0.300000 0.000000
0.353561 -0.298427 0.297650 0.000000 0.500000 0.500000
0.239182 -0.223966 0.411248 0.000000 0.500000 0.500000
0.469932 -0.225125 -0.037611 0.000000 0.500000 0.500000
-0.155338 0.562470 -0.331660 0.600000 0.300000 0.000000
-0.579346 -0.262748 0.615454 0.000000 0.500000 0.500000
0.328590 0.191455 -0.263747 0.300000 0.000000 0.600000
0.257679 -0.181351 -0.187270 0.600000 0.300000 0.000000
-0.473964 0.046014 -0.291193 0.600000 0.300000 0.000000
-0.066451 0.108128 -0.251637 0.600000 0.300000 0.000000
0.304830 -0.072360 -0.217289 0.300000 0.000000 0.600000
0.209777 0.260768 -0.329060 0.600000 0.300000 0.000000
0.381446 0.405050 -0.354500 0.600000 0.300000 0.000000
-0.012806 -0.298427 0.184352 0.000000 0.500000 0.500000
0.095494 0.676033 -0.339327 0.600000 0.300000 0.000000
0.070502 -0.093490 -0.266595 0.600000 0.300000 0.000000
-0.315878 0.060533 -0.293753 0.600000 0.300000 0.000000
-0.336893 0.260708 -0.275216 0.300000 0.000000 0.600000
0.342554 -0.298427 -0.102337 0.000000 0.500000 0.500000
0.014226 0.753828 -0.382796 0.600000 0.300000 0.000000
-0.575260 -0.295258 -0.099702 0.000000 0.500000 0.500000
0.294445 -0.247521 0.760977 0.000000 0.500000 0.500000
-0.479204 0.591088 -0.336796 0.600000 0.300000 0.000000
0.547066 0.314666 -0.278249 0.600000 0.300000 0.000000
-0.396206 0.228146 -0.323307 0.600000 0.300000 0.000000
-0.325745 -0.001756 -0.232254 0.600000 0.300000 0.000000
0.413392 -0.225090 0.224427 0.500000 0.500000 0.000000
0.562277 0.369234 -0.304601 0.600000 0.300000 0.000000
-0.438861 -0.027081 -0.224197 0.300000 0.000000 0.600000
-0.015235 -0.225049 0.285221 0.500000 0.500000 0.000000
0.396039 -0.224685 0.746764 0.000000 0.500000 0.500000
0.037965 -0.224508 0.250505 0.500000 0.500000 0.000000
-0.592539 -0.243851 0.247550 0.000000 0.500000 0.500000
-0.491643 0.045417 -0.232627 0.300000 0.000000 0.600000
0.040605 -0.225389 0.294796 0.500000 0.500000 0.000000
-0.014780 -0.101027 -0.265266 0.600000 0.300000 0.000000
-0.430141 -0.224854 -0.078573 0.000000 0.500000 0.500000
0.262146 0.660675 -0.399574 0.600000 0.300000 0.000000
-0.086157 0.517015 -0.374243 0.600000 0.300000 0.000000
0.033971 0.265002 -0.329806 0.600000 0.300000 0.000000
-0.386656 -0.235562 0.296754 0.500000 0.500000 0.000000
0.254252 -0.223922 0.625417 0.000000 0.500000 0.500000
0.528153 -0.141006 -0.197982 0.600000 0.300000 0.000000
0.153729 0.147629 -0.309110 0.600000 0.300000 0.000000
-0.007031 -0.298427 -0.104652 0.000000 0.500000 0.500000
-0.528071 -0.298427 -0.034631 0.000000 0.500000 0.500000
-0.057701 -0.298427 -0.131834 0.000000 0.500000 0.500000
-0.006618 -0.298427 0.230538 0.000000 0.500000 0.500000
-0.351071 -0.298427 0.500165 0.000000 0.500000 0.500000
0.515289 -0.223922 -0.161855 0.000000 0.500000 0.500000
-0.126925 -0.028185 -0.278110 0.600000 0.300000 0.000000
0.116593 -0.298427 0.328422 0.000000 0.500000 0.500000
-0.479451 -0.293856 -0.220821 0.000000 0.500000 0.500000
0.500837 0.017697 -0.226490 0.600000 0.300000 0.000000
0.379819 -0.298427 -0.154467 0.000000 0.500000 0.500000
-0.388377 0.234887 -0.273988 0.600000 0.300000 0.000000
-0.349705 -0.235562 -0.011283 0.500000 0.500000 0.000000
0.297663 -0.049747 -0.223799 0.600000 0.300000 0.000000
-0.511982 0.382352 -0.350498 0.600000 0.300000 0.000000
-0.035739 0.087788 -0.245539 0.300000 0.000000 0.600000
0.042562 -0.224590 -0.155252 0.000000 0.500000 0.500000
0.041404 -0.298427 -0.116618 0.000000 0.500000 0.500000
0.111215 -0.225419 0.185385 0.500000 0.500000 0.000000
-0.023112 0.381994 -0.350435 0.600000 0.300000 0.000000
0.431689 -0.224414 0.083464 0.500000 0.500000 0.000000
0.026520 0.560733 -0.328860 0.300000 0.000000 0.600000
0.444629 -0.013928 -0.230023 0.600000 0.300000 0.000000
-0.164187 0.356800 -0.292944 0.300000 0.000000 0.600000
-0.508191 0.406113 -0.291917 0.300000 0.000000 0.600000
-0.048748 0.601096 -0.336023 0.300000 0.000000 0.600000
-0.104643 -0.037072 -0.226009 0.600000 0.300000 0.000000
0.457376 -0.298427 0.227691 0.000000 0.500000 0.500000
0.158626 -0.235562 0.242177 0.500000 0.500000 0.000000
-0.560277 -0.184217 -0.190323 0.600000 0.300000 0.000000
0.243652 0.536138 -0.324524 0.300000 0.000000 0.600000
-0.422727 -0.225175 0.355004 0.000000 0.500000 0.500000
0.051951 -0.235562 0.107670 0.500000 0.500000 0.000000
-0.500106 -0.298427 0.031199 0.000000 0.500000 0.500000
-0.249558 0.146726 -0.308951 0.600000 0.300000 0.000000
0.403735 0.427357 -0.358434 0.600000 0.300000 0.000000
-0.159416 0.537700 -0.327383 0.600000 0.300000 0.000000
-0.170923 0.631363 -0.343673 0.600000 0.300000 0.000000
0.555075 -0.286409 0.589849 0.000000 0.500000 0.500000
-0.468916 -0.298427 0.560384 0.000000 0.500000 0.500000
0.297781 0.707152 -0.347491 0.600000 0.300000 0.000000
0.350596 -0.225535 0.119198 0.500000 0.500000 0.000000
0.534863 -0.298427 0.478510 0.000000 0.500000 0.500000
-0.278130 0.559106 -0.381664 0.600000 0.300000 0.000000
0.076220 0.094338 -0.246648 0.300000 0.000000 0.600000
0.011177 0.358888 -0.295765 0.600000 0.300000 0.000000
-0.064473 -0.298427 0.451774 0.000000 0.500000 0.500000
-0.327547 0.402225 -0.354002 0.600000 0.300000 0.000000
0.238774 -0.285335 -0.226061 0.000000 0.500000 0.500000
-0.146100 0.266499 -0.279475 0.600000 0.300000 0.000000
0.450623 0.707702 -0.345029 0.600000 0.300000 0.000000
0.037881 0.061452 -0.293915 0.600000 0.300000 0.000000
-0.458495 0.622389 -0.342299 0.600000 0.300000 0.000000
0.428111 0.046188 -0.291223 0.600000 0.300000 0.000000
-0.314897 0.387395 -0.298318 0.300000 0.000000 0.600000
0.300565 0.203360 -0.318937 0.600000 0.300000 0.000000
-0.111812 0.584582 -0.335649 0.600000 0.300000 0.000000
0.076046 -0.298427 0.114107 0.000000 0.500000 0.500000
-0.219603 -0.296087 0.732696 0.000000 0.500000 0.500000
-0.204311 -0.066218 -0.271403 0.600000 0.300000 0.000000
-0.073139 -0.292754 -0.222203 0.000000 0.500000 0.500000
-0.103807 -0.225359 0.244217 0.500000 0.500000 0.000000
-0.513433 -0.223922 0.227764 0.000000 0.500000 0.500000
-0.314984 -0.234789 0.133681 0.000000 0.500000 0.500000
0.229656 -0.298427 0.201625 0.000000 0.500000 0.500000
-0.053021 0.448905 -0.309180 0.300000 0.000000 0.600000
0.032500 -0.298427 0.576704 0.000000 0.500000 0.500000
-0.183334 0.579926 -0.334783 0.600000 0.300000 0.000000
0.410245 -0.228030 -0.225366 0.000000 0.500000 0.500000
-0.497202 -0.117805 -0.201993 0.600000 0.300000 0.000000
-0.319225 -0.298427 0.375758 0.000000 0.500000 0.500000
0.082762 -0.298427 0.072543 0.000000 0.500000 0.500000
0.114662 0.630366 -0.335751 0.300000 0.000000 0.600000
0.019871 0.302020 -0.336333 0.600000 0.300000 0.000000
-0.406193 0.063379 -0.294255 0.600000 0.300000 0.000000
-0.280414 -0.298427 -0.190198 0.000000 0.500000 0.500000
0.509899 -0.132483 -0.199487 0.600000 0.300000 0.000000
-0.147879 0.672811 -0.401714 0.600000 0.300000 0.000000
0.427155 -0.191339 -0.249341 0.600000 0.300000 0.000000
0.019829 -0.235562 0.095129 0.500000 0.500000 0.000000
-0.383935 0.211681 -0.320404 0.600000 0.300000 0.000000
0.165396 0.530590 -0.323549 0.300000 0.000000 0.600000
-0.527364 0.113958 -0.240215 0.600000 0.300000 0.000000
0.120338 -0.057324 -0.222463 0.600000 0.300000 0.000000
-0.178545 -0.141296 -0.258165 0.600000 0.300000 0.000000
-0.529414 -0.267673 0.755232 0.000000 0.500000 0.500000
0.038553 0.683989 -0.403685 0.600000 0.300000 0.000000
0.541208 -0.224160 -0.173565 0.000000 0.500000 0.500000
-0.161903 0.146927 -0.255771 0.300000 0.000000 0.600000
-0.424808 -0.223922 0.489652 0.000000 0.500000 0.500000
0.185099 0.601678 -0.336123 0.300000 0.000000 0.600000
-0.567851 -0.298336 -0.046895 0.000000 0.500000 0.500000
0.247338 -0.235562 0.060885 0.500000 0.500000 0.000000
-0.114290 -0.298427 0.503336 0.000000 0.500000 0.500000
0.362132 0.396745 -0.298930 0.300000 0.000000 0.600000
0.325337 -0.235562 0.230449 0.500000 0.500000 0.000000
0.320610 0.730586 -0.405879 0.600000 0.300000 0.000000
0.301287 -0.223930 0.430027 0.000000 0.500000 0.500000
-0.086856 -0.235562 -0.028359 0.500000 0.500000 0.000000
-0.361365 0.002492 -0.230017 0.300000 0.000000 0.600000
0.308582 -0.298427 0.673614 0.000000 0.500000 0.500000
-0.364147 -0.235562 -0.018606 0.500000 0.500000 0.000000
-0.405180 0.173653 -0.313699 0.600000 0.300000 0.000000
0.529896 -0.223922 0.193295 0.000000 0.500000 0.500000
-0.529027 -0.232045 -0.233578 0.000000 0.500000 0.500000
0.207689 0.102242 -0.301107 0.600000 0.300000 0.000000
-0.300621 -0.235414 0.077689 0.500000 0.500000 0.000000
0.182485 0.726449 -0.407460 0.600000 0.300000 0.000000
0.033082 -0.210590 -0.245946 0.600000 0.300000 0.000000
0.243354 -0.235562 0.333799 0.500000 0.500000 0.000000
-0.377570 0.588797 -0.386900 0.600000 0.300000 0.000000
0.224587 0.349361 -0.290574 0.300000 0.000000 0.600000
-0.292556 -0.225163 0.123623 0.500000 0.500000 0.000000
0.085901 -0.225117 0.211295 0.500000 0.500000 0.000000
-0.409008 0.147263 -0.255014 0.300000 0.000000 0.600000
0.448395 0.318292 -0.339203 0.600000 0.300000 0.000000
0.013387 -0.235562 0.332613 0.500000 0.500000 0.000000
-0.046465 0.058530 -0.293400 0.600000 0.300000 0.000000
0.485191 -0.211015 -0.190827 0.600000 0.300000 0.000000
-0.102981 -0.298427 -0.141486 0.000000 0.500000 0.500000
0.186281 -0.234789 0.224736 0.000000 0.500000 0.500000
0.008411 -0.117458 -0.202099 0.600000 0.300000 0.000000
-0.508318 0.239571 -0.325322 0.600000 0.300000 0.000000
0.042908 0.657737 -0.399056 0.600000 0.300000 0.000000
-0.495440 -0.019448 -0.228952 0.600000 0.300000 0.000000
-0.196336 -0.197740 -0.248212 0.600000 0.300000 0.000000
0.043660 0.086595 -0.245337 0.300000 0.000000 0.600000
-0.080917 0.331237 -0.341485 0.600000 0.300000 0.000000
-0.482425 0.134638 -0.306820 0.600000 0.300000 0.000000
0.534380 -0.223922 0.126139 0.000000 0.500000 0.500000
-0.153271 -0.232810 0.139661 0.500000 0.500000 0.000000
-0.330441 -0.235562 0.312618 0.500000 0.500000 0.000000
0.565153 0.291977 -0.320295 0.600000 0.300000 0.000000
0.358513 0.121173 -0.253870 0.600000 0.300000 0.000000
-0.475444 0.459660 -0.310809 0.300000 0.000000 0.600000
0.483890 0.677181 -0.402484 0.600000 0.300000 0.000000
0.131095 0.424985 -0.305000 0.300000 0.000000 0.600000
-0.533696 0.406084 -0.354683 0.600000 0.300000 0.000000
0.511238 -0.041055 -0.275840 0.600000 0.300000 0.000000
-0.222465 -0.298427 -0.142602 0.000000 0.500000 0.500000
-0.243544 0.684068 -0.340565 0.600000 0.300000 0.000000
0.131379 -0.224777 0.184437 0.500000 0.500000 0.000000
0.551734 -0.100245 -0.222895 0.600000 0.300000 0.000000
-0.308224 -0.070331 -0.270678 0.600000 0.300000 0.000000
