-0.570657 -0.147623 -0.220044 0.600000 0.000000 0.300000
-0.132301 -0.186724 0.078731 0.000000 0.500000 0.500000
-0.435662 -0.179404 -0.140272 0.600000 0.000000 0.300000
0.038573 -0.196648 -0.197669 0.600000 0.000000 0.300000
0.528663 0.607257 -0.199834 0.600000 0.000000 0.300000
-0.518955 0.151705 -0.206671 0.300000 0.000000 0.600000
-0.313583 -0.106643 -0.219874 0.600000 0.000000 0.300000
-0.002887 0.063527 -0.251182 0.600000 0.000000 0.300000
0.357982 -0.233995 -0.050798 0.600000 0.000000 0.300000
-0.180777 -0.176909 0.451368 0.600000 0.000000 0.300000
0.269854 -0.175889 0.696518 0.600000 0.000000 0.300000
-0.003542 -0.215459 -0.180751 0.600000 0.000000 0.300000
-0.569863 -0.178665 0.419741 0.000000 0.500000 0.500000
0.603225 0.522284 -0.206938 0.600000 0.000000 0.300000
0.379247 0.449891 -0.207392 0.300000 0.000000 0.600000
-0.666824 0.448062 -0.197102 0.600000 0.000000 0.300000
0.473100 -0.179507 -0.008571 0.600000 0.000000 0.300000
-0.022332 -0.233995 -0.118125 0.600000 0.000000 0.300000
0.577188 0.335398 -0.201166 0.300000 0.000000 0.600000
-0.211196 -0.212123 -0.180804 0.600000 0.000000 0.300000
-0.448847 0.531464 -0.251182 0.600000 0.000000 0.300000
-0.491004 -0.233995 0.427694 0.600000 0.000000 0.300000
0.617498 -0.233626 0.085969 0.600000 0.000000 0.300000
-0.067260 -0.083635 -0.212046 0.600000 0.000000 0.300000
-0.692905 -0.221316 0.005262 0.600000 0.000000 0.300000
-0.595321 -0.233995 0.051924 0.600000 0.000000 0.300000
0.413110 -0.103099 -0.251182 0.600000 0.000000 0.300000
-0.394766 -0.233995 0.462892 0.600000 0.000000 0.300000
0.000245 0.372044 -0.251182 0.600000 0.000000 0.300000
0.370791 -0.055310 -0.202658 0.300000 0.000000 0.600000
-0.105623 -0.179485 -0.063604 0.600000 0.000000 0.300000
0.078043 0.427559 -0.251182 0.600000 0.000000 0.300000
-0.549002 -0.176476 0.539607 0.600000 0.000000 0.300000
-0.167643 0.345059 -0.206671 0.300000 0.000000 0.600000
0.012302 -0.038350 -0.251182 0.600000 0.000000 0.300000
-0.522282 -0.167749 -0.219865 0.600000 0.000000 0.300000
-0.062228 0.316463 -0.206671 0.300000 0.000000 0.600000
-0.595091 0.218945 -0.206671 0.300000 0.000000 0.600000
0.228241 0.052483 -0.251182 0.600000 0.000000 0.300000
-0.696724 -0.197937 0.646599 0.600000 0.000000 0.300000
-0.631335 0.454269 -0.251182 0.600000 0.000000 0.300000
-0.361040 0.110421 -0.206671 0.300000 0.000000 0.600000
0.412726 0.430895 -0.206671 0.300000 0.000000 0.600000
-0.080641 -0.185379 0.199437 0.000000 0.500000 0.500000
-0.634735 0.552020 -0.251116 0.600000 0.000000 0.300000
-0.388906 0.125976 -0.206671 0.300000 0.000000 0.600000
0.211878 0.526344 -0.251182 0.600000 0.000000 0.300000
-0.019387 -0.233995 0.057499 0.600000 0.000000 0.300000
0.642332 -0.177522 0.360795 0.600000 0.000000 0.300000
-0.219330 -0.233995 0.520713 0.600000 0.000000 0.300000
0.627592 -0.161691 -0.203217 0.600000 0.000000 0.300000
0.070417 -0.142529 -0.197639 0.600000 0.000000 0.300000
0.112660 -0.185580 0.139961 0.000000 0.500000 0.500000
0.542345 0.410477 -0.251182 0.600000 0.000000 0.300000
0.552144 -0.233995 0.048136 0.600000 0.000000 0.300000
0.212900 0.394509 -0.251182 0.600000 0.000000 0.300000
0.262270 -0.233995 0.069181 0.600000 0.000000 0.300000
-0.294413 -0.094302 -0.197209 0.600000 0.000000 0.300000
0.029039 -0.182981 0.085413 0.000000 0.500000 0.500000
0.508456 -0.016590 -0.251182 0.600000 0.000000 0.300000
0.234566 -0.233995 0.108163 0.600000 0.000000 0.300000
0.175330 0.337968 -0.206986 0.300000 0.000000 0.600000
0.110701 0.259288 -0.251182 0.600000 0.000000 0.300000
-0.239319 0.336650 -0.251182 0.600000 0.000000 0.300000
0.095550 -0.202249 0.703302 0.600000 0.000000 0.300000
-0.670679 -0.177673 0.287424 0.600000 0.000000 0.300000
0.385142 -0.183025 0.333043 0.000000 0.500000 0.500000
0.503258 -0.233995 0.343216 0.600000 0.000000 0.300000
-0.347704 -0.233995 0.368009 0.600000 0.000000 0.300000
-0.532532 -0.179638 0.040429 0.600000 0.000000 0.300000
-0.106987 -0.185143 0.117690 0.000000 0.500000 0.500000
-0.218917 -0.233995 0.362090 0.600000 0.000000 0.300000
0.022353 0.543407 -0.251181 0.600000 0.000000 0.300000
-0.238941 -0.233995 0.439095 0.600000 0.000000 0.300000
-0.670496 0.392033 -0.199319 0.600000 0.000000 0.300000
-0.537248 0.565807 -0.194244 0.600000 0.000000 0.300000
-0.658489 -0.233291 0.572016 0.600000 0.000000 0.300000
-0.148378 0.600850 -0.222754 0.600000 0.000000 0.300000
-0.625026 0.259028 -0.202865 0.300000 0.000000 0.600000
0.562059 -0.233995 0.415523 0.600000 0.000000 0.300000
-0.221241 -0.181317 0.078652 0.000000 0.500000 0.500000
-0.232033 -0.229977 0.654089 0.600000 0.000000 0.300000
0.459742 -0.185000 0.148333 0.000000 0.500000 0.500000
-0.383370 0.262418 -0.206671 0.300000 0.000000 0.600000
-0.103685 0.533237 -0.203063 0.300000 0.000000 0.600000
-0.207025 -0.175805 0.695037 0.600000 0.000000 0.300000
-0.402290 0.465088 -0.206671 0.300000 0.000000 0.600000
0.228094 0.593520 -0.228745 0.600000 0.000000 0.300000
0.137300 -0.175586 -0.193683 0.600000 0.000000 0.300000
-0.427851 -0.184374 0.282537 0.000000 0.500000 0.500000
0.067507 -0.233995 0.091312 0.600000 0.000000 0.300000
0.378994 -0.208081 0.696736 0.600000 0.000000 0.300000
0.360646 -0.185612 0.149733 0.000000 0.500000 0.500000
0.405275 -0.184650 0.355717 0.000000 0.500000 0.500000
-0.520585 -0.178681 0.498795 0.000000 0.500000 0.500000
0.375645 -0.234048 0.612673 0.600000 0.000000 0.300000
0.631373 -0.206524 -0.250089 0.600000 0.000000 0.300000
-0.110572 0.202952 -0.206671 0.300000 0.000000 0.600000
-0.287643 -0.233995 0.279702 0.600000 0.000000 0.300000
-0.335182 -0.233995 0.307284 0.600000 0.000000 0.300000
-0.008622 -0.141520 -0.219865 0.600000 0.000000 0.300000
-0.679209 -0.096664 -0.209621 0.600000 0.000000 0.300000
0.337424 -0.185421 0.110872 0.000000 0.500000 0.500000
-0.161270 -0.206744 -0.180890 0.600000 0.000000 0.300000
0.538360 0.098271 -0.207671 0.300000 0.000000 0.600000
0.549008 -0.224199 0.670155 0.600000 0.000000 0.300000
0.193573 -0.176403 0.559607 0.600000 0.000000 0.300000
-0.557172 -0.168666 -0.197639 0.600000 0.000000 0.300000
0.221456 -0.183278 0.146541 0.000000 0.500000 0.500000
0.482584 0.081709 -0.251182 0.600000 0.000000 0.300000
-0.282857 -0.233995 0.414208 0.600000 0.000000 0.300000
-0.433715 -0.010052 -0.207671 0.300000 0.000000 0.600000
-0.240409 0.008047 -0.251182 0.600000 0.000000 0.300000
-0.131151 -0.233995 0.275626 0.600000 0.000000 0.300000
0.071678 -0.179352 -0.163333 0.600000 0.000000 0.300000
0.228537 0.543416 -0.251181 0.600000 0.000000 0.300000
-0.663252 -0.232830 0.521400 0.600000 0.000000 0.300000
0.260857 0.018621 -0.207671 0.300000 0.000000 0.600000
-0.118852 -0.233995 -0.142655 0.600000 0.000000 0.300000
-0.647271 0.300838 -0.205297 0.600000 0.000000 0.300000
0.292940 -0.184493 0.256860 0.000000 0.500000 0.500000
0.150827 0.240929 -0.251182 0.600000 0.000000 0.300000
0.088041 -0.232244 0.643382 0.600000 0.000000 0.300000
0.554109 -0.011957 -0.251182 0.600000 0.000000 0.300000
-0.628307 -0.177371 0.371879 0.600000 0.000000 0.300000
-0.228910 -0.178897 0.049217 0.600000 0.000000 0.300000
0.349021 -0.178917 -0.118666 0.600000 0.000000 0.300000
-0.575303 -0.181137 -0.219865 0.600000 0.000000 0.300000
-0.129797 0.585918 -0.193271 0.600000 0.000000 0.300000
0.540521 -0.178945 0.044895 0.600000 0.000000 0.300000
-0.572929 -0.176041 0.707107 0.600000 0.000000 0.300000
-0.255250 -0.241267 -0.221697 0.600000 0.000000 0.300000
-0.129631 0.471253 -0.206671 0.300000 0.000000 0.600000
0.227776 0.100513 -0.251182 0.600000 0.000000 0.300000
0.133116 0.441849 -0.251182 0.600000 0.000000 0.300000
0.278711 -0.058520 -0.251182 0.600000 0.000000 0.300000
-0.111151 -0.233995 -0.080474 0.600000 0.000000 0.300000
0.432679 -0.179223 -0.041358 0.600000 0.000000 0.300000
0.124510 -0.015909 -0.207672 0.300000 0.000000 0.600000
0.277463 -0.132521 -0.219865 0.600000 0.000000 0.300000
0.521834 -0.233995 0.217289 0.600000 0.000000 0.300000
-0.361538 -0.233995 0.478422 0.600000 0.000000 0.300000
-0.264511 0.432029 -0.206671 0.300000 0.000000 0.600000
-0.699909 -0.180560 0.338101 0.600000 0.000000 0.300000
0.479113 -0.107562 -0.197639 0.600000 0.000000 0.300000
0.085718 -0.233995 0.306736 0.600000 0.000000 0.300000
-0.124052 -0.180001 0.409030 0.000000 0.500000 0.500000
-0.565156 0.563068 -0.194334 0.600000 0.000000 0.300000
0.018701 -0.193439 -0.219871 0.600000 0.000000 0.300000
-0.596240 -0.133744 -0.197639 0.600000 0.000000 0.300000
-0.256774 -0.233995 0.536361 0.600000 0.000000 0.300000
0.651875 0.462839 -0.240455 0.600000 0.000000 0.300000
-0.248043 -0.030877 -0.251182 0.600000 0.000000 0.300000
-0.672866 -0.023031 -0.200257 0.600000 0.000000 0.300000
0.181377 -0.182311 0.405103 0.000000 0.500000 0.500000
0.537138 -0.178888 0.266669 0.000000 0.500000 0.500000
-0.704694 -0.196748 -0.034094 0.600000 0.000000 0.300000
0.229712 -0.219856 0.679536 0.600000 0.000000 0.300000
0.234460 -0.175317 -0.219865 0.600000 0.000000 0.300000
-0.115920 0.566092 -0.249373 0.600000 0.000000 0.300000
0.105984 -0.177968 0.434450 0.000000 0.500000 0.500000
0.173627 -0.180452 0.071546 0.000000 0.500000 0.500000
-0.087834 -0.233995 0.459339 0.600000 0.000000 0.300000
0.587661 -0.179024 -0.126443 0.600000 0.000000 0.300000
0.148596 -0.160298 -0.251182 0.600000 0.000000 0.300000
-0.019138 -0.179383 -0.056576 0.600000 0.000000 0.300000
0.202336 -0.233995 0.220199 0.600000 0.000000 0.300000
-0.074902 -0.233995 0.439279 0.600000 0.000000 0.300000
-0.635515 0.593771 -0.242969 0.600000 0.000000 0.300000
0.334996 -0.233995 -0.054290 0.600000 0.000000 0.300000
-0.005193 -0.185159 0.246608 0.000000 0.500000 0.500000
-0.261192 -0.233605 0.630363 0.600000 0.000000 0.300000
-0.583625 -0.186870 -0.195661 0.500000 0.500000 0.000000
-0.539361 -0.233995 0.552275 0.600000 0.000000 0.300000
-0.065852 0.128712 -0.207671 0.300000 0.000000 0.600000
0.392563 0.152096 -0.251182 0.600000 0.000000 0.300000
-0.294569 0.287749 -0.206671 0.300000 0.000000 0.600000
-0.632959 0.488932 -0.199507 0.300000 0.000000 0.600000
0.628548 0.179005 -0.251317 0.600000 0.000000 0.300000
-0.224948 -0.185369 0.201514 0.000000 0.500000 0.500000
-0.492124 0.427792 -0.251182 0.600000 0.000000 0.300000
-0.494318 -0.204487 -0.218469 0.600000 0.000000 0.300000
0.504410 -0.045199 -0.251182 0.600000 0.000000 0.300000
0.145178 0.339827 -0.251182 0.600000 0.000000 0.300000
-0.561122 0.079940 -0.251182 0.600000 0.000000 0.300000
-0.272940 0.330464 -0.206671 0.300000 0.000000 0.600000
0.228197 0.075382 -0.207671 0.300000 0.000000 0.600000
-0.429930 0.180223 -0.206671 0.300000 0.000000 0.600000
-0.163680 -0.199661 0.706086 0.600000 0.000000 0.300000
0.565231 -0.233995 0.290105 0.600000 0.000000 0.300000
0.388164 -0.233995 0.078711 0.600000 0.000000 0.300000
-0.009652 0.566323 -0.226112 0.600000 0.000000 0.300000
-0.515852 -0.233995 -0.129399 0.600000 0.000000 0.300000
0.631153 -0.178823 0.119662 0.600000 0.000000 0.300000
-0.236392 -0.180083 -0.031354 0.600000 0.000000 0.300000
0.045640 -0.227470 -0.197854 0.600000 0.000000 0.300000
-0.216463 -0.181487 0.396113 0.000000 0.500000 0.500000
0.237465 -0.233995 0.370416 0.600000 0.000000 0.300000
-0.124128 -0.136623 -0.219865 0.600000 0.000000 0.300000
0.333700 0.391949 -0.206809 0.300000 0.000000 0.600000
0.546522 -0.178602 0.168294 0.000000 0.500000 0.500000
-0.672715 -0.178631 0.082265 0.600000 0.000000 0.300000
-0.209348 0.460567 -0.206671 0.300000 0.000000 0.600000
0.095174 -0.233995 0.481295 0.600000 0.000000 0.300000
0.432382 -0.184271 0.304456 0.000000 0.500000 0.500000
0.021405 0.373090 -0.207671 0.300000 0.000000 0.600000
-0.594739 -0.233995 0.507862 0.600000 0.000000 0.300000
-0.667094 -0.232351 0.412960 0.600000 0.000000 0.300000
0.090421 0.389292 -0.207671 0.300000 0.000000 0.600000
-0.152621 -0.185164 0.194872 0.000000 0.500000 0.500000
-0.368007 0.148147 -0.251182 0.600000 0.000000 0.300000
0.065329 -0.233995 0.060784 0.600000 0.000000 0.300000
-0.264530 0.260814 -0.206671 0.300000 0.000000 0.600000
0.315195 0.293885 -0.206671 0.300000 0.000000 0.600000
0.297869 -0.178740 0.059588 0.600000 0.000000 0.300000
-0.135254 0.255694 -0.251182 0.600000 0.000000 0.300000
0.242596 -0.120602 -0.197639 0.600000 0.000000 0.300000
0.505308 -0.233995 0.505717 0.600000 0.000000 0.300000
-0.174313 0.026297 -0.251182 0.600000 0.000000 0.300000
0.157862 0.180388 -0.251182 0.600000 0.000000 0.300000
0.372144 -0.245283 -0.236352 0.600000 0.000000 0.300000
-0.386314 0.562078 -0.211598 0.600000 0.000000 0.300000
-0.481553 -0.021227 -0.251182 0.600000 0.000000 0.300000
-0.654806 -0.176990 0.434078 0.600000 0.000000 0.300000
-0.079301 -0.233995 -0.128046 0.600000 0.000000 0.300000
-0.039511 -0.184045 0.352852 0.000000 0.500000 0.500000
-0.402025 -0.183830 0.160334 0.000000 0.500000 0.500000
0.593847 0.446798 -0.195382 0.600000 0.000000 0.300000
0.121604 -0.233995 0.207574 0.600000 0.000000 0.300000
-0.252815 -0.176949 0.575335 0.300000 0.000000 0.600000
-0.483861 -0.233995 -0.147122 0.600000 0.000000 0.300000
0.146033 -0.233995 0.162841 0.600000 0.000000 0.300000
-0.302567 -0.233995 0.492555 0.600000 0.000000 0.300000
-0.371972 -0.179957 0.410814 0.000000 0.500000 0.500000
-0.585253 -0.233995 0.423358 0.600000 0.000000 0.300000
-0.131658 0.291283 -0.206671 0.300000 0.000000 0.600000
-0.461058 -0.189748 0.086042 0.000000 0.500000 0.500000
0.048823 -0.233995 -0.135957 0.600000 0.000000 0.300000
0.501787 -0.154530 -0.219865 0.600000 0.000000 0.300000
0.653964 -0.209116 0.391478 0.600000 0.000000 0.300000
0.182190 0.005262 -0.207671 0.300000 0.000000 0.600000
-0.130490 -0.207119 -0.218021 0.600000 0.000000 0.300000
-0.420264 0.247873 -0.206671 0.300000 0.000000 0.600000
0.211283 -0.233995 -0.059321 0.600000 0.000000 0.300000
0.371861 -0.019008 -0.251182 0.600000 0.000000 0.300000
-0.293225 -0.180295 -0.148228 0.600000 0.000000 0.300000
0.361082 -0.191630 -0.251181 0.600000 0.000000 0.300000
0.464559 -0.176486 0.542042 0.600000 0.000000 0.300000
0.554005 -0.233995 0.175796 0.600000 0.000000 0.300000
0.061119 -0.185430 0.188540 0.000000 0.500000 0.500000
-0.641494 -0.179035 0.077840 0.600000 0.000000 0.300000
0.200895 -0.175846 0.687506 0.600000 0.000000 0.300000
0.257403 0.240239 -0.207165 0.300000 0.000000 0.600000
0.382309 -0.011182 -0.207671 0.300000 0.000000 0.600000
-0.415165 -0.213909 -0.216444 0.600000 0.000000 0.300000
0.629195 0.130251 -0.204518 0.600000 0.000000 0.300000
-0.513556 -0.183466 0.206807 0.000000 0.500000 0.500000
-0.139089 0.169821 -0.251182 0.600000 0.000000 0.300000
0.105633 -0.233784 0.624609 0.600000 0.000000 0.300000
0.050403 0.454358 -0.207671 0.300000 0.000000 0.600000
-0.449959 -0.176494 0.594369 0.600000 0.000000 0.300000
-0.439088 0.594100 -0.194661 0.600000 0.000000 0.300000
-0.193042 -0.180014 0.000362 0.600000 0.000000 0.300000
0.268239 -0.176738 0.632848 0.600000 0.000000 0.300000
-0.632974 -0.206427 -0.193960 0.600000 0.000000 0.300000
0.246588 0.346630 -0.251182 0.600000 0.000000 0.300000
0.081641 0.563934 -0.220290 0.600000 0.000000 0.300000
0.434526 0.141273 -0.251182 0.600000 0.000000 0.300000
-0.453721 -0.184097 0.341829 0.000000 0.500000 0.500000
-0.285992 0.297898 -0.251182 0.600000 0.000000 0.300000
-0.450941 -0.175859 0.676227 0.600000 0.000000 0.300000
0.537230 -0.049859 -0.204639 0.300000 0.000000 0.600000
-0.334522 -0.233995 0.523010 0.600000 0.000000 0.300000
-0.449614 -0.180108 -0.019904 0.600000 0.000000 0.300000
-0.382946 -0.176137 0.616804 0.600000 0.300000 0.000000
0.343783 -0.156077 -0.219865 0.600000 0.000000 0.300000
-0.182905 0.579949 -0.245362 0.600000 0.000000 0.300000
0.283875 -0.184812 0.320894 0.000000 0.500000 0.500000
0.016787 0.508396 -0.207463 0.300000 0.000000 0.600000
-0.513095 0.561818 -0.215063 0.600000 0.000000 0.300000
0.509878 0.419650 -0.206671 0.300000 0.000000 0.600000
0.640942 -0.207942 -0.225741 0.600000 0.000000 0.300000
0.576873 -0.233995 -0.128573 0.600000 0.000000 0.300000
0.112245 -0.094554 -0.197515 0.600000 0.000000 0.300000
0.090206 -0.184912 0.167094 0.000000 0.500000 0.500000
-0.379109 -0.183243 0.296545 0.000000 0.500000 0.500000
-0.153062 -0.233995 0.442870 0.600000 0.000000 0.300000
-0.684717 0.022036 -0.217859 0.600000 0.000000 0.300000
-0.515333 -0.179576 0.414517 0.000000 0.500000 0.500000
-0.569662 0.451804 -0.251182 0.600000 0.000000 0.300000
-0.413478 -0.170255 -0.197638 0.600000 0.000000 0.300000
-0.607360 0.418772 -0.251182 0.600000 0.000000 0.300000
-0.530556 -0.233995 -0.149845 0.600000 0.000000 0.300000
-0.005480 -0.115410 -0.251182 0.600000 0.000000 0.300000
-0.173110 0.281212 -0.251182 0.600000 0.000000 0.300000
-0.330026 -0.184596 0.234790 0.000000 0.500000 0.500000
-0.129760 -0.176053 0.647089 0.600000 0.300000 0.000000
-0.669096 -0.176704 0.495556 0.600000 0.000000 0.300000
0.645360 -0.177828 0.325787 0.600000 0.000000 0.300000
0.534367 -0.233995 0.505257 0.600000 0.000000 0.300000
0.655811 -0.194270 0.047917 0.600000 0.000000 0.300000
-0.512164 -0.035721 -0.206977 0.300000 0.000000 0.600000
0.492595 -0.129100 -0.219865 0.600000 0.000000 0.300000
-0.425599 -0.243869 -0.227794 0.600000 0.000000 0.300000
0.117005 0.541273 -0.251182 0.600000 0.000000 0.300000
-0.290960 0.429527 -0.251182 0.600000 0.000000 0.300000
-0.456354 -0.233995 0.059791 0.600000 0.000000 0.300000
-0.411326 -0.025288 -0.251182 0.600000 0.000000 0.300000
0.237850 -0.233995 0.546698 0.600000 0.000000 0.300000
-0.270443 0.119478 -0.251182 0.600000 0.000000 0.300000
-0.268374 0.113605 -0.206734 0.300000 0.000000 0.600000
0.499096 -0.218031 -0.194031 0.600000 0.000000 0.300000
0.537146 -0.179476 0.354916 0.000000 0.500000 0.500000
0.055598 -0.233995 0.512053 0.600000 0.000000 0.300000
-0.123709 -0.233995 0.375682 0.600000 0.000000 0.300000
-0.394875 -0.233995 0.243097 0.600000 0.000000 0.300000
-0.376119 -0.179989 0.005816 0.600000 0.000000 0.300000
-0.341271 -0.146076 -0.194153 0.600000 0.000000 0.300000
-0.000062 0.592687 -0.193242 0.600000 0.000000 0.300000
-0.006176 -0.106481 -0.195661 0.000000 0.500000 0.500000
-0.488069 -0.227475 0.662800 0.600000 0.000000 0.300000
0.369476 0.081343 -0.207671 0.300000 0.000000 0.600000
-0.206712 -0.183475 0.247112 0.000000 0.500000 0.500000
0.241273 -0.233995 0.223369 0.600000 0.000000 0.300000
0.640102 -0.178095 0.268723 0.600000 0.000000 0.300000
-0.644637 -0.176761 0.607669 0.600000 0.000000 0.300000
-0.602757 0.351351 -0.251182 0.600000 0.000000 0.300000
0.296461 0.557383 -0.194556 0.600000 0.000000 0.300000
0.126004 0.387575 -0.207671 0.300000 0.000000 0.600000
-0.131007 -0.233995 0.035699 0.600000 0.000000 0.300000
0.144256 -0.233995 -0.140688 0.600000 0.000000 0.300000
0.617637 -0.229072 0.655756 0.600000 0.000000 0.300000
0.034876 0.439487 -0.251182 0.600000 0.000000 0.300000
-0.285118 0.152306 -0.206671 0.300000 0.000000 0.600000
-0.110572 -0.177162 0.485911 0.600000 0.000000 0.300000
-0.665531 -0.232610 0.298781 0.600000 0.000000 0.300000
-0.390202 -0.167955 -0.251182 0.600000 0.000000 0.300000
0.569282 -0.178496 0.237066 0.600000 0.000000 0.300000
0.509003 0.489442 -0.251182 0.600000 0.000000 0.300000
-0.208509 -0.179460 -0.124081 0.600000 0.000000 0.300000
-0.037531 0.345693 -0.251182 0.600000 0.000000 0.300000
0.244450 0.358477 -0.206671 0.300000 0.000000 0.600000
-0.374007 -0.176476 0.716506 0.600000 0.000000 0.300000
0.188600 -0.211603 -0.217256 0.600000 0.000000 0.300000
0.471984 0.523971 -0.205665 0.300000 0.000000 0.600000
-0.109594 0.374542 -0.251182 0.600000 0.000000 0.300000
0.187269 0.388552 -0.207671 0.300000 0.000000 0.600000
0.158065 -0.233995 0.227822 0.600000 0.000000 0.300000
-0.369692 0.439824 -0.206671 0.300000 0.000000 0.600000
-0.649698 -0.062775 -0.213521 0.600000 0.000000 0.300000
0.634902 -0.201732 -0.164053 0.600000 0.000000 0.300000
-0.138812 0.379031 -0.251182 0.600000 0.000000 0.300000
0.198850 -0.100885 -0.193683 0.600000 0.000000 0.300000
-0.113390 -0.233995 0.404868 0.600000 0.000000 0.300000
-0.158240 -0.233995 0.357097 0.600000 0.000000 0.300000
0.315430 0.179910 -0.207671 0.300000 0.000000 0.600000
0.258850 0.441917 -0.207671 0.300000 0.000000 0.600000
-0.040539 0.112142 -0.251182 0.600000 0.000000 0.300000
0.627437 -0.024381 -0.203060 0.600000 0.000000 0.300000
-0.612336 -0.239421 -0.218286 0.600000 0.000000 0.300000
-0.615574 0.384267 -0.251182 0.600000 0.000000 0.300000
0.182071 -0.179194 -0.038546 0.600000 0.000000 0.300000
-0.412545 0.400181 -0.206671 0.300000 0.000000 0.600000
-0.233001 -0.179783 0.010297 0.600000 0.000000 0.300000
0.538592 -0.176643 0.508588 0.600000 0.000000 0.300000
0.606269 0.224848 -0.205255 0.600000 0.000000 0.300000
0.090824 0.200037 -0.251182 0.600000 0.000000 0.300000
-0.642293 -0.178674 0.192257 0.600000 0.000000 0.300000
0.171341 0.042115 -0.207671 0.300000 0.000000 0.600000
0.382083 -0.179204 -0.043780 0.600000 0.000000 0.300000
0.318743 -0.176059 0.713256 0.600000 0.000000 0.300000
-0.190050 0.000412 -0.207671 0.300000 0.000000 0.600000
-0.563989 -0.183116 0.170160 0.000000 0.500000 0.500000
-0.647951 0.376605 -0.213659 0.600000 0.000000 0.300000
0.135625 0.471672 -0.207671 0.300000 0.000000 0.600000
0.589681 -0.214860 0.687709 0.600000 0.000000 0.300000
0.455224 0.405380 -0.251182 0.600000 0.000000 0.300000
0.091813 0.569570 -0.248327 0.600000 0.000000 0.300000
0.256346 -0.233995 0.457733 0.600000 0.000000 0.300000
0.371550 -0.178971 0.009370 0.600000 0.000000 0.300000
0.148124 0.297855 -0.251182 0.600000 0.000000 0.300000
-0.250039 0.265068 -0.251182 0.600000 0.000000 0.300000
-0.648439 0.561191 -0.193806 0.600000 0.000000 0.300000
0.568256 -0.179225 0.147410 0.600000 0.000000 0.300000
-0.695929 -0.179146 0.207038 0.600000 0.000000 0.300000
0.274742 0.120387 -0.251182 0.600000 0.000000 0.300000
0.530249 0.063081 -0.207671 0.300000 0.000000 0.600000
-0.520347 0.571876 -0.247634 0.600000 0.000000 0.300000
0.155460 -0.178766 0.053843 0.600000 0.000000 0.300000
0.175144 -0.182762 0.290289 0.000000 0.500000 0.500000
-0.382579 -0.233995 0.440803 0.600000 0.000000 0.300000
-0.027616 0.091422 -0.207671 0.300000 0.000000 0.600000
-0.283179 -0.177220 0.517027 0.300000 0.000000 0.600000
0.018143 -0.233995 0.121890 0.600000 0.000000 0.300000
-0.057008 -0.233995 0.483320 0.600000 0.000000 0.300000
0.650425 -0.216715 0.242394 0.600000 0.000000 0.300000
-0.031511 -0.233995 0.155573 0.600000 0.000000 0.300000
0.451036 -0.233995 0.290084 0.600000 0.000000 0.300000
0.241999 -0.178942 0.015735 0.600000 0.000000 0.300000
0.034384 -0.176655 0.609917 0.600000 0.000000 0.300000
0.517845 0.046447 -0.251182 0.600000 0.000000 0.300000
-0.102259 -0.233995 0.068077 0.600000 0.000000 0.300000
-0.626586 0.561229 -0.212615 0.600000 0.000000 0.300000
-0.128797 -0.233995 0.205210 0.600000 0.000000 0.300000
-0.318592 -0.182006 -0.219865 0.600000 0.000000 0.300000
-0.360816 0.454843 -0.251182 0.600000 0.000000 0.300000
-0.496573 -0.233918 0.621873 0.600000 0.000000 0.300000
-0.692096 0.441052 -0.237340 0.600000 0.000000 0.300000
-0.553160 -0.183508 0.116807 0.000000 0.500000 0.500000
-0.275094 -0.183736 0.215607 0.000000 0.500000 0.500000
0.111818 0.100327 -0.251182 0.600000 0.000000 0.300000
-0.628668 0.394161 -0.201375 0.600000 0.000000 0.300000
0.063969 0.588955 -0.199688 0.600000 0.000000 0.300000
0.610652 -0.178051 0.320120 0.600000 0.000000 0.300000
0.212887 -0.207358 -0.198606 0.600000 0.000000 0.300000
0.542550 0.289511 -0.206672 0.300000 0.000000 0.600000
-0.483397 -0.233995 0.505828 0.600000 0.000000 0.300000
-0.475959 0.158862 -0.206671 0.300000 0.000000 0.600000
0.402917 0.562700 -0.212395 0.600000 0.000000 0.300000
-0.081620 -0.090370 -0.251182 0.600000 0.000000 0.300000
0.633930 0.318023 -0.210435 0.600000 0.000000 0.300000
0.522593 -0.219694 -0.202274 0.600000 0.000000 0.300000
0.095628 0.314519 -0.207067 0.300000 0.000000 0.600000
-0.522587 0.306317 -0.206671 0.300000 0.000000 0.600000
-0.201390 0.392047 -0.206671 0.300000 0.000000 0.600000
0.011630 -0.176823 0.530406 0.600000 0.000000 0.300000
0.507175 -0.140310 -0.193719 0.600000 0.000000 0.300000
-0.543979 -0.019297 -0.251182 0.600000 0.000000 0.300000
-0.132970 -0.176975 0.437332 0.600000 0.000000 0.300000
-0.283762 0.194488 -0.251182 0.600000 0.000000 0.300000
-0.625175 -0.233999 0.336471 0.600000 0.000000 0.300000
0.448519 -0.175891 0.706496 0.600000 0.000000 0.300000
0.651740 -0.215297 0.504956 0.600000 0.000000 0.300000
-0.311753 -0.233995 0.149931 0.600000 0.000000 0.300000
0.641201 0.565580 -0.247991 0.600000 0.000000 0.300000
0.654628 -0.205466 0.077609 0.600000 0.000000 0.300000
0.476239 0.565855 -0.194402 0.600000 0.000000 0.300000
-0.371523 -0.233995 0.292979 0.600000 0.000000 0.300000
0.354995 -0.186407 0.126580 0.000000 0.500000 0.500000
-0.148533 -0.180014 0.000359 0.600000 0.000000 0.300000
-0.104716 0.595784 -0.242795 0.600000 0.000000 0.300000
-0.166135 -0.184678 0.217197 0.000000 0.500000 0.500000
-0.333553 -0.229100 0.657787 0.600000 0.000000 0.300000
-0.329834 0.364171 -0.251182 0.600000 0.000000 0.300000
-0.353183 -0.095563 -0.251182 0.600000 0.000000 0.300000
0.088068 0.090998 -0.251182 0.600000 0.000000 0.300000
-0.521795 0.366732 -0.206671 0.300000 0.000000 0.600000
-0.568809 -0.096259 -0.251182 0.600000 0.000000 0.300000
0.573074 -0.179469 0.117183 0.600000 0.000000 0.300000
-0.037322 0.213146 -0.206943 0.300000 0.000000 0.600000
0.601326 0.589312 -0.197860 0.600000 0.000000 0.300000
0.503280 -0.176822 0.470010 0.600000 0.000000 0.300000
0.350770 -0.233995 -0.073804 0.600000 0.000000 0.300000
0.338884 0.153525 -0.251182 0.600000 0.000000 0.300000
0.229951 -0.185621 -0.197638 0.600000 0.000000 0.300000
-0.230505 -0.177136 0.535149 0.300000 0.000000 0.600000
-0.001377 -0.233995 0.206641 0.600000 0.000000 0.300000
-0.457130 0.223640 -0.251182 0.600000 0.000000 0.300000
0.439585 0.318604 -0.206671 0.300000 0.000000 0.600000
0.519720 0.611263 -0.242133 0.600000 0.000000 0.300000
0.103178 -0.233995 0.170802 0.600000 0.000000 0.300000
0.065208 -0.090580 -0.251182 0.600000 0.000000 0.300000
0.367984 -0.233995 0.022642 0.600000 0.000000 0.300000
0.045729 -0.174927 -0.251182 0.600000 0.000000 0.300000
0.333200 -0.233995 0.030922 0.600000 0.000000 0.300000
-0.501620 -0.182280 0.364827 0.000000 0.500000 0.500000
0.437538 0.486267 -0.207536 0.300000 0.000000 0.600000
-0.671739 0.059351 -0.199993 0.600000 0.000000 0.300000
-0.014195 -0.176678 0.611052 0.600000 0.000000 0.300000
-0.077756 -0.233995 0.131551 0.600000 0.000000 0.300000
-0.431292 -0.059970 -0.200319 0.600000 0.000000 0.300000
0.621764 -0.098906 -0.251399 0.600000 0.000000 0.300000
-0.071205 -0.175824 0.699345 0.600000 0.000000 0.300000
0.506538 -0.176677 0.501321 0.600000 0.000000 0.300000
-0.294971 -0.038382 -0.206556 0.300000 0.000000 0.600000
0.519748 -0.179122 -0.002296 0.600000 0.000000 0.300000
0.466248 -0.233995 0.229110 0.600000 0.000000 0.300000
0.001643 -0.233995 0.487966 0.600000 0.000000 0.300000
0.503472 -0.233995 0.038582 0.600000 0.000000 0.300000
0.057264 0.303456 -0.207349 0.300000 0.000000 0.600000
-0.277408 -0.233995 0.503362 0.600000 0.000000 0.300000
0.648839 0.147645 -0.229240 0.600000 0.000000 0.300000
-0.125756 -0.096395 -0.219974 0.600000 0.000000 0.300000
0.450880 -0.176246 0.593218 0.600000 0.000000 0.300000
0.497270 0.053137 -0.207671 0.300000 0.000000 0.600000
-0.031770 -0.196303 0.709247 0.600000 0.000000 0.300000
0.203851 -0.233793 -0.170935 0.600000 0.000000 0.300000
0.568810 -0.233995 -0.099224 0.600000 0.000000 0.300000
-0.676371 0.536595 -0.244576 0.600000 0.000000 0.300000
-0.629148 -0.117432 -0.197617 0.600000 0.000000 0.300000
0.128825 -0.233995 0.490638 0.600000 0.000000 0.300000
0.300590 -0.179125 -0.023500 0.600000 0.000000 0.300000
-0.241840 -0.185120 0.255084 0.000000 0.500000 0.500000
0.017030 0.155796 -0.207671 0.300000 0.000000 0.600000
-0.564141 0.592373 -0.243085 0.600000 0.000000 0.300000
-0.309267 0.268517 -0.206671 0.300000 0.000000 0.600000
-0.142517 0.313572 -0.251182 0.600000 0.000000 0.300000
0.423878 -0.233995 0.342115 0.600000 0.000000 0.300000
0.391907 -0.177109 0.477456 0.600000 0.000000 0.300000
-0.160468 -0.233995 -0.091510 0.600000 0.000000 0.300000
0.066095 0.573875 -0.247033 0.600000 0.000000 0.300000
-0.292434 -0.182148 0.389888 0.000000 0.500000 0.500000
0.183362 -0.221453 -0.194460 0.600000 0.000000 0.300000
0.534351 0.599056 -0.225554 0.600000 0.000000 0.300000
-0.204550 -0.104198 -0.194606 0.600000 0.000000 0.300000
0.466447 -0.182550 0.344244 0.000000 0.500000 0.500000
0.054877 0.318096 -0.251182 0.600000 0.000000 0.300000
-0.638840 -0.233152 -0.092459 0.600000 0.000000 0.300000
-0.107534 -0.233995 0.567772 0.600000 0.000000 0.300000
-0.051029 -0.177677 0.590362 0.600000 0.000000 0.300000
0.382213 -0.176033 0.639004 0.600000 0.000000 0.300000
0.554354 -0.233995 0.095420 0.600000 0.000000 0.300000
-0.655852 0.154363 -0.193828 0.600000 0.000000 0.300000
0.280120 0.352695 -0.251182 0.600000 0.000000 0.300000
0.084782 -0.182495 0.368276 0.000000 0.500000 0.500000
0.645513 -0.176484 0.620149 0.600000 0.000000 0.300000
-0.113921 0.563153 -0.218359 0.600000 0.000000 0.300000
-0.063220 -0.184684 0.348335 0.000000 0.500000 0.500000
0.268416 -0.148656 -0.197639 0.600000 0.000000 0.300000
-0.101806 -0.094426 -0.195661 0.000000 0.500000 0.500000
0.483575 -0.233995 0.103612 0.600000 0.000000 0.300000
-0.463212 -0.233995 0.286709 0.600000 0.000000 0.300000
-0.662297 -0.232923 0.548265 0.600000 0.000000 0.300000
-0.622304 -0.233995 0.294641 0.600000 0.000000 0.300000
0.492641 -0.185346 0.110629 0.000000 0.500000 0.500000
-0.129078 -0.214762 -0.180762 0.600000 0.000000 0.300000
-0.109788 0.405919 -0.206671 0.300000 0.000000 0.600000
0.136940 0.193091 -0.207671 0.300000 0.000000 0.600000
0.494002 -0.224748 0.669021 0.600000 0.000000 0.300000
0.311234 -0.179214 -0.071630 0.600000 0.000000 0.300000
0.390254 -0.179456 0.066084 0.000000 0.500000 0.500000
-0.375601 0.010339 -0.207671 0.300000 0.000000 0.600000
0.471332 -0.233995 0.460879 0.600000 0.000000 0.300000
0.591613 0.036846 -0.196076 0.600000 0.000000 0.300000
0.221524 -0.179239 -0.049498 0.600000 0.000000 0.300000
-0.064364 -0.233995 0.316123 0.600000 0.000000 0.300000
0.343540 -0.121035 -0.219865 0.600000 0.000000 0.300000
0.044792 -0.233083 0.635095 0.600000 0.000000 0.300000
-0.131971 0.292599 -0.251182 0.600000 0.000000 0.300000
0.319013 -0.184696 0.213430 0.000000 0.500000 0.500000
0.106215 -0.183738 0.184451 0.000000 0.500000 0.500000
-0.459559 -0.233995 0.522144 0.600000 0.000000 0.300000
-0.070805 0.225987 -0.251182 0.600000 0.000000 0.300000
0.020022 -0.233995 0.343147 0.600000 0.000000 0.300000
0.520960 -0.176442 0.716218 0.600000 0.000000 0.300000
-0.336240 0.220482 -0.206671 0.300000 0.000000 0.600000
-0.395401 0.201314 -0.206671 0.300000 0.000000 0.600000
0.171426 -0.233995 0.010405 0.600000 0.000000 0.300000
-0.414273 -0.224284 -0.180064 0.600000 0.000000 0.300000
-0.232711 -0.233995 0.403613 0.600000 0.000000 0.300000
0.136392 0.215088 -0.207672 0.300000 0.000000 0.600000
-0.009985 -0.183676 0.223429 0.000000 0.500000 0.500000
-0.480161 -0.195400 0.710165 0.600000 0.000000 0.300000
-0.003201 -0.179313 -0.133588 0.600000 0.000000 0.300000
-0.327456 -0.175749 0.699808 0.600000 0.000000 0.300000
0.228842 -0.233995 -0.018407 0.600000 0.000000 0.300000
0.393817 -0.176970 0.499260 0.600000 0.000000 0.300000
-0.400896 -0.179766 0.035684 0.600000 0.000000 0.300000
-0.352924 -0.233995 0.217673 0.600000 0.000000 0.300000
-0.267503 -0.135039 -0.197639 0.600000 0.000000 0.300000
-0.250867 -0.201157 0.704694 0.600000 0.000000 0.300000
0.166221 -0.028264 -0.251182 0.600000 0.000000 0.300000
-0.582451 -0.065071 -0.198068 0.600000 0.000000 0.300000
0.140319 -0.085555 -0.213978 0.600000 0.000000 0.300000
-0.176258 -0.179819 -0.046118 0.600000 0.000000 0.300000
-0.206127 0.276440 -0.206671 0.300000 0.000000 0.600000
0.188975 0.597568 -0.226414 0.600000 0.000000 0.300000
0.562518 -0.179091 0.005729 0.600000 0.000000 0.300000
-0.377059 0.409879 -0.251182 0.600000 0.000000 0.300000
-0.233800 -0.233995 0.108859 0.600000 0.000000 0.300000
-0.429703 0.075798 -0.251182 0.600000 0.000000 0.300000
0.472733 0.519330 -0.251182 0.600000 0.000000 0.300000
-0.348682 0.561963 -0.212136 0.600000 0.000000 0.300000
0.236315 -0.180794 -0.175261 0.600000 0.000000 0.300000
-0.530779 -0.233995 0.069172 0.600000 0.000000 0.300000
0.277730 0.434147 -0.251182 0.600000 0.000000 0.300000
-0.511229 -0.182969 0.100899 0.000000 0.500000 0.500000
0.336092 -0.183409 0.250770 0.000000 0.500000 0.500000
-0.166386 0.411801 -0.251182 0.600000 0.000000 0.300000
0.523078 -0.233995 0.058219 0.600000 0.000000 0.300000
0.649263 -0.218552 0.111596 0.600000 0.000000 0.300000
0.596424 0.608513 -0.210332 0.600000 0.000000 0.300000
-0.013496 -0.182302 0.079620 0.000000 0.500000 0.500000
-0.364501 -0.233995 0.076993 0.600000 0.000000 0.300000
-0.461118 -0.184915 0.166635 0.000000 0.500000 0.500000
0.640159 -0.176663 0.546068 0.600000 0.000000 0.300000
-0.092727 0.068018 -0.251182 0.600000 0.000000 0.300000
-0.582591 0.328558 -0.206671 0.300000 0.000000 0.600000
0.448483 -0.233995 0.244304 0.600000 0.000000 0.300000
-0.677995 -0.177456 0.343958 0.600000 0.000000 0.300000
-0.319578 -0.233995 0.239410 0.600000 0.000000 0.300000
0.532470 -0.088497 -0.216311 0.600000 0.000000 0.300000
0.557047 -0.176347 0.571679 0.600000 0.000000 0.300000
0.459166 0.439492 -0.251182 0.600000 0.000000 0.300000
-0.272601 -0.179500 -0.116048 0.600000 0.000000 0.300000
-0.610470 -0.176846 0.629333 0.600000 0.000000 0.300000
-0.636249 -0.234083 0.608449 0.600000 0.000000 0.300000
-0.563564 -0.205836 -0.251144 0.600000 0.000000 0.300000
-0.674959 0.083852 -0.245048 0.600000 0.000000 0.300000
-0.682663 0.413376 -0.214762 0.600000 0.000000 0.300000
-0.315485 -0.219794 -0.180633 0.600000 0.000000 0.300000
-0.222816 0.135823 -0.206762 0.300000 0.000000 0.600000
0.161281 -0.056424 -0.251182 0.600000 0.000000 0.300000
-0.681953 0.316186 -0.213697 0.600000 0.000000 0.300000
0.547104 -0.179042 -0.112384 0.600000 0.000000 0.300000
0.472319 -0.233995 -0.090944 0.600000 0.000000 0.300000
0.508544 0.196015 -0.251182 0.600000 0.000000 0.300000
0.423868 0.551181 -0.196057 0.600000 0.000000 0.300000
0.414804 -0.121235 -0.197639 0.600000 0.000000 0.300000
-0.189397 -0.179313 -0.101040 0.600000 0.000000 0.300000
-0.124879 0.389764 -0.206671 0.300000 0.000000 0.600000
-0.121054 -0.233995 0.537859 0.600000 0.000000 0.300000
0.501686 -0.176015 0.642689 0.600000 0.000000 0.300000
-0.234170 -0.180060 -0.197639 0.600000 0.000000 0.300000
-0.686172 0.593535 -0.237329 0.600000 0.000000 0.300000
0.547521 -0.179262 -0.035502 0.600000 0.000000 0.300000
0.303036 0.091346 -0.207671 0.300000 0.000000 0.600000
0.341060 -0.233994 -0.156693 0.600000 0.000000 0.300000
-0.252820 -0.233995 -0.143288 0.600000 0.000000 0.300000
-0.637445 0.380580 -0.251181 0.600000 0.000000 0.300000
0.477416 -0.233995 0.152871 0.600000 0.000000 0.300000
-0.217554 0.000282 -0.251182 0.600000 0.000000 0.300000
-0.063213 -0.233994 -0.161832 0.600000 0.000000 0.300000
0.149786 -0.233995 0.110325 0.600000 0.000000 0.300000
0.543505 0.078180 -0.251182 0.600000 0.000000 0.300000
0.584118 -0.030933 -0.251182 0.600000 0.000000 0.300000
-0.470132 -0.175958 0.687711 0.600000 0.000000 0.300000
-0.473821 0.568400 -0.227124 0.600000 0.000000 0.300000
0.536379 -0.179974 -0.159002 0.000000 1.000000 0.000000
-0.600356 -0.220479 -0.247433 0.600000 0.000000 0.300000
-0.107569 -0.178796 0.047180 0.600000 0.000000 0.300000
0.177069 0.539219 -0.200979 0.300000 0.000000 0.600000
-0.646906 -0.007849 -0.214626 0.600000 0.000000 0.300000
0.488575 -0.207376 -0.176439 0.600000 0.000000 0.300000
-0.031103 -0.045902 -0.205392 0.300000 0.000000 0.600000
0.072644 -0.176515 0.535686 0.600000 0.000000 0.300000
0.597010 0.139048 -0.194717 0.600000 0.000000 0.300000
0.293754 0.616548 -0.241195 0.600000 0.000000 0.300000
0.374171 -0.108249 -0.251182 0.600000 0.000000 0.300000
0.360919 -0.155090 -0.193687 0.600000 0.000000 0.300000
-0.083055 -0.179358 0.013689 0.600000 0.000000 0.300000
-0.346222 -0.233995 0.047414 0.600000 0.000000 0.300000
0.228476 -0.183322 0.393154 0.000000 0.500000 0.500000
0.623015 0.504476 -0.251384 0.600000 0.000000 0.300000
-0.556807 -0.234050 0.607391 0.600000 0.000000 0.300000
-0.411260 -0.233995 0.408280 0.600000 0.000000 0.300000
-0.117721 -0.233995 0.488801 0.600000 0.000000 0.300000
0.257076 -0.179288 -0.065927 0.600000 0.000000 0.300000
0.323111 0.576887 -0.197753 0.600000 0.000000 0.300000
-0.492471 -0.241841 -0.240517 0.600000 0.000000 0.300000
-0.656765 0.322209 -0.189361 0.600000 0.000000 0.300000
-0.691845 0.247278 -0.238982 0.600000 0.000000 0.300000
0.543599 0.563040 -0.213357 0.600000 0.000000 0.300000
-0.380799 -0.185299 0.216662 0.000000 0.500000 0.500000
-0.149292 -0.185962 0.102344 0.000000 0.500000 0.500000
0.148406 -0.202099 0.703190 0.600000 0.000000 0.300000
-0.304089 -0.177256 0.457071 0.600000 0.000000 0.300000
-0.180447 -0.231858 -0.243950 0.600000 0.000000 0.300000
-0.127029 0.526963 -0.251182 0.600000 0.000000 0.300000
-0.367779 -0.113303 -0.251182 0.600000 0.000000 0.300000
-0.186963 0.455027 -0.251182 0.600000 0.000000 0.300000
0.634110 0.414849 -0.250550 0.600000 0.000000 0.300000
0.141297 -0.233995 -0.053345 0.600000 0.000000 0.300000
-0.564896 0.424257 -0.206671 0.300000 0.000000 0.600000
-0.632439 -0.234011 0.109830 0.600000 0.000000 0.300000
-0.045288 0.393540 -0.251182 0.600000 0.000000 0.300000
-0.594090 -0.233347 0.633597 0.600000 0.000000 0.300000
-0.439374 0.545688 -0.198391 0.300000 0.000000 0.600000
0.415096 -0.233995 -0.123170 0.600000 0.000000 0.300000
-0.185792 0.131876 -0.251182 0.600000 0.000000 0.300000
0.420186 0.339142 -0.251182 0.600000 0.000000 0.300000
-0.456393 0.582914 -0.244583 0.600000 0.000000 0.300000
0.153255 -0.233995 0.535390 0.600000 0.000000 0.300000
0.258899 -0.194989 -0.180860 0.600000 0.000000 0.300000
0.533391 -0.179540 0.219118 0.000000 0.500000 0.500000
0.388364 0.621520 -0.230768 0.600000 0.000000 0.300000
0.482278 -0.088961 -0.216680 0.600000 0.000000 0.300000
0.326292 -0.179157 -0.030444 0.600000 0.000000 0.300000
-0.612401 0.071334 -0.251182 0.600000 0.000000 0.300000
-0.230997 0.275772 -0.206671 0.300000 0.000000 0.600000
-0.293490 -0.178958 0.052482 0.600000 0.000000 0.300000
-0.096707 -0.214345 -0.180769 0.600000 0.000000 0.300000
-0.589484 -0.180278 0.216709 0.000000 0.500000 0.500000
-0.636353 -0.234017 0.569854 0.600000 0.000000 0.300000
0.170160 -0.183595 0.146074 0.000000 0.500000 0.500000
-0.678314 -0.219146 0.664147 0.600000 0.000000 0.300000
0.431722 -0.184095 0.342255 0.000000 0.500000 0.500000
-0.160436 0.318586 -0.206671 0.300000 0.000000 0.600000
-0.196975 -0.179649 0.412093 0.000000 0.500000 0.500000
-0.159182 0.082258 -0.207671 0.300000 0.000000 0.600000
-0.143094 -0.129765 -0.193981 0.600000 0.000000 0.300000
-0.069154 0.274242 -0.251182 0.600000 0.000000 0.300000
0.306795 -0.195548 0.709389 0.600000 0.000000 0.300000
0.019901 0.251831 -0.251182 0.600000 0.000000 0.300000
0.504334 -0.084210 -0.212911 0.600000 0.000000 0.300000
0.034662 0.147341 -0.251182 0.600000 0.000000 0.300000
0.575386 0.492519 -0.251182 0.600000 0.000000 0.300000
-0.334885 -0.180094 -0.157293 0.600000 0.000000 0.300000
-0.517866 -0.175830 0.586710 0.600000 0.000000 0.300000
0.218007 -0.233995 0.343705 0.600000 0.000000 0.300000
-0.040259 -0.233995 0.242837 0.600000 0.000000 0.300000
0.098021 -0.233995 0.098316 0.600000 0.000000 0.300000
0.172790 0.568949 -0.193813 0.600000 0.000000 0.300000
-0.418536 0.084682 -0.206671 0.300000 0.000000 0.600000
0.549926 0.306524 -0.251182 0.600000 0.000000 0.300000
-0.678044 -0.178945 0.015037 0.600000 0.000000 0.300000
0.192721 -0.233995 0.120864 0.600000 0.000000 0.300000
0.042642 0.205356 -0.251182 0.600000 0.000000 0.300000
0.590090 -0.122656 -0.197599 0.600000 0.000000 0.300000
0.278613 0.486706 -0.251182 0.600000 0.000000 0.300000
0.011561 -0.233995 -0.040239 0.600000 0.000000 0.300000
-0.225947 0.095304 -0.207672 0.300000 0.000000 0.600000
-0.397699 -0.210648 0.694114 0.600000 0.000000 0.300000
0.545794 -0.233995 -0.132038 0.600000 0.000000 0.300000
-0.155727 -0.105497 -0.194636 0.600000 0.000000 0.300000
-0.582860 0.382602 -0.251182 0.600000 0.000000 0.300000
-0.605684 0.408675 -0.206724 0.300000 0.000000 0.600000
0.578302 0.360375 -0.251182 0.600000 0.000000 0.300000
0.399260 0.409163 -0.206671 0.300000 0.000000 0.600000
-0.538697 -0.232607 0.641338 0.600000 0.000000 0.300000
0.272807 0.416864 -0.207609 0.300000 0.000000 0.600000
0.487099 0.427081 -0.206671 0.300000 0.000000 0.600000
0.438500 0.240477 -0.251182 0.600000 0.000000 0.300000
-0.577963 0.287545 -0.251182 0.600000 0.000000 0.300000
0.260413 -0.090299 -0.217741 0.600000 0.000000 0.300000
0.359631 0.496798 -0.207672 0.300000 0.000000 0.600000
-0.066179 -0.179077 -0.197639 0.600000 0.000000 0.300000
-0.402262 -0.233995 0.541923 0.600000 0.000000 0.300000
-0.333821 -0.221279 -0.211866 0.600000 0.000000 0.300000
0.291199 -0.185141 -0.179856 0.600000 0.000000 0.300000
0.334262 -0.233995 0.399711 0.600000 0.000000 0.300000
0.076797 -0.233995 0.353071 0.600000 0.000000 0.300000
-0.052332 0.083538 -0.207671 0.300000 0.000000 0.600000
-0.202156 -0.153043 -0.193683 0.600000 0.000000 0.300000
0.352621 -0.233995 0.510564 0.600000 0.000000 0.300000
-0.356545 -0.233995 -0.097227 0.600000 0.000000 0.300000
-0.163189 -0.234039 0.606981 0.600000 0.000000 0.300000
-0.155699 -0.205043 -0.218375 0.600000 0.000000 0.300000
-0.227172 -0.244611 -0.239427 0.600000 0.000000 0.300000
-0.535851 0.015316 -0.206671 0.300000 0.000000 0.600000
-0.094417 0.463645 -0.251182 0.600000 0.000000 0.300000
0.057379 -0.179695 0.411693 0.000000 0.500000 0.500000
0.348101 0.335719 -0.206671 0.300000 0.000000 0.600000
0.458337 -0.099434 -0.251182 0.600000 0.000000 0.300000
-0.502046 0.461493 -0.251182 0.600000 0.000000 0.300000
0.318365 0.599555 -0.225176 0.600000 0.000000 0.300000
0.252813 0.173751 -0.207671 0.300000 0.000000 0.600000
-0.198279 0.074282 -0.251182 0.600000 0.000000 0.300000
-0.299278 -0.182088 0.077846 0.000000 0.500000 0.500000
0.614878 -0.074205 -0.251459 0.600000 0.000000 0.300000
-0.026596 -0.092769 -0.251182 0.600000 0.000000 0.300000
-0.111548 -0.159674 -0.219865 0.600000 0.000000 0.300000
0.092288 0.459293 -0.251182 0.600000 0.000000 0.300000
-0.638595 -0.234009 0.237104 0.600000 0.000000 0.300000
0.123028 -0.176628 0.511420 0.600000 0.000000 0.300000
-0.134311 -0.179982 -0.154408 0.600000 0.000000 0.300000
-0.431042 0.357797 -0.251182 0.600000 0.000000 0.300000
0.632270 0.205932 -0.250835 0.600000 0.000000 0.300000
-0.476525 0.538397 -0.201239 0.300000 0.000000 0.600000
0.293856 -0.233995 0.255429 0.600000 0.000000 0.300000
-0.102854 -0.142979 -0.197639 0.600000 0.000000 0.300000
-0.004835 -0.005499 -0.251182 0.600000 0.000000 0.300000
-0.529964 -0.233995 -0.090779 0.600000 0.000000 0.300000
-0.498103 -0.178655 0.504200 0.000000 0.500000 0.500000
-0.051294 -0.177033 0.485842 0.600000 0.000000 0.300000
0.271365 -0.178779 0.050908 0.600000 0.000000 0.300000
-0.312511 -0.046662 -0.251182 0.600000 0.000000 0.300000
-0.046978 -0.185014 0.145236 0.000000 0.500000 0.500000
0.415526 -0.233995 0.172004 0.600000 0.000000 0.300000
-0.003652 -0.183071 0.323198 0.000000 0.500000 0.500000
-0.035069 -0.089435 -0.195661 0.000000 0.500000 0.500000
0.530001 0.229396 -0.251182 0.600000 0.000000 0.300000
-0.674050 0.247290 -0.201977 0.600000 0.000000 0.300000
0.142209 -0.242209 -0.223438 0.600000 0.000000 0.300000
0.312291 -0.167846 -0.193485 0.600000 0.000000 0.300000
-0.323208 -0.186978 -0.197555 0.600000 0.000000 0.300000
-0.545207 0.186261 -0.251182 0.600000 0.000000 0.300000
-0.426179 -0.233994 -0.157886 0.600000 0.000000 0.300000
0.265973 -0.159111 -0.251182 0.600000 0.000000 0.300000
0.441077 -0.179910 0.070732 0.000000 0.500000 0.500000
-0.370574 -0.177404 0.456807 0.600000 0.000000 0.300000
0.341880 0.216115 -0.207672 0.300000 0.000000 0.600000
0.586750 -0.233995 -0.087679 0.600000 0.000000 0.300000
0.642309 -0.225604 -0.048919 0.600000 0.000000 0.300000
0.403540 -0.179315 -0.160116 0.600000 0.000000 0.300000
-0.129299 -0.233995 0.345512 0.600000 0.000000 0.300000
-0.570741 0.039641 -0.251182 0.600000 0.000000 0.300000
-0.679821 -0.058880 -0.243392 0.600000 0.000000 0.300000
-0.073835 -0.148986 -0.219865 0.600000 0.000000 0.300000
0.541131 -0.042580 -0.251182 0.600000 0.000000 0.300000
-0.611858 -0.216564 -0.201158 0.600000 0.000000 0.300000
-0.505720 0.179570 -0.206671 0.300000 0.000000 0.600000
0.649558 0.037939 -0.230749 0.600000 0.000000 0.300000
0.159765 -0.164002 -0.219865 0.600000 0.000000 0.300000
-0.689936 -0.212691 -0.124521 0.600000 0.000000 0.300000
-0.232318 -0.233995 0.183780 0.600000 0.000000 0.300000
-0.163589 -0.136815 -0.193970 0.600000 0.000000 0.300000
-0.420633 -0.233995 0.385089 0.600000 0.000000 0.300000
0.069531 -0.233995 0.139986 0.600000 0.000000 0.300000
0.636833 -0.228797 0.146252 0.600000 0.000000 0.300000
-0.379737 -0.233995 0.581397 0.600000 0.000000 0.300000
-0.361903 -0.045573 -0.251182 0.600000 0.000000 0.300000
-0.121016 -0.175909 0.711996 0.600000 0.000000 0.300000
0.118326 0.149838 -0.251182 0.600000 0.000000 0.300000
0.415783 -0.202721 -0.218771 0.600000 0.000000 0.300000
0.097132 -0.244248 -0.228936 0.600000 0.000000 0.300000
0.124982 -0.233995 0.447625 0.600000 0.000000 0.300000
0.011470 0.133870 -0.251182 0.600000 0.000000 0.300000
0.276727 -0.233962 0.617902 0.600000 0.000000 0.300000
0.011053 -0.211222 -0.198997 0.600000 0.000000 0.300000
0.444218 -0.179065 0.002398 0.600000 0.000000 0.300000
0.609997 -0.176553 0.527611 0.600000 0.000000 0.300000
-0.047252 -0.183763 0.210719 0.000000 0.500000 0.500000
0.207415 -0.176712 0.604505 0.600000 0.000000 0.300000
-0.047908 -0.184148 0.330760 0.000000 0.500000 0.500000
-0.345815 0.439059 -0.251182 0.600000 0.000000 0.300000
0.600711 -0.179482 0.114321 0.600000 0.000000 0.300000
-0.390438 -0.184885 0.114301 0.000000 0.500000 0.500000
0.327459 -0.233995 0.231723 0.600000 0.000000 0.300000
-0.692040 -0.139775 -0.238067 0.600000 0.000000 0.300000
0.330330 -0.056031 -0.251182 0.600000 0.000000 0.300000
-0.686038 0.183347 -0.219866 0.600000 0.000000 0.300000
0.286465 -0.233995 0.030331 0.600000 0.000000 0.300000
-0.228339 0.589947 -0.230814 0.600000 0.000000 0.300000
-0.462894 0.006116 -0.207276 0.300000 0.000000 0.600000
-0.079912 0.517894 -0.206070 0.300000 0.000000 0.600000
0.331521 -0.226613 0.663983 0.600000 0.000000 0.300000
-0.044716 -0.108578 -0.219865 0.600000 0.000000 0.300000
-0.050298 -0.233995 0.401802 0.600000 0.000000 0.300000
0.420710 -0.233605 0.628905 0.600000 0.000000 0.300000
0.156713 0.588512 -0.198795 0.600000 0.000000 0.300000
-0.385501 -0.233995 0.373103 0.600000 0.000000 0.300000
0.300765 -0.175915 0.697301 0.600000 0.000000 0.300000
0.413950 -0.228208 -0.245096 0.600000 0.000000 0.300000
-0.678724 -0.177199 0.389340 0.600000 0.000000 0.300000
0.575256 0.549447 -0.251136 0.600000 0.000000 0.300000
-0.555633 0.196126 -0.206671 0.300000 0.000000 0.600000
0.049237 -0.179313 -0.112614 0.600000 0.000000 0.300000
0.164300 0.348938 -0.251182 0.600000 0.000000 0.300000
0.299686 -0.233995 0.578275 0.600000 0.000000 0.300000
-0.277901 0.612254 -0.208445 0.600000 0.000000 0.300000
-0.045057 -0.233995 0.112947 0.600000 0.000000 0.300000
-0.656988 0.422786 -0.250488 0.600000 0.000000 0.300000
0.076524 -0.176635 0.510100 0.600000 0.000000 0.300000
0.626416 0.265817 -0.251343 0.600000 0.000000 0.300000
-0.074726 -0.233995 0.370372 0.600000 0.000000 0.300000
-0.606303 0.570131 -0.227830 0.600000 0.000000 0.300000
0.244087 0.482847 -0.207671 0.300000 0.000000 0.600000
-0.300584 -0.187308 0.716399 0.600000 0.000000 0.300000
0.346629 0.307360 -0.206671 0.300000 0.000000 0.600000
-0.244458 -0.233995 0.344202 0.600000 0.000000 0.300000
0.416790 -0.233750 -0.172772 0.600000 0.000000 0.300000
-0.345767 -0.234041 0.606778 0.600000 0.000000 0.300000
-0.266391 -0.219043 -0.213255 0.600000 0.000000 0.300000
0.646592 -0.222353 0.342978 0.600000 0.000000 0.300000
-0.208563 -0.233995 0.317987 0.600000 0.000000 0.300000
-0.587374 0.289616 -0.206671 0.300000 0.000000 0.600000
-0.316030 0.176165 -0.206671 0.300000 0.000000 0.600000
0.035169 -0.233995 0.183007 0.600000 0.000000 0.300000
-0.093341 -0.233995 -0.054144 0.600000 0.000000 0.300000
