-0.276939 0.099240 -0.167966 0.800000 0.200000 0.500000
0.429089 0.267389 0.104938 1.000000 0.000000 0.000000
0.444831 0.376792 0.071315 1.000000 0.000000 0.000000
0.754433 0.246175 0.088028 0.000000 1.000000 0.000000
0.840181 -0.071859 0.097554 1.000000 0.000000 0.000000
0.309929 -0.014889 -0.052872 0.500000 0.000000 0.500000
0.842402 -0.223367 0.080733 1.000000 0.000000 0.000000
0.314331 -0.128979 -0.081330 0.600000 0.000000 0.300000
-0.834478 0.049265 0.088028 0.500000 0.500000 0.000000
-0.203853 0.289102 -0.258471 0.000000 0.000000 1.000000
-0.610544 0.488826 0.115423 1.000000 0.000000 0.000000
0.445515 -0.303402 0.097047 1.000000 0.000000 0.000000
-0.737219 0.346874 0.088028 0.500000 0.500000 0.000000
0.172412 0.411128 -0.288243 1.000000 0.000000 0.000000
0.428337 0.194671 0.098422 1.000000 0.000000 0.000000
-0.714453 0.168855 0.088028 0.500000 0.500000 0.000000
0.253223 0.331620 -0.187173 0.600000 0.000000 0.300000
0.236299 0.452063 -0.229951 1.000000 0.000000 0.000000
0.749567 -0.136679 0.088028 0.000000 1.000000 0.000000
0.269778 -0.164131 -0.158500 0.600000 0.000000 0.300000
-0.444135 0.111115 0.064964 1.000000 0.000000 0.000000
-0.869802 -0.426756 0.056777 1.000000 0.000000 0.000000
0.858241 -0.416700 0.075669 1.000000 0.000000 0.000000
-0.457568 0.013310 0.071025 1.000000 0.000000 0.000000
0.570893 0.368495 0.088028 0.000000 1.000000 0.000000
0.370665 -0.336391 0.036357 1.000000 0.000000 0.000000
0.287270 -0.387018 -0.128202 0.600000 0.000000 0.300000
0.001258 0.461764 0.083861 1.000000 0.000000 0.000000
-0.468620 -0.481231 0.080727 1.000000 0.000000 0.000000
-0.785072 0.481012 0.076659 1.000000 0.000000 0.000000
0.302098 0.134552 -0.102519 0.600000 0.000000 0.300000
-0.451313 -0.046025 0.056586 0.300000 0.600000 0.000000
0.564774 0.063496 0.088028 0.000000 1.000000 0.000000
-0.585283 0.393430 0.088028 0.500000 0.500000 0.000000
0.194563 -0.295532 -0.250834 1.000000 0.000000 0.000000
-0.440756 -0.226998 0.090230 1.000000 0.000000 0.000000
-0.873430 -0.025435 0.112358 0.300000 0.600000 0.000000
-0.643073 0.290382 0.088028 0.500000 0.500000 0.000000
0.845348 -0.413216 0.118332 1.000000 0.000000 0.000000
-0.352038 -0.041968 0.028208 0.600000 0.000000 0.300000
0.373006 -0.356822 0.035005 1.000000 0.000000 0.000000
0.241252 -0.040738 -0.300769 0.000000 0.500000 0.500000
0.590887 -0.024150 0.062377 0.000000 0.500000 0.500000
0.371294 -0.034419 0.045506 1.000000 0.000000 0.000000
0.754552 0.080255 0.088028 0.000000 1.000000 0.000000
0.726279 -0.237624 0.088028 0.000000 1.000000 0.000000
-0.436632 0.500322 0.104382 1.000000 0.000000 0.000000
-0.569708 -0.042224 0.099891 0.300000 0.600000 0.000000
0.428463 0.098235 0.072710 1.000000 0.000000 0.000000
-0.380932 0.251767 0.012156 0.800000 0.200000 0.500000
0.288163 -0.208569 -0.126655 0.600000 0.000000 0.300000
0.255396 0.018393 -0.183410 0.600000 0.000000 0.300000
-0.267287 -0.010304 -0.148602 0.600000 0.000000 0.300000
0.305773 -0.397022 -0.096153 0.600000 0.000000 0.300000
0.840851 0.231741 0.072155 1.000000 0.000000 0.000000
-0.241855 0.327291 -0.228734 0.800000 0.200000 0.500000
-0.519229 0.114036 0.088028 0.500000 0.500000 0.000000
0.300513 -0.494402 -0.089354 1.000000 0.000000 0.000000
-0.429246 0.003862 0.108426 1.000000 0.000000 0.000000
-0.288912 -0.436753 -0.147229 0.800000 0.200000 0.500000
-0.220106 -0.013573 -0.128087 0.600000 0.000000 0.300000
0.858223 -0.422995 0.094259 1.000000 0.000000 0.000000
0.804173 -0.394811 0.088028 0.000000 1.000000 0.000000
0.234318 -0.477100 -0.199072 1.000000 0.000000 0.000000
-0.621504 0.480772 0.062192 1.000000 0.000000 0.000000
0.505686 -0.038923 0.056974 0.000000 0.500000 0.500000
0.444501 -0.008092 0.101192 1.000000 0.000000 0.000000
-0.823995 0.023300 0.088028 0.500000 0.500000 0.000000
-0.518047 0.306908 0.088028 0.500000 0.500000 0.000000
-0.567411 0.481012 0.098425 1.000000 0.000000 0.000000
0.428867 0.330366 0.069434 1.000000 0.000000 0.000000
0.617619 0.422634 0.088028 0.000000 1.000000 0.000000
0.323961 -0.041968 0.029205 0.500000 0.000000 0.500000
-0.314112 -0.041968 -0.037803 0.600000 0.000000 0.300000
-0.687462 -0.304414 0.088028 0.500000 0.500000 0.000000
-0.189662 -0.251438 -0.283052 0.000000 0.000000 1.000000
-0.474063 -0.332269 0.088028 0.500000 0.500000 0.000000
0.612707 -0.497680 0.101148 1.000000 0.000000 0.000000
-0.592825 0.152888 0.088028 0.500000 0.500000 0.000000
0.449952 -0.282602 0.088028 0.000000 1.000000 0.000000
-0.278640 -0.456292 -0.128936 0.000000 0.000000 1.000000
0.565546 0.085537 0.088028 0.000000 1.000000 0.000000
-0.585556 0.497824 0.084960 1.000000 0.000000 0.000000
-0.366247 -0.116004 -0.013281 0.800000 0.200000 0.500000
-0.351666 -0.011057 -0.002452 0.600000 0.000000 0.300000
0.047201 0.480832 0.058520 1.000000 0.000000 0.000000
0.235528 0.475230 0.064055 1.000000 0.000000 0.000000
-0.855002 -0.076187 0.070383 1.000000 0.000000 0.000000
0.623978 -0.288345 0.088028 0.000000 1.000000 0.000000
-0.391043 -0.041443 0.031883 0.000000 0.000000 1.000000
-0.468039 0.480539 0.080321 1.000000 0.000000 0.000000
0.399213 0.239219 0.052112 1.000000 0.000000 0.000000
-0.368040 0.421488 0.025908 0.000000 0.000000 1.000000
-0.176564 0.012157 -0.237170 0.600000 0.000000 0.300000
-0.457604 -0.134339 0.065877 1.000000 0.000000 0.000000
-0.411637 0.078484 0.053310 0.000000 0.000000 1.000000
0.427424 0.141049 0.118154 1.000000 0.000000 0.000000
-0.275669 0.500119 0.090165 1.000000 0.000000 0.000000
0.343611 -0.041968 0.053735 0.500000 0.000000 0.500000
0.860456 0.055400 0.078713 1.000000 0.000000 0.000000
0.203519 0.458435 -0.286908 1.000000 0.000000 0.000000
0.616228 0.156231 0.088028 0.000000 1.000000 0.000000
0.444501 0.032773 0.071183 1.000000 0.000000 0.000000
0.245869 0.102882 -0.199912 0.600000 0.000000 0.300000
0.860132 0.362175 0.077534 1.000000 0.000000 0.000000
0.598569 0.426656 0.088028 0.000000 1.000000 0.000000
-0.320544 -0.034516 0.015808 0.600000 0.000000 0.300000
0.411072 -0.282153 0.105673 1.000000 0.000000 0.000000
-0.490779 -0.498330 0.057543 1.000000 0.000000 0.000000
-0.854021 0.349354 0.076363 1.000000 0.000000 0.000000
0.791555 0.006973 0.088028 0.000000 1.000000 0.000000
0.212690 -0.265991 -0.266529 1.000000 0.000000 0.000000
0.279379 -0.220386 -0.141869 0.600000 0.000000 0.300000
-0.841539 0.430298 0.088028 0.500000 0.500000 0.000000
0.215008 -0.389121 -0.266444 1.000000 0.000000 0.000000
0.289367 -0.014985 0.001719 0.500000 0.000000 0.500000
0.687948 0.177829 0.088028 0.000000 1.000000 0.000000
-0.384692 -0.328631 0.054749 0.000000 0.000000 1.000000
0.785842 -0.184864 0.088028 0.000000 1.000000 0.000000
0.233995 -0.034132 -0.184395 0.500000 0.000000 0.500000
-0.873747 -0.373220 0.103140 1.000000 0.000000 0.000000
0.860723 0.450205 0.115143 1.000000 0.000000 0.000000
0.269695 -0.011195 -0.122560 0.500000 0.000000 0.500000
-0.722245 0.500200 0.100836 1.000000 0.000000 0.000000
-0.600281 -0.195479 0.088028 0.500000 0.500000 0.000000
-0.641862 -0.400957 0.088028 0.500000 0.500000 0.000000
-0.290187 0.006143 -0.013795 0.600000 0.000000 0.300000
-0.389214 0.210201 0.062581 0.000000 0.000000 1.000000
-0.312891 -0.155046 -0.105696 0.800000 0.200000 0.500000
-0.351021 0.039176 -0.039652 0.800000 0.200000 0.500000
-0.481876 -0.500467 0.086757 1.000000 0.000000 0.000000
-0.557897 -0.215215 0.088028 0.500000 0.500000 0.000000
-0.326382 -0.409099 -0.082329 0.800000 0.200000 0.500000
0.321027 -0.458847 -0.082613 1.000000 0.000000 0.000000
0.216447 -0.304952 -0.250872 0.600000 0.000000 0.300000
-0.855002 -0.183897 0.078239 1.000000 0.000000 0.000000
0.444345 0.246145 0.117812 1.000000 0.000000 0.000000
-0.728530 0.117630 0.088028 0.500000 0.500000 0.000000
0.588079 0.338410 0.088028 0.000000 1.000000 0.000000
-0.702008 0.000365 0.088028 0.500000 0.500000 0.000000
0.485610 0.497826 0.082216 1.000000 0.000000 0.000000
0.329428 0.006143 0.035688 0.500000 0.000000 0.500000
0.629776 -0.367165 0.088028 0.000000 1.000000 0.000000
-0.585837 -0.481233 0.080781 1.000000 0.000000 0.000000
-0.588330 0.481263 0.073206 1.000000 0.000000 0.000000
-0.693256 -0.042712 0.101533 0.300000 0.600000 0.000000
-0.340043 -0.397893 -0.058667 0.800000 0.200000 0.500000
-0.310050 0.379085 -0.110616 0.800000 0.200000 0.500000
-0.319737 -0.005140 0.044478 0.600000 0.000000 0.300000
-0.438241 -0.498313 0.110126 1.000000 0.000000 0.000000
-0.457568 0.189667 0.079652 1.000000 0.000000 0.000000
-0.380396 0.481375 0.057904 1.000000 0.000000 0.000000
0.434323 -0.144508 0.113281 1.000000 0.000000 0.000000
0.554931 -0.045280 0.088028 0.000000 1.000000 0.000000
0.841250 0.413941 0.117170 1.000000 0.000000 0.000000
-0.854514 -0.193738 0.102537 1.000000 0.000000 0.000000
0.794906 0.346406 0.088028 0.000000 1.000000 0.000000
-0.563711 0.269063 0.088028 0.500000 0.500000 0.000000
-0.383443 0.263482 0.036270 0.000000 0.000000 1.000000
-0.738203 -0.008858 0.088028 0.500000 0.500000 0.000000
-0.854514 -0.220142 0.109192 1.000000 0.000000 0.000000
-0.391640 -0.009972 0.066784 0.000000 0.000000 1.000000
-0.399189 0.196340 0.031749 0.000000 0.000000 1.000000
-0.854478 -0.007949 0.105416 1.000000 0.000000 0.000000
0.786059 0.481012 0.103436 1.000000 0.000000 0.000000
0.362877 0.005487 0.054743 0.500000 0.000000 0.500000
0.222527 -0.127101 -0.240341 0.600000 0.000000 0.300000
0.181990 -0.251334 -0.277288 1.000000 0.000000 0.000000
-0.592617 0.302970 0.088028 0.500000 0.500000 0.000000
-0.562950 -0.497136 0.071366 1.000000 0.000000 0.000000
-0.872082 0.102026 0.117777 1.000000 0.000000 0.000000
0.603878 0.291213 0.088028 0.000000 1.000000 0.000000
0.575787 0.224121 0.088028 0.000000 1.000000 0.000000
-0.401168 -0.080090 0.081590 0.000000 0.000000 1.000000
-0.222099 0.435188 -0.226869 0.000000 0.000000 1.000000
0.444444 0.314592 0.117854 1.000000 0.000000 0.000000
0.761524 0.480769 0.071358 1.000000 0.000000 0.000000
0.278774 0.168151 -0.142918 0.600000 0.000000 0.300000
-0.554037 0.429963 0.088028 0.500000 0.500000 0.000000
-0.345505 0.312640 -0.049206 0.800000 0.200000 0.500000
0.748604 -0.486453 0.111870 1.000000 0.000000 0.000000
0.804562 -0.482426 0.086829 1.000000 0.000000 0.000000
0.230740 -0.282579 -0.226116 0.600000 0.000000 0.300000
0.830443 -0.024313 0.117247 0.000000 0.500000 0.500000
0.449220 0.500189 0.110881 1.000000 0.000000 0.000000
-0.329834 0.254358 -0.076350 0.800000 0.200000 0.500000
0.317481 0.205317 -0.075874 0.600000 0.000000 0.300000
-0.808034 -0.042224 0.088004 0.300000 0.600000 0.000000
-0.856519 -0.159029 0.057267 1.000000 0.000000 0.000000
0.662517 -0.074149 0.088028 0.000000 1.000000 0.000000
-0.600974 -0.063534 0.088028 0.500000 0.500000 0.000000
0.557903 0.500047 0.075299 1.000000 0.000000 0.000000
-0.224812 0.178297 -0.270280 0.000000 0.000000 1.000000
0.842685 -0.500464 0.105343 1.000000 0.000000 0.000000
-0.243184 -0.442670 -0.226432 0.800000 0.200000 0.500000
0.291916 -0.025805 -0.084072 0.500000 0.000000 0.500000
0.406165 -0.452026 0.062644 1.000000 0.000000 0.000000
0.860567 -0.035826 0.109708 1.000000 0.000000 0.000000
0.664280 -0.274240 0.088028 0.000000 1.000000 0.000000
0.428326 -0.276106 0.100082 1.000000 0.000000 0.000000
0.321403 -0.191916 -0.069082 0.600000 0.000000 0.300000
0.686060 -0.041187 0.079981 0.000000 0.500000 0.500000
0.827163 0.260827 0.088028 0.000000 1.000000 0.000000
-0.288719 0.184320 -0.147562 0.800000 0.200000 0.500000
-0.301491 -0.450906 -0.102969 0.000000 0.000000 1.000000
-0.289579 0.262329 -0.146073 0.800000 0.200000 0.500000
0.309416 -0.052308 -0.089844 0.600000 0.000000 0.300000
-0.281699 -0.137486 -0.159723 0.800000 0.200000 0.500000
0.230576 0.419632 -0.235767 1.000000 0.000000 0.000000
0.432026 0.060584 0.056791 1.000000 0.000000 0.000000
-0.231258 0.380899 -0.247088 0.800000 0.200000 0.500000
0.407195 0.118023 0.094354 1.000000 0.000000 0.000000
-0.413861 -0.045135 0.074262 0.000000 0.000000 1.000000
0.419274 0.014060 0.111811 1.000000 0.000000 0.000000
-0.228035 -0.395745 -0.252672 0.800000 0.200000 0.500000
0.444415 0.089335 0.117846 1.000000 0.000000 0.000000
0.558127 0.481343 0.101113 1.000000 0.000000 0.000000
0.455038 -0.040537 0.099303 0.000000 0.500000 0.500000
0.226935 -0.080970 -0.232705 0.600000 0.000000 0.300000
-0.779408 0.492920 0.056545 1.000000 0.000000 0.000000
-0.469750 0.497113 0.057133 1.000000 0.000000 0.000000
0.319112 -0.322448 -0.073050 0.600000 0.000000 0.300000
0.655952 -0.344395 0.088028 0.000000 1.000000 0.000000
-0.246944 -0.450906 -0.189327 0.000000 0.000000 1.000000
0.369750 0.306707 0.036885 1.000000 0.000000 0.000000
-0.421197 -0.088538 0.081593 1.000000 0.000000 0.000000
-0.407993 0.009995 0.046999 0.000000 0.000000 1.000000
0.182327 0.285764 -0.285441 1.000000 0.000000 0.000000
0.619645 0.183391 0.088028 0.000000 1.000000 0.000000
-0.854594 0.191155 0.060506 1.000000 0.000000 0.000000
-0.549502 0.008307 0.088028 0.500000 0.500000 0.000000
0.667924 0.162879 0.088028 0.000000 1.000000 0.000000
-0.224916 -0.088431 -0.258073 0.800000 0.200000 0.500000
-0.772404 -0.024706 0.078834 0.300000 0.600000 0.000000
-0.331647 0.046155 -0.073210 0.800000 0.200000 0.500000
0.266592 -0.126484 -0.164018 0.600000 0.000000 0.300000
-0.427290 0.193846 0.069958 1.000000 0.000000 0.000000
-0.440937 -0.388559 0.098211 1.000000 0.000000 0.000000
-0.689587 0.497979 0.117585 1.000000 0.000000 0.000000
0.278323 -0.059241 -0.143698 0.600000 0.000000 0.300000
-0.458092 -0.078960 0.110419 1.000000 0.000000 0.000000
-0.457568 0.351446 0.100607 1.000000 0.000000 0.000000
-0.271427 0.486388 0.056777 1.000000 0.000000 0.000000
-0.867202 -0.440385 0.118497 1.000000 0.000000 0.000000
0.627283 0.274929 0.088028 0.000000 1.000000 0.000000
-0.420395 -0.369532 0.090774 1.000000 0.000000 0.000000
0.214413 0.060723 -0.263980 1.000000 0.000000 0.000000
0.444482 0.279020 0.097915 1.000000 0.000000 0.000000
0.171385 0.187731 -0.290536 1.000000 0.000000 0.000000
-0.386467 0.294996 0.057824 0.000000 0.000000 1.000000
0.288447 0.417071 -0.090085 1.000000 0.000000 0.000000
0.174713 -0.442767 -0.296356 1.000000 0.000000 0.000000
-0.420435 -0.117073 0.089091 1.000000 0.000000 0.000000
-0.457604 -0.169286 0.077512 1.000000 0.000000 0.000000
-0.457988 0.049742 0.058905 1.000000 0.000000 0.000000
-0.532866 -0.113673 0.088028 0.500000 0.500000 0.000000
-0.743502 -0.481011 0.103497 1.000000 0.000000 0.000000
0.371336 0.347146 0.045528 1.000000 0.000000 0.000000
-0.531646 0.327983 0.088028 0.500000 0.500000 0.000000
0.716633 -0.024146 0.097205 0.000000 0.500000 0.500000
0.366857 -0.176654 0.009648 0.600000 0.000000 0.300000
-0.716536 -0.123923 0.088028 0.500000 0.500000 0.000000
-0.589721 -0.091678 0.088028 0.500000 0.500000 0.000000
0.192317 0.216434 -0.257422 1.000000 0.000000 0.000000
0.691004 0.480875 0.094442 1.000000 0.000000 0.000000
0.373788 0.081209 0.060622 1.000000 0.000000 0.000000
-0.395758 -0.459556 0.073916 0.000000 0.000000 1.000000
-0.224725 0.290385 -0.270431 0.000000 0.000000 1.000000
-0.285204 -0.370352 -0.153652 0.800000 0.200000 0.500000
-0.260321 -0.490054 -0.160666 0.000000 0.000000 1.000000
-0.854478 0.404846 0.078995 1.000000 0.000000 0.000000
0.507052 0.424915 0.088028 0.000000 1.000000 0.000000
0.291678 -0.472132 -0.129969 1.000000 0.000000 0.000000
-0.768004 -0.481038 0.107032 1.000000 0.000000 0.000000
0.444501 0.403700 0.097059 1.000000 0.000000 0.000000
-0.521515 -0.498430 0.080971 1.000000 0.000000 0.000000
-0.493775 -0.042368 0.058259 0.300000 0.600000 0.000000
-0.443688 0.365392 0.109299 1.000000 0.000000 0.000000
0.290347 0.127553 -0.122872 0.600000 0.000000 0.300000
-0.286276 -0.041968 -0.103910 0.600000 0.000000 0.300000
-0.215135 -0.023606 -0.238931 0.600000 0.000000 0.300000
-0.790936 0.351805 0.088028 0.500000 0.500000 0.000000
0.612020 -0.024146 0.101601 0.000000 0.500000 0.500000
-0.175585 0.500053 0.065839 1.000000 0.000000 0.000000
-0.873747 -0.272716 0.103495 1.000000 0.000000 0.000000
0.303231 0.416463 -0.112785 1.000000 0.000000 0.000000
-0.384389 0.322978 0.035724 0.000000 0.000000 1.000000
-0.854478 0.027479 0.070624 1.000000 0.000000 0.000000
-0.854391 0.145095 0.104114 1.000000 0.000000 0.000000
-0.299968 -0.035409 -0.019830 0.600000 0.000000 0.300000
-0.766299 -0.500467 0.086668 1.000000 0.000000 0.000000
-0.788087 -0.481231 0.082542 1.000000 0.000000 0.000000
0.806277 -0.024706 0.099511 0.000000 0.500000 0.500000
0.374621 0.335775 0.023095 0.600000 0.000000 0.300000
-0.422625 -0.195601 0.074021 1.000000 0.000000 0.000000
0.280086 0.444215 -0.113953 1.000000 0.000000 0.000000
-0.678538 -0.042712 0.074475 0.300000 0.600000 0.000000
-0.493605 -0.418579 0.088028 0.500000 0.500000 0.000000
-0.695464 0.280668 0.088028 0.500000 0.500000 0.000000
0.428770 0.061247 0.101932 1.000000 0.000000 0.000000
0.295279 0.016088 -0.114329 0.600000 0.000000 0.300000
-0.377761 0.485805 0.118809 1.000000 0.000000 0.000000
0.333996 -0.429173 -0.047271 0.600000 0.000000 0.300000
0.278370 -0.002782 -0.035368 0.500000 0.000000 0.500000
-0.368120 0.090646 -0.010036 0.800000 0.200000 0.500000
-0.188464 -0.068427 -0.295583 0.000000 0.000000 1.000000
-0.284246 0.006143 -0.087772 0.600000 0.000000 0.300000
-0.531144 -0.478949 0.088028 0.500000 0.500000 0.000000
0.855922 0.278714 0.111523 1.000000 0.000000 0.000000
-0.545735 -0.498572 0.096419 1.000000 0.000000 0.000000
-0.184752 0.036927 -0.293440 0.000000 0.000000 1.000000
0.402494 -0.132998 0.073534 1.000000 0.000000 0.000000
0.364950 0.496527 0.106671 1.000000 0.000000 0.000000
-0.323254 0.482014 0.093671 1.000000 0.000000 0.000000
-0.359703 -0.024901 0.063865 0.600000 0.000000 0.300000
0.444501 0.156707 0.068434 1.000000 0.000000 0.000000
-0.448871 0.010786 0.118784 1.000000 0.000000 0.000000
0.787545 -0.246131 0.088028 0.000000 1.000000 0.000000
-0.736781 0.456742 0.088028 0.500000 0.500000 0.000000
-0.440691 0.469635 0.075168 1.000000 0.000000 0.000000
-0.198901 -0.319434 -0.267048 0.000000 0.000000 1.000000
-0.515626 0.149511 0.088028 0.500000 0.500000 0.000000
-0.458128 0.257868 0.100465 1.000000 0.000000 0.000000
-0.351627 -0.160161 -0.038603 0.800000 0.200000 0.500000
0.317093 -0.498198 -0.040621 1.000000 0.000000 0.000000
0.840851 0.112060 0.098256 1.000000 0.000000 0.000000
0.182149 -0.177880 -0.300876 1.000000 0.000000 0.000000
-0.425640 -0.449166 0.071165 1.000000 0.000000 0.000000
-0.260656 0.295054 -0.196170 0.800000 0.200000 0.500000
0.383641 0.098711 0.043478 1.000000 0.000000 0.000000
0.195440 0.061116 -0.250623 1.000000 0.000000 0.000000
0.416960 0.383425 0.066218 1.000000 0.000000 0.000000
-0.854567 -0.370620 0.059635 1.000000 0.000000 0.000000
-0.254064 0.337073 -0.207588 0.800000 0.200000 0.500000
-0.597951 0.461982 0.088028 0.500000 0.500000 0.000000
-0.345630 -0.238687 -0.048990 0.800000 0.200000 0.500000
-0.436678 -0.225381 0.061455 1.000000 0.000000 0.000000
-0.357452 -0.023624 -0.028513 0.800000 0.200000 0.500000
-0.712870 -0.042224 0.078885 0.300000 0.600000 0.000000
0.813244 0.014758 0.088028 0.000000 1.000000 0.000000
0.790376 -0.498409 0.057696 1.000000 0.000000 0.000000
-0.565739 -0.024416 0.117521 0.300000 0.600000 0.000000
0.345268 0.415081 -0.020184 1.000000 0.000000 0.000000
-0.786458 0.292897 0.088028 0.500000 0.500000 0.000000
0.654933 0.499724 0.079854 1.000000 0.000000 0.000000
0.516745 0.345668 0.088028 0.000000 1.000000 0.000000
-0.496856 0.497825 0.084265 1.000000 0.000000 0.000000
0.251800 -0.160080 -0.189638 0.600000 0.000000 0.300000
-0.854478 0.123124 0.068612 1.000000 0.000000 0.000000
-0.478380 -0.175930 0.088028 0.500000 0.500000 0.000000
-0.475931 0.103011 0.088028 0.500000 0.500000 0.000000
-0.188248 -0.293529 -0.285501 0.000000 0.000000 1.000000
0.706154 -0.285703 0.088028 0.000000 1.000000 0.000000
-0.481966 0.004622 0.088028 0.500000 0.500000 0.000000
0.239301 -0.191574 -0.211288 0.600000 0.000000 0.300000
-0.522871 -0.244411 0.088028 0.500000 0.500000 0.000000
0.532588 0.494644 0.056763 1.000000 0.000000 0.000000
0.648441 -0.024249 0.116630 0.000000 0.500000 0.500000
0.818373 -0.482705 0.117895 1.000000 0.000000 0.000000
0.172472 0.322293 -0.294791 1.000000 0.000000 0.000000
-0.258443 0.483085 0.070604 1.000000 0.000000 0.000000
-0.831771 -0.103393 0.088028 0.500000 0.500000 0.000000
0.860257 0.311340 0.073907 1.000000 0.000000 0.000000
0.121756 0.464773 0.106365 1.000000 0.000000 0.000000
0.655677 0.470079 0.088028 0.000000 1.000000 0.000000
-0.798585 -0.305791 0.088028 0.500000 0.500000 0.000000
-0.871780 -0.148877 0.092712 1.000000 0.000000 0.000000
0.841411 0.316055 0.078048 1.000000 0.000000 0.000000
0.480885 -0.215866 0.088028 0.000000 1.000000 0.000000
-0.745652 0.430906 0.088028 0.500000 0.500000 0.000000
0.228447 0.004371 -0.194004 0.500000 0.000000 0.500000
0.305928 -0.156154 -0.095886 0.600000 0.000000 0.300000
-0.440934 0.301318 0.076376 1.000000 0.000000 0.000000
0.387019 -0.038138 0.081836 1.000000 0.000000 0.000000
-0.315551 -0.436822 -0.101088 0.800000 0.200000 0.500000
-0.535764 0.288712 0.088028 0.500000 0.500000 0.000000
-0.241344 -0.035973 -0.193537 0.600000 0.000000 0.300000
0.287942 0.006143 -0.075007 0.500000 0.000000 0.500000
-0.203921 -0.390731 -0.304507 0.000000 0.000000 1.000000
-0.696346 0.437682 0.088028 0.500000 0.500000 0.000000
-0.801533 -0.480745 0.118068 1.000000 0.000000 0.000000
0.428313 0.146483 0.098229 1.000000 0.000000 0.000000
0.445253 -0.334669 0.075436 1.000000 0.000000 0.000000
0.394759 -0.226281 0.078000 1.000000 0.000000 0.000000
0.496348 0.335222 0.088028 0.000000 1.000000 0.000000
-0.457604 -0.363840 0.098732 1.000000 0.000000 0.000000
0.804653 -0.259015 0.088028 0.000000 1.000000 0.000000
-0.273493 -0.080143 -0.173935 0.800000 0.200000 0.500000
0.776818 0.103073 0.088028 0.000000 1.000000 0.000000
-0.270733 0.175439 -0.178715 0.800000 0.200000 0.500000
0.760043 -0.195099 0.088028 0.000000 1.000000 0.000000
0.238595 0.132950 -0.212510 0.600000 0.000000 0.300000
0.237627 0.067503 -0.214186 0.600000 0.000000 0.300000
-0.714430 -0.024146 0.100539 0.300000 0.600000 0.000000
-0.173697 -0.021106 -0.238539 0.600000 0.000000 0.300000
0.696220 0.427394 0.088028 0.000000 1.000000 0.000000
-0.435971 -0.479781 0.112527 1.000000 0.000000 0.000000
0.860735 -0.232511 0.069715 1.000000 0.000000 0.000000
0.729835 -0.335926 0.088028 0.000000 1.000000 0.000000
0.250115 -0.077785 -0.192557 0.600000 0.000000 0.300000
0.181314 -0.047981 -0.227574 0.500000 0.000000 0.500000
0.621264 0.480872 0.099477 1.000000 0.000000 0.000000
-0.442951 0.247844 0.118263 1.000000 0.000000 0.000000
0.634278 -0.196438 0.088028 0.000000 1.000000 0.000000
-0.551328 -0.158264 0.088028 0.500000 0.500000 0.000000
0.840166 -0.020437 0.058324 1.000000 0.000000 0.000000
-0.718362 0.409639 0.088028 0.500000 0.500000 0.000000
0.427460 0.300165 0.085140 1.000000 0.000000 0.000000
0.315165 -0.210890 -0.079885 0.600000 0.000000 0.300000
0.846891 0.303581 0.118359 1.000000 0.000000 0.000000
0.387285 0.417220 0.082054 1.000000 0.000000 0.000000
-0.253474 -0.499016 -0.209412 0.000000 0.000000 1.000000
-0.379617 -0.078903 0.045960 0.000000 0.000000 1.000000
0.370473 -0.333096 0.015911 0.600000 0.000000 0.300000
-0.211472 0.006143 -0.204781 0.600000 0.000000 0.300000
-0.458128 0.129221 0.106288 1.000000 0.000000 0.000000
0.083576 0.486445 0.111418 1.000000 0.000000 0.000000
0.404128 0.425937 0.059305 1.000000 0.000000 0.000000
0.692589 -0.172963 0.088028 0.000000 1.000000 0.000000
-0.452621 -0.435397 0.056738 1.000000 0.000000 0.000000
-0.267733 0.463191 -0.159400 0.000000 0.000000 1.000000
0.841287 0.175696 0.059245 1.000000 0.000000 0.000000
-0.301821 -0.378314 -0.124870 0.800000 0.200000 0.500000
0.539522 0.499774 0.098199 1.000000 0.000000 0.000000
0.372565 -0.443875 0.019534 0.600000 0.000000 0.300000
0.222779 -0.470704 -0.244383 1.000000 0.000000 0.000000
0.441646 -0.480799 0.064236 1.000000 0.000000 0.000000
-0.871519 0.131157 0.095457 1.000000 0.000000 0.000000
-0.260812 -0.311067 -0.195899 0.800000 0.200000 0.500000
0.429035 0.109822 0.104085 1.000000 0.000000 0.000000
0.390110 -0.035196 0.036104 1.000000 0.000000 0.000000
-0.458128 0.429302 0.079596 1.000000 0.000000 0.000000
-0.352210 0.242060 -0.037593 0.800000 0.200000 0.500000
-0.378800 -0.034352 0.044544 0.600000 0.000000 0.300000
0.294824 0.461779 0.093206 1.000000 0.000000 0.000000
0.842065 -0.106403 0.078356 1.000000 0.000000 0.000000
-0.547739 0.497826 0.092165 1.000000 0.000000 0.000000
0.307237 -0.273285 -0.093618 0.600000 0.000000 0.300000
0.406672 0.088080 0.078819 1.000000 0.000000 0.000000
0.812919 -0.117178 0.088028 0.000000 1.000000 0.000000
-0.457568 0.056898 0.094549 1.000000 0.000000 0.000000
0.801671 0.379292 0.088028 0.000000 1.000000 0.000000
-0.770864 -0.042712 0.104352 0.300000 0.600000 0.000000
0.771220 -0.038912 0.118165 0.000000 0.500000 0.500000
0.654812 0.180069 0.088028 0.000000 1.000000 0.000000
0.498928 -0.202658 0.088028 0.000000 1.000000 0.000000
0.397967 -0.185910 0.076148 1.000000 0.000000 0.000000
-0.441719 0.445845 0.070157 1.000000 0.000000 0.000000
0.325492 0.037284 -0.062000 0.600000 0.000000 0.300000
0.589996 0.143563 0.088028 0.000000 1.000000 0.000000
0.763055 -0.024706 0.068999 0.000000 0.500000 0.500000
0.556487 0.185560 0.088028 0.000000 1.000000 0.000000
0.597127 -0.006036 0.088028 0.000000 1.000000 0.000000
0.211508 0.229004 -0.259426 0.600000 0.000000 0.300000
0.189649 -0.063060 -0.304885 1.000000 0.000000 0.000000
0.400623 0.291684 0.074614 1.000000 0.000000 0.000000
0.361308 0.125494 0.000036 0.600000 0.000000 0.300000
-0.240287 0.031969 -0.231450 0.800000 0.200000 0.500000
0.493511 0.220738 0.088028 0.000000 1.000000 0.000000
-0.814506 0.427404 0.088028 0.500000 0.500000 0.000000
-0.871518 0.097786 0.081883 1.000000 0.000000 0.000000
-0.404857 -0.416845 0.079460 0.000000 0.000000 1.000000
-0.707833 0.200984 0.088028 0.500000 0.500000 0.000000
0.284192 -0.105699 -0.133534 0.600000 0.000000 0.300000
0.444169 0.332202 0.117455 1.000000 0.000000 0.000000
0.841411 0.445655 0.097246 1.000000 0.000000 0.000000
0.254816 -0.110292 -0.184414 0.600000 0.000000 0.300000
-0.291656 0.495369 0.066226 1.000000 0.000000 0.000000
-0.267785 0.319485 -0.183822 0.800000 0.200000 0.500000
-0.432956 0.039022 0.110626 1.000000 0.000000 0.000000
0.195056 0.003185 -0.300726 1.000000 0.000000 0.000000
-0.446389 -0.376874 0.119127 1.000000 0.000000 0.000000
-0.254275 -0.478160 -0.171138 0.000000 0.000000 1.000000
-0.379785 0.275789 0.010168 0.800000 0.200000 0.500000
-0.664381 -0.146240 0.088028 0.500000 0.500000 0.000000
0.358797 -0.498267 0.031205 1.000000 0.000000 0.000000
0.209058 0.290970 -0.259210 1.000000 0.000000 0.000000
-0.195925 0.326167 -0.299891 0.000000 0.000000 1.000000
-0.214019 -0.267933 -0.254784 0.000000 0.000000 1.000000
-0.356298 0.499943 0.083975 1.000000 0.000000 0.000000
-0.216589 0.498990 0.116655 1.000000 0.000000 0.000000
0.423925 -0.282842 0.061583 1.000000 0.000000 0.000000
0.364423 0.151070 0.044163 1.000000 0.000000 0.000000
0.237787 -0.343695 -0.213910 0.600000 0.000000 0.300000
-0.524707 0.130310 0.088028 0.500000 0.500000 0.000000
0.840851 0.440512 0.075246 1.000000 0.000000 0.000000
-0.276478 0.388115 -0.168766 0.800000 0.200000 0.500000
-0.855002 -0.451413 0.094098 1.000000 0.000000 0.000000
-0.414421 -0.243727 0.058133 0.000000 0.000000 1.000000
0.495568 0.040281 0.088028 0.000000 1.000000 0.000000
-0.457604 -0.349164 0.109365 1.000000 0.000000 0.000000
-0.255029 -0.365371 -0.205916 0.800000 0.200000 0.500000
0.860205 -0.376934 0.075412 1.000000 0.000000 0.000000
0.578082 -0.492389 0.056710 1.000000 0.000000 0.000000
-0.748053 -0.024146 0.103445 0.300000 0.600000 0.000000
0.782462 0.465638 0.088028 0.000000 1.000000 0.000000
-0.287519 -0.418296 -0.149641 0.800000 0.200000 0.500000
0.345950 -0.466539 -0.040111 1.000000 0.000000 0.000000
0.558077 -0.418434 0.088028 0.000000 1.000000 0.000000
-0.188799 -0.085060 -0.284546 0.000000 0.000000 1.000000
0.174789 -0.036271 -0.253313 0.500000 0.000000 0.500000
0.431097 0.163340 0.056920 1.000000 0.000000 0.000000
0.819292 -0.369802 0.088028 0.000000 1.000000 0.000000
0.376758 -0.381406 0.026797 0.600000 0.000000 0.300000
0.427794 -0.200513 0.096701 1.000000 0.000000 0.000000
0.840218 -0.070633 0.067466 1.000000 0.000000 0.000000
0.097300 0.497826 0.081943 1.000000 0.000000 0.000000
-0.870937 -0.087127 0.117679 1.000000 0.000000 0.000000
0.841398 0.120308 0.114721 1.000000 0.000000 0.000000
0.840851 0.252218 0.105857 1.000000 0.000000 0.000000
-0.440754 0.145757 0.094322 1.000000 0.000000 0.000000
-0.441113 0.490754 0.118890 1.000000 0.000000 0.000000
0.387333 0.400282 0.081602 1.000000 0.000000 0.000000
-0.227131 0.080125 -0.254237 0.800000 0.200000 0.500000
-0.548975 -0.480784 0.118419 1.000000 0.000000 0.000000
-0.741057 0.366510 0.088028 0.500000 0.500000 0.000000
0.379128 -0.010050 0.069863 1.000000 0.000000 0.000000
0.295226 0.497827 0.095408 1.000000 0.000000 0.000000
0.858273 -0.046202 0.071933 1.000000 0.000000 0.000000
0.844190 -0.333066 0.072065 1.000000 0.000000 0.000000
-0.458128 0.272455 0.080552 1.000000 0.000000 0.000000
0.841411 0.197231 0.078556 1.000000 0.000000 0.000000
-0.384469 0.344356 0.018282 0.800000 0.200000 0.500000
-0.457604 -0.409259 0.075315 1.000000 0.000000 0.000000
-0.343592 0.288456 -0.052520 0.800000 0.200000 0.500000
0.341787 -0.326726 -0.033775 0.600000 0.000000 0.300000
0.840884 0.042670 0.060004 1.000000 0.000000 0.000000
-0.197154 0.245472 -0.300600 0.000000 0.000000 1.000000
-0.855002 -0.262154 0.088337 1.000000 0.000000 0.000000
0.590225 -0.388049 0.088028 0.000000 1.000000 0.000000
0.842718 -0.271142 0.077253 1.000000 0.000000 0.000000
-0.386400 -0.101076 0.021627 0.800000 0.200000 0.500000
0.273214 0.497824 0.085758 1.000000 0.000000 0.000000
0.442825 -0.061888 0.073679 1.000000 0.000000 0.000000
-0.360924 -0.417256 -0.022500 0.800000 0.200000 0.500000
-0.411947 0.388636 0.053848 0.000000 0.000000 1.000000
0.203127 -0.374429 -0.255786 1.000000 0.000000 0.000000
0.502218 -0.024146 0.074788 0.000000 0.500000 0.500000
0.338088 -0.489023 -0.011018 1.000000 0.000000 0.000000
-0.661642 -0.026855 0.118225 0.300000 0.600000 0.000000
-0.854478 0.219528 0.077331 1.000000 0.000000 0.000000
-0.706438 -0.260584 0.088028 0.500000 0.500000 0.000000
0.713616 0.203387 0.088028 0.000000 1.000000 0.000000
0.266678 0.063498 -0.163868 0.600000 0.000000 0.300000
-0.682038 0.227136 0.088028 0.500000 0.500000 0.000000
0.547367 0.108430 0.088028 0.000000 1.000000 0.000000
-0.740732 -0.500467 0.096778 1.000000 0.000000 0.000000
-0.854699 0.180848 0.074176 1.000000 0.000000 0.000000
0.325588 0.160977 -0.061833 0.600000 0.000000 0.300000
0.768872 0.400180 0.088028 0.000000 1.000000 0.000000
-0.610905 0.342329 0.088028 0.500000 0.500000 0.000000
0.381378 -0.207685 0.073746 1.000000 0.000000 0.000000
0.684137 -0.482568 0.117996 1.000000 0.000000 0.000000
0.444501 0.013862 0.074964 1.000000 0.000000 0.000000
0.302170 0.291012 -0.102395 0.600000 0.000000 0.300000
-0.540619 -0.132288 0.088028 0.500000 0.500000 0.000000
-0.241836 0.004305 -0.102477 0.600000 0.000000 0.300000
-0.491715 0.256523 0.088028 0.500000 0.500000 0.000000
-0.339976 0.025916 -0.058783 0.800000 0.200000 0.500000
0.267512 -0.453734 -0.124548 1.000000 0.000000 0.000000
-0.291759 -0.327258 -0.142298 0.800000 0.200000 0.500000
0.549059 -0.173724 0.088028 0.000000 1.000000 0.000000
0.726973 0.226612 0.088028 0.000000 1.000000 0.000000
0.557364 -0.482423 0.082023 1.000000 0.000000 0.000000
0.231504 -0.220144 -0.224792 0.600000 0.000000 0.300000
0.687510 -0.252073 0.088028 0.000000 1.000000 0.000000
-0.527307 0.496928 0.103819 1.000000 0.000000 0.000000
0.860479 -0.355165 0.064626 1.000000 0.000000 0.000000
0.388551 -0.068017 0.033734 1.000000 0.000000 0.000000
-0.261792 -0.284310 -0.194202 0.800000 0.200000 0.500000
-0.796467 0.115932 0.088028 0.500000 0.500000 0.000000
0.536435 -0.189067 0.088028 0.000000 1.000000 0.000000
0.401990 0.482931 0.071632 1.000000 0.000000 0.000000
-0.827651 0.177121 0.088028 0.500000 0.500000 0.000000
0.669484 0.480892 0.060843 1.000000 0.000000 0.000000
-0.334776 0.084085 -0.067789 0.800000 0.200000 0.500000
-0.392642 0.025261 0.068519 0.000000 0.000000 1.000000
0.529680 0.358431 0.088028 0.000000 1.000000 0.000000
-0.868988 0.076143 0.111463 1.000000 0.000000 0.000000
-0.707914 0.480928 0.117900 1.000000 0.000000 0.000000
0.858253 0.105476 0.100769 1.000000 0.000000 0.000000
0.192589 0.336291 -0.293506 1.000000 0.000000 0.000000
-0.847943 0.078820 0.088028 0.500000 0.500000 0.000000
0.686845 0.500056 0.067850 1.000000 0.000000 0.000000
0.358619 -0.127594 -0.004622 0.600000 0.000000 0.300000
0.293445 0.440679 -0.078559 1.000000 0.000000 0.000000
0.476050 -0.480186 0.062849 1.000000 0.000000 0.000000
-0.838015 -0.176243 0.088028 0.500000 0.500000 0.000000
-0.458128 0.327780 0.084683 1.000000 0.000000 0.000000
0.208509 -0.106008 -0.278176 1.000000 0.000000 0.000000
-0.581332 -0.395133 0.088028 0.500000 0.500000 0.000000
-0.400205 -0.255506 0.033509 0.000000 0.000000 1.000000
-0.869013 -0.146562 0.118343 1.000000 0.000000 0.000000
-0.856514 -0.453533 0.057688 1.000000 0.000000 0.000000
-0.317410 -0.212283 -0.097869 0.800000 0.200000 0.500000
-0.458092 -0.399629 0.095085 1.000000 0.000000 0.000000
0.326597 -0.266835 -0.060085 0.600000 0.000000 0.300000
0.265891 -0.451915 -0.175466 1.000000 0.000000 0.000000
-0.188711 0.055738 -0.284698 0.000000 0.000000 1.000000
-0.292836 -0.499016 -0.138490 0.000000 0.000000 1.000000
-0.816695 0.480667 0.117302 1.000000 0.000000 0.000000
0.245186 0.415081 -0.181345 1.000000 0.000000 0.000000
0.586666 -0.371279 0.088028 0.000000 1.000000 0.000000
-0.661753 -0.481231 0.105665 1.000000 0.000000 0.000000
0.426117 0.013591 0.058948 1.000000 0.000000 0.000000
0.444753 0.248783 0.084282 1.000000 0.000000 0.000000
0.805969 0.480685 0.093465 1.000000 0.000000 0.000000
0.443271 -0.409362 0.090892 1.000000 0.000000 0.000000
0.428991 0.130302 0.103722 1.000000 0.000000 0.000000
-0.793174 -0.024146 0.099267 0.300000 0.600000 0.000000
-0.745826 -0.393669 0.088028 0.500000 0.500000 0.000000
0.664114 -0.112035 0.088028 0.000000 1.000000 0.000000
0.186791 -0.358796 -0.291547 1.000000 0.000000 0.000000
0.395654 0.078158 0.045991 1.000000 0.000000 0.000000
-0.401288 -0.078843 0.035385 0.000000 0.000000 1.000000
-0.665600 -0.110708 0.088028 0.500000 0.500000 0.000000
-0.854496 0.351343 0.093593 1.000000 0.000000 0.000000
0.698183 -0.040276 0.117987 0.000000 0.500000 0.500000
0.216155 -0.252899 -0.251377 0.600000 0.000000 0.300000
-0.441421 0.463086 0.102107 1.000000 0.000000 0.000000
0.749739 0.481012 0.101347 1.000000 0.000000 0.000000
0.743740 -0.024706 0.062735 0.000000 0.500000 0.500000
-0.854913 -0.307721 0.058375 1.000000 0.000000 0.000000
-0.830944 -0.016315 0.088028 0.500000 0.500000 0.000000
0.301829 -0.002878 0.001514 0.500000 0.000000 0.500000
-0.190871 -0.006391 -0.255308 0.600000 0.000000 0.300000
0.173578 0.115300 -0.295603 1.000000 0.000000 0.000000
-0.329037 0.156539 -0.077730 0.800000 0.200000 0.500000
0.256022 0.129030 -0.182325 0.600000 0.000000 0.300000
-0.278615 -0.400946 -0.165064 0.800000 0.200000 0.500000
-0.253545 -0.014533 -0.082197 0.600000 0.000000 0.300000
0.771380 0.497824 0.085492 1.000000 0.000000 0.000000
0.228808 -0.002878 -0.123085 0.500000 0.000000 0.500000
0.408744 0.003278 0.064428 1.000000 0.000000 0.000000
-0.790958 0.396281 0.088028 0.500000 0.500000 0.000000
0.710765 -0.024679 0.060074 0.000000 0.500000 0.500000
-0.372713 -0.052152 -0.002080 0.800000 0.200000 0.500000
-0.276296 -0.279705 -0.169080 0.800000 0.200000 0.500000
-0.347327 0.006143 0.000969 0.600000 0.000000 0.300000
-0.873076 0.418122 0.115109 1.000000 0.000000 0.000000
0.858273 -0.260702 0.103393 1.000000 0.000000 0.000000
0.686033 -0.235362 0.088028 0.000000 1.000000 0.000000
-0.551032 -0.374666 0.088028 0.500000 0.500000 0.000000
0.730897 0.052020 0.088028 0.000000 1.000000 0.000000
0.334574 -0.001598 -0.046269 0.600000 0.000000 0.300000
-0.252783 0.062778 -0.209807 0.800000 0.200000 0.500000
0.840429 -0.355441 0.063009 1.000000 0.000000 0.000000
0.402203 -0.021745 0.075032 1.000000 0.000000 0.000000
-0.767992 0.224566 0.088028 0.500000 0.500000 0.000000
-0.561877 -0.416586 0.088028 0.500000 0.500000 0.000000
0.857082 0.213207 0.118380 1.000000 0.000000 0.000000
0.429761 0.440139 0.067472 1.000000 0.000000 0.000000
-0.369535 0.294439 -0.007586 0.800000 0.200000 0.500000
0.858244 0.060256 0.099555 1.000000 0.000000 0.000000
-0.657463 -0.324701 0.088028 0.500000 0.500000 0.000000
-0.742739 0.086484 0.088028 0.500000 0.500000 0.000000
-0.221099 -0.003459 -0.258872 0.000000 0.000000 1.000000
0.290350 -0.041251 -0.014618 0.500000 0.000000 0.500000
-0.241155 0.147405 -0.229946 0.800000 0.200000 0.500000
-0.337711 0.461764 0.090061 1.000000 0.000000 0.000000
0.191315 0.476490 0.063034 1.000000 0.000000 0.000000
0.233508 0.461741 0.089966 1.000000 0.000000 0.000000
0.719418 -0.184206 0.088028 0.000000 1.000000 0.000000
0.477001 0.066108 0.088028 0.000000 1.000000 0.000000
0.443273 -0.213537 0.079428 1.000000 0.000000 0.000000
-0.663118 0.021049 0.088028 0.500000 0.500000 0.000000
-0.224559 -0.328572 -0.270720 0.000000 0.000000 1.000000
0.698620 -0.133415 0.088028 0.000000 1.000000 0.000000
0.649442 -0.040913 0.075879 0.000000 0.500000 0.500000
0.564755 -0.352356 0.088028 0.000000 1.000000 0.000000
-0.871709 -0.232016 0.102551 1.000000 0.000000 0.000000
-0.695139 0.499736 0.077421 1.000000 0.000000 0.000000
-0.358019 -0.119030 -0.027531 0.800000 0.200000 0.500000
0.323324 -0.409201 -0.065754 0.600000 0.000000 0.300000
0.348841 -0.469673 0.017390 1.000000 0.000000 0.000000
0.654899 0.232208 0.088028 0.000000 1.000000 0.000000
-0.517629 -0.024702 0.061997 0.300000 0.600000 0.000000
-0.443017 0.222323 0.066596 1.000000 0.000000 0.000000
-0.678042 -0.175698 0.088028 0.500000 0.500000 0.000000
-0.473040 -0.158136 0.088028 0.500000 0.500000 0.000000
-0.295765 0.215074 -0.135359 0.800000 0.200000 0.500000
-0.609683 0.450492 0.088028 0.500000 0.500000 0.000000
0.572905 0.436494 0.088028 0.000000 1.000000 0.000000
-0.481176 0.077881 0.088028 0.500000 0.500000 0.000000
-0.454943 -0.101855 0.056952 1.000000 0.000000 0.000000
-0.839001 -0.480493 0.099982 1.000000 0.000000 0.000000
-0.271592 0.350020 -0.177227 0.800000 0.200000 0.500000
0.468306 0.485544 0.056788 1.000000 0.000000 0.000000
0.858223 0.268796 0.085937 1.000000 0.000000 0.000000
0.848113 -0.114908 0.109816 1.000000 0.000000 0.000000
0.337766 0.398150 -0.040740 0.600000 0.000000 0.300000
0.444501 0.214566 0.073682 1.000000 0.000000 0.000000
-0.457551 -0.134394 0.109205 1.000000 0.000000 0.000000
-0.854262 0.430299 0.114002 1.000000 0.000000 0.000000
0.208532 0.263000 -0.273740 1.000000 0.000000 0.000000
-0.630117 -0.481231 0.096902 1.000000 0.000000 0.000000
0.444832 0.419436 0.064872 1.000000 0.000000 0.000000
0.396886 -0.062610 0.047721 1.000000 0.000000 0.000000
-0.436629 0.128822 0.113733 1.000000 0.000000 0.000000
0.842282 -0.288908 0.090822 1.000000 0.000000 0.000000
-0.242277 0.465313 0.070528 1.000000 0.000000 0.000000
0.375252 -0.252808 0.033709 1.000000 0.000000 0.000000
0.370880 0.039103 0.016615 0.600000 0.000000 0.300000
-0.228596 -0.018727 -0.113382 0.600000 0.000000 0.300000
0.393760 -0.304083 0.074019 1.000000 0.000000 0.000000
-0.457568 0.335809 0.107522 1.000000 0.000000 0.000000
-0.357907 -0.036939 0.008356 0.600000 0.000000 0.300000
0.319280 0.416569 -0.085249 1.000000 0.000000 0.000000
-0.829588 -0.480901 0.113436 1.000000 0.000000 0.000000
0.706736 0.188541 0.088028 0.000000 1.000000 0.000000
0.625535 0.056156 0.088028 0.000000 1.000000 0.000000
0.507587 0.054293 0.088028 0.000000 1.000000 0.000000
-0.675620 0.106771 0.088028 0.500000 0.500000 0.000000
0.497034 -0.483520 0.068010 1.000000 0.000000 0.000000
-0.871417 -0.105103 0.073869 1.000000 0.000000 0.000000
-0.369243 0.452935 -0.020118 0.000000 0.000000 1.000000
0.742860 -0.484477 0.066723 1.000000 0.000000 0.000000
0.305609 -0.477875 -0.065569 1.000000 0.000000 0.000000
-0.870915 0.356228 0.118021 1.000000 0.000000 0.000000
-0.873488 -0.019216 0.061661 1.000000 0.000000 0.000000
0.677417 0.480916 0.103832 1.000000 0.000000 0.000000
0.583939 -0.128702 0.088028 0.000000 1.000000 0.000000
-0.212449 -0.019295 -0.141350 0.600000 0.000000 0.300000
0.508103 -0.475589 0.088028 0.000000 1.000000 0.000000
0.818307 -0.482924 0.073138 1.000000 0.000000 0.000000
0.245788 0.068351 -0.200051 0.600000 0.000000 0.300000
-0.260426 -0.000203 -0.196569 0.800000 0.200000 0.500000
-0.558617 -0.030885 0.088028 0.500000 0.500000 0.000000
0.415359 -0.076023 0.066251 1.000000 0.000000 0.000000
0.200226 -0.093965 -0.291886 1.000000 0.000000 0.000000
0.260024 -0.036803 -0.049104 0.500000 0.000000 0.500000
-0.289645 0.100380 -0.145959 0.800000 0.200000 0.500000
0.533877 -0.482425 0.085846 1.000000 0.000000 0.000000
-0.248447 0.353216 -0.217316 0.800000 0.200000 0.500000
0.765586 -0.500449 0.067605 1.000000 0.000000 0.000000
-0.216256 0.368216 -0.285100 0.000000 0.000000 1.000000
0.669442 -0.498193 0.099100 1.000000 0.000000 0.000000
0.342132 0.025871 -0.033177 0.600000 0.000000 0.300000
-0.824693 -0.042224 0.073424 0.300000 0.600000 0.000000
-0.796159 -0.423696 0.088028 0.500000 0.500000 0.000000
0.427629 0.396481 0.097359 1.000000 0.000000 0.000000
0.841022 0.128317 0.058582 1.000000 0.000000 0.000000
-0.422192 0.415438 0.103750 1.000000 0.000000 0.000000
0.377382 0.482216 0.093000 1.000000 0.000000 0.000000
0.307726 -0.010948 0.045545 0.500000 0.000000 0.500000
0.425712 -0.300944 0.116745 1.000000 0.000000 0.000000
0.214598 0.019207 -0.283516 0.000000 0.500000 0.500000
0.601518 -0.136401 0.088028 0.000000 1.000000 0.000000
0.398589 -0.163507 0.073187 1.000000 0.000000 0.000000
-0.369359 -0.028172 -0.007890 0.800000 0.200000 0.500000
-0.716632 -0.091259 0.088028 0.500000 0.500000 0.000000
0.258468 0.393945 -0.178089 0.600000 0.000000 0.300000
0.267651 0.237150 -0.162183 0.600000 0.000000 0.300000
-0.224516 0.360951 -0.258767 0.800000 0.200000 0.500000
-0.458128 0.166602 0.101418 1.000000 0.000000 0.000000
0.379867 0.205795 0.044995 1.000000 0.000000 0.000000
-0.359877 0.428561 0.011769 0.000000 0.000000 1.000000
-0.656748 -0.080639 0.088028 0.500000 0.500000 0.000000
-0.281273 0.237695 -0.160460 0.800000 0.200000 0.500000
0.348088 -0.391149 -0.022862 0.600000 0.000000 0.300000
-0.260813 -0.056099 -0.195898 0.800000 0.200000 0.500000
-0.249538 0.025617 -0.215427 0.800000 0.200000 0.500000
-0.090584 0.499161 0.116232 1.000000 0.000000 0.000000
-0.274745 -0.005088 -0.033449 0.600000 0.000000 0.300000
0.204906 -0.013305 -0.132544 0.500000 0.000000 0.500000
0.677023 0.441716 0.088028 0.000000 1.000000 0.000000
-0.296288 -0.148978 -0.134453 0.800000 0.200000 0.500000
-0.332622 -0.040749 -0.071521 0.800000 0.200000 0.500000
0.372647 0.032032 0.058645 1.000000 0.000000 0.000000
-0.288848 0.412653 -0.147339 0.800000 0.200000 0.500000
-0.612998 -0.024283 0.059099 0.300000 0.600000 0.000000
-0.506334 0.340837 0.088028 0.500000 0.500000 0.000000
0.840231 -0.157843 0.109335 1.000000 0.000000 0.000000
-0.232895 -0.037410 -0.136004 0.600000 0.000000 0.300000
-0.253253 -0.039128 -0.100743 0.600000 0.000000 0.300000
0.198900 0.425052 -0.294811 1.000000 0.000000 0.000000
-0.493044 -0.481231 0.080055 1.000000 0.000000 0.000000
-0.456128 -0.024909 0.119198 0.300000 0.600000 0.000000
-0.376173 -0.487960 0.039995 0.000000 0.000000 1.000000
0.202303 0.489555 0.113293 1.000000 0.000000 0.000000
0.840181 -0.255496 0.094646 1.000000 0.000000 0.000000
-0.813523 0.481012 0.079242 1.000000 0.000000 0.000000
-0.622072 -0.042224 0.106396 0.300000 0.600000 0.000000
0.357795 -0.093793 -0.006048 0.600000 0.000000 0.300000
0.779527 -0.072728 0.088028 0.000000 1.000000 0.000000
-0.189994 0.461763 0.096956 1.000000 0.000000 0.000000
-0.323048 0.355071 -0.088103 0.800000 0.200000 0.500000
-0.695979 0.482340 0.058115 1.000000 0.000000 0.000000
0.384207 -0.147374 0.029292 1.000000 0.000000 0.000000
-0.871391 0.288423 0.101925 1.000000 0.000000 0.000000
-0.606689 -0.498735 0.058330 1.000000 0.000000 0.000000
-0.873751 0.416374 0.082177 1.000000 0.000000 0.000000
0.282530 0.454713 -0.097565 1.000000 0.000000 0.000000
0.201765 -0.208690 -0.254999 1.000000 0.000000 0.000000
0.252382 0.143736 -0.188631 0.600000 0.000000 0.300000
0.250548 -0.210528 -0.191807 0.600000 0.000000 0.300000
0.282474 0.321625 -0.136510 0.600000 0.000000 0.300000
-0.420738 -0.316230 0.085202 1.000000 0.000000 0.000000
0.184907 -0.185177 -0.270717 1.000000 0.000000 0.000000
0.701029 -0.082206 0.088028 0.000000 1.000000 0.000000
0.137828 0.479107 0.060609 1.000000 0.000000 0.000000
-0.457941 -0.234270 0.117937 1.000000 0.000000 0.000000
0.840851 0.345839 0.069150 1.000000 0.000000 0.000000
-0.742082 0.313901 0.088028 0.500000 0.500000 0.000000
-0.814759 -0.440096 0.088028 0.500000 0.500000 0.000000
-0.195974 -0.395248 -0.272118 0.000000 0.000000 1.000000
0.444264 0.111302 0.117997 1.000000 0.000000 0.000000
-0.299278 0.463191 -0.113448 0.000000 0.000000 1.000000
0.392445 0.158382 0.074245 1.000000 0.000000 0.000000
0.767533 0.168972 0.088028 0.000000 1.000000 0.000000
-0.430855 -0.479221 0.066540 1.000000 0.000000 0.000000
-0.639053 0.067787 0.088028 0.500000 0.500000 0.000000
0.311144 0.376200 -0.086851 0.600000 0.000000 0.300000
0.590242 0.050160 0.088028 0.000000 1.000000 0.000000
0.390142 0.144040 0.037133 1.000000 0.000000 0.000000
0.436351 -0.335638 0.119080 1.000000 0.000000 0.000000
-0.711091 -0.371435 0.088028 0.500000 0.500000 0.000000
-0.355801 -0.349045 -0.031373 0.800000 0.200000 0.500000
0.752480 0.382936 0.088028 0.000000 1.000000 0.000000
0.426180 -0.162806 0.117123 1.000000 0.000000 0.000000
0.723096 0.146531 0.088028 0.000000 1.000000 0.000000
0.677348 0.030329 0.088028 0.000000 1.000000 0.000000
-0.395451 0.035576 0.029338 0.000000 0.000000 1.000000
-0.238363 0.312738 -0.234782 0.800000 0.200000 0.500000
0.504338 -0.500465 0.103044 1.000000 0.000000 0.000000
-0.411100 -0.454932 0.075855 0.000000 0.000000 1.000000
0.775154 -0.486660 0.118640 1.000000 0.000000 0.000000
0.308055 0.500388 0.067275 1.000000 0.000000 0.000000
-0.873748 -0.087356 0.101604 1.000000 0.000000 0.000000
-0.321730 -0.104489 -0.090386 0.800000 0.200000 0.500000
-0.166905 0.482347 0.083465 1.000000 0.000000 0.000000
0.815488 -0.024146 0.081478 0.000000 0.500000 0.500000
-0.512081 0.481012 0.077685 1.000000 0.000000 0.000000
0.349858 0.031104 -0.019796 0.600000 0.000000 0.300000
-0.351898 0.363453 -0.038134 0.800000 0.200000 0.500000
-0.441708 -0.433879 0.070243 1.000000 0.000000 0.000000
0.404647 0.454875 0.060013 1.000000 0.000000 0.000000
-0.448500 -0.404745 0.060343 1.000000 0.000000 0.000000
0.486591 -0.288078 0.088028 0.000000 1.000000 0.000000
0.428831 -0.360770 0.103290 1.000000 0.000000 0.000000
0.444603 -0.017801 0.114054 1.000000 0.000000 0.000000
-0.146327 0.500052 0.104543 1.000000 0.000000 0.000000
0.222613 -0.027036 -0.204109 0.500000 0.000000 0.500000
0.435299 -0.307691 0.056731 1.000000 0.000000 0.000000
-0.638064 0.183933 0.088028 0.500000 0.500000 0.000000
0.410596 -0.399745 0.065448 1.000000 0.000000 0.000000
0.760454 0.356078 0.088028 0.000000 1.000000 0.000000
-0.871689 0.298261 0.071526 1.000000 0.000000 0.000000
0.789539 0.259345 0.088028 0.000000 1.000000 0.000000
0.269548 -0.019328 -0.020580 0.500000 0.000000 0.500000
0.417520 -0.050003 0.110660 1.000000 0.000000 0.000000
-0.275256 -0.499016 -0.158867 0.000000 0.000000 1.000000
0.465289 -0.479301 0.103488 1.000000 0.000000 0.000000
0.213184 -0.193131 -0.256523 0.600000 0.000000 0.300000
-0.447346 0.240995 0.061507 1.000000 0.000000 0.000000
0.653874 0.332665 0.088028 0.000000 1.000000 0.000000
0.359928 -0.304236 -0.002354 0.600000 0.000000 0.300000
-0.807636 0.075877 0.088028 0.500000 0.500000 0.000000
0.188560 -0.295541 -0.304466 1.000000 0.000000 0.000000
0.647199 -0.458593 0.088028 0.000000 1.000000 0.000000
0.431213 -0.465461 0.118750 1.000000 0.000000 0.000000
0.222367 -0.181022 -0.240617 0.600000 0.000000 0.300000
0.359549 0.469896 0.108571 1.000000 0.000000 0.000000
-0.157343 0.482220 0.057367 1.000000 0.000000 0.000000
-0.607177 -0.098765 0.088028 0.500000 0.500000 0.000000
-0.227725 -0.447172 -0.265236 0.000000 0.000000 1.000000
0.182298 -0.368356 -0.271069 1.000000 0.000000 0.000000
-0.425322 0.033207 0.071370 1.000000 0.000000 0.000000
