0.459686 0.033343 -0.387842 0.600000 0.000000 0.300000
-0.331333 0.513494 -0.037232 0.600000 0.000000 0.300000
0.178751 -0.058534 -0.388977 0.600000 0.000000 0.300000
-0.497172 -0.454825 0.020437 0.600000 0.000000 0.300000
0.225488 -0.313868 -0.452525 0.600000 0.000000 0.300000
-0.440371 -0.393784 0.410702 0.500000 0.000000 0.500000
-0.129218 -0.712094 -0.206849 0.600000 0.000000 0.300000
0.267625 0.441513 0.325706 0.600000 0.000000 0.300000
-0.340413 -0.467898 -0.456957 0.600000 0.000000 0.300000
-0.405294 -0.248910 -0.397306 0.600000 0.000000 0.300000
0.164378 -0.065561 0.477719 0.300000 0.600000 0.000000
-0.446141 0.059942 0.253017 0.600000 0.000000 0.300000
-0.165368 0.441513 -0.054487 0.600000 0.000000 0.300000
0.082350 0.131923 0.169724 0.600000 0.000000 0.300000
0.473331 -0.463231 -0.361275 0.600000 0.000000 0.300000
0.213409 0.525012 -0.197402 0.600000 0.000000 0.300000
0.395595 -0.452062 -0.165648 0.300000 0.000000 0.600000
0.396712 0.506191 0.386179 0.600000 0.000000 0.300000
0.145896 0.525012 0.133268 0.600000 0.000000 0.300000
-0.497172 -0.299526 -0.008826 0.600000 0.000000 0.300000
-0.250809 0.441513 0.091149 0.600000 0.000000 0.300000
0.292329 0.513494 -0.423854 0.600000 0.000000 0.300000
0.179587 0.513494 0.052881 0.600000 0.000000 0.300000
0.473331 0.392654 0.054335 0.600000 0.000000 0.300000
0.298969 0.131923 0.347427 0.600000 0.000000 0.300000
-0.040716 0.715663 -0.274357 0.600000 0.000000 0.300000
-0.497172 -0.233944 0.175271 0.600000 0.000000 0.300000
0.058956 -0.445796 -0.207935 0.300000 0.000000 0.600000
0.090107 0.405922 -0.392631 0.600000 0.000000 0.300000
0.003149 0.525012 0.049347 0.600000 0.000000 0.300000
0.337950 0.525012 0.108063 0.600000 0.000000 0.300000
-0.322374 0.131923 0.037989 0.600000 0.000000 0.300000
0.381453 -0.388662 0.265668 0.600000 0.000000 0.300000
0.057151 0.715663 -0.000220 0.600000 0.000000 0.300000
0.473331 -0.727382 0.347053 0.600000 0.000000 0.300000
0.473331 -0.719903 -0.264657 0.600000 0.000000 0.300000
-0.298177 0.441513 0.191121 0.600000 0.000000 0.300000
-0.225689 0.513494 -0.038916 0.600000 0.000000 0.300000
0.060964 0.438243 0.484001 0.500000 0.500000 0.000000
0.232656 -0.712094 0.142982 0.600000 0.000000 0.300000
0.358714 0.715663 0.189136 0.600000 0.000000 0.300000
-0.310890 0.643682 -0.062663 0.600000 0.000000 0.300000
-0.395477 -0.120053 0.413042 0.000000 0.500000 0.500000
-0.386284 -0.690384 -0.452525 0.600000 0.000000 0.300000
0.381166 -0.440832 0.069633 0.300000 0.000000 0.600000
0.464141 0.633865 -0.081856 0.600000 0.000000 0.300000
-0.074612 -0.797133 0.408201 0.500000 0.000000 0.500000
0.381453 -0.621167 0.019345 0.600000 0.000000 0.300000
0.473331 -0.582218 -0.261346 0.600000 0.000000 0.300000
0.093725 0.441513 -0.253871 0.600000 0.000000 0.300000
-0.405294 -0.253247 -0.280267 0.600000 0.000000 0.300000
0.381453 -0.239758 -0.379588 0.600000 0.000000 0.300000
-0.392745 0.715663 -0.426564 0.600000 0.000000 0.300000
0.359122 0.131923 -0.320953 0.600000 0.000000 0.300000
-0.334634 -0.058534 0.034738 0.600000 0.000000 0.300000
0.024638 0.441513 0.104946 0.600000 0.000000 0.300000
0.243828 0.092563 -0.452525 0.600000 0.000000 0.300000
-0.133648 0.715663 -0.240288 0.600000 0.000000 0.300000
-0.405294 -0.401443 0.079647 0.600000 0.000000 0.300000
0.473331 -0.735689 -0.084256 0.600000 0.000000 0.300000
0.279875 -0.311183 0.190336 0.600000 0.300000 0.000000
0.307226 0.033343 -0.115189 0.600000 0.000000 0.300000
-0.425190 0.428188 -0.376090 0.600000 0.000000 0.300000
-0.267320 -0.173163 -0.456957 0.600000 0.000000 0.300000
0.473331 -0.394669 -0.078628 0.600000 0.000000 0.300000
-0.497172 -0.099691 0.284791 0.600000 0.000000 0.300000
0.401349 0.266001 0.036858 0.600000 0.000000 0.300000
-0.497172 0.373888 -0.248788 0.600000 0.000000 0.300000
0.257860 0.599957 0.409146 0.000000 0.000000 1.000000
-0.172960 -0.712094 0.026676 0.600000 0.000000 0.300000
-0.425190 0.304289 -0.124493 0.600000 0.000000 0.300000
0.100271 0.596993 0.140606 0.600000 0.000000 0.300000
0.473331 0.231229 0.243089 0.600000 0.000000 0.300000
0.350062 0.643682 -0.195876 0.600000 0.000000 0.300000
-0.504289 0.013832 0.402824 0.500000 0.000000 0.500000
0.078036 -0.803972 0.339224 0.600000 0.000000 0.300000
-0.044319 -0.712094 -0.215384 0.600000 0.000000 0.300000
0.401349 0.271762 -0.278751 0.600000 0.000000 0.300000
-0.405294 -0.061948 0.088676 0.600000 0.000000 0.300000
0.381453 -0.152850 0.053518 0.600000 0.000000 0.300000
0.480547 -0.570840 0.352824 0.600000 0.000000 0.300000
0.081081 0.059942 0.214605 0.600000 0.000000 0.300000
0.302911 0.596993 -0.044301 0.600000 0.000000 0.300000
-0.497172 -0.648280 -0.235747 0.600000 0.000000 0.300000
-0.264713 0.715663 0.098086 0.600000 0.000000 0.300000
-0.487982 0.551706 -0.109510 0.600000 0.000000 0.300000
-0.275125 0.430005 -0.392631 0.600000 0.000000 0.300000
-0.053107 -0.712094 -0.389934 0.600000 0.000000 0.300000
-0.262413 0.425120 0.467991 0.500000 0.500000 0.000000
0.301902 0.525012 0.234139 0.600000 0.000000 0.300000
-0.497172 0.079111 0.069533 0.600000 0.000000 0.300000
-0.425190 0.353452 -0.009244 0.600000 0.000000 0.300000
-0.077417 0.441513 0.114537 0.600000 0.000000 0.300000
-0.238356 0.289133 -0.175738 0.600000 0.000000 0.300000
0.283156 -0.315981 0.345033 0.600000 0.300000 0.000000
-0.257316 0.281414 0.348486 0.600000 0.000000 0.300000
0.187971 0.231487 0.413042 0.000000 1.000000 0.000000
0.056377 0.032131 0.406032 0.500000 0.000000 0.500000
0.364397 0.701560 -0.452525 0.600000 0.000000 0.300000
-0.080141 0.525012 0.052889 0.600000 0.000000 0.300000
-0.081807 -0.321965 0.352333 0.600000 0.300000 0.000000
0.401349 0.365666 0.261136 0.600000 0.000000 0.300000
0.258686 0.525012 -0.116612 0.600000 0.000000 0.300000
0.473331 -0.311787 -0.312229 0.600000 0.000000 0.300000
-0.497073 0.313166 0.339429 0.600000 0.000000 0.300000
-0.487982 0.683565 -0.207111 0.600000 0.000000 0.300000
-0.325140 -0.441108 -0.106145 0.300000 0.000000 0.600000
-0.192077 0.131923 0.140010 0.600000 0.000000 0.300000
0.156520 -0.450470 0.353124 0.300000 0.000000 0.600000
-0.039305 0.059942 -0.062981 0.600000 0.000000 0.300000
-0.307562 0.301643 -0.004622 0.600000 0.000000 0.300000
0.381453 -0.407796 -0.421238 0.600000 0.000000 0.300000
-0.378947 0.131923 -0.074441 0.600000 0.000000 0.300000
0.272274 0.441513 -0.319118 0.600000 0.000000 0.300000
-0.181787 0.131923 -0.202776 0.600000 0.000000 0.300000
0.193300 0.643682 0.279716 0.600000 0.000000 0.300000
0.473331 0.211594 -0.032850 0.600000 0.000000 0.300000
-0.141186 0.643682 0.182029 0.600000 0.000000 0.300000
0.318674 0.596993 0.283279 0.600000 0.000000 0.300000
-0.309168 0.469838 0.386179 0.600000 0.000000 0.300000
-0.425190 0.415521 0.263218 0.600000 0.000000 0.300000
-0.280877 0.131923 -0.247965 0.600000 0.000000 0.300000
0.190376 0.131923 0.212961 0.600000 0.000000 0.300000
-0.125330 -0.145887 -0.452525 0.600000 0.000000 0.300000
-0.358637 -0.803972 0.017049 0.600000 0.000000 0.300000
0.473331 0.191170 -0.292079 0.600000 0.000000 0.300000
0.381453 -0.295025 -0.249545 0.600000 0.000000 0.300000
0.473331 0.509133 -0.441772 0.600000 0.000000 0.300000
-0.133945 -0.066633 0.481511 0.300000 0.600000 0.000000
-0.048447 -0.443152 0.207411 0.300000 0.000000 0.600000
-0.016257 0.715663 0.245571 0.600000 0.000000 0.300000
-0.153107 0.441513 0.360191 0.600000 0.000000 0.300000
0.388474 0.379449 -0.452525 0.600000 0.000000 0.300000
0.190132 0.656472 0.384595 0.600000 0.000000 0.300000
-0.422046 0.421753 0.429350 0.500000 0.500000 0.000000
-0.497172 0.470223 0.116400 0.600000 0.000000 0.300000
-0.236346 -0.327499 0.267196 0.600000 0.300000 0.000000
-0.234338 0.643682 -0.285598 0.600000 0.000000 0.300000
-0.121445 -0.058534 -0.112066 0.600000 0.000000 0.300000
0.464141 0.586357 0.257162 0.600000 0.000000 0.300000
0.381453 -0.260477 0.243612 0.600000 0.000000 0.300000
0.479997 0.443575 0.345276 0.600000 0.000000 0.300000
-0.006053 0.715663 0.328734 0.600000 0.000000 0.300000
0.152330 -0.803972 -0.106450 0.600000 0.000000 0.300000
-0.254858 -0.712094 0.326559 0.600000 0.000000 0.300000
0.464141 0.609264 0.336355 0.600000 0.000000 0.300000
-0.257789 -0.577345 -0.456957 0.600000 0.000000 0.300000
-0.497172 -0.406004 0.134134 0.600000 0.000000 0.300000
-0.429152 0.294523 0.123923 0.600000 0.000000 0.300000
-0.405294 -0.297862 0.246281 0.600000 0.000000 0.300000
-0.339180 0.135063 -0.452525 0.600000 0.000000 0.300000
0.154101 -0.803972 0.304850 0.600000 0.000000 0.300000
0.286030 0.596993 0.096232 0.600000 0.000000 0.300000
-0.497172 0.455650 -0.260975 0.600000 0.000000 0.300000
0.049613 0.441513 0.188968 0.600000 0.000000 0.300000
-0.023948 -0.435960 0.413042 0.000000 0.500000 0.500000
-0.056624 -0.011664 0.410702 0.500000 0.000000 0.500000
-0.399717 -0.712094 -0.131862 0.600000 0.000000 0.300000
0.376615 0.715663 -0.231049 0.600000 0.000000 0.300000
-0.276160 0.329159 -0.452525 0.600000 0.000000 0.300000
0.223763 0.285639 0.346007 0.600000 0.000000 0.300000
-0.097032 -0.803972 -0.435471 0.600000 0.000000 0.300000
-0.290792 0.715663 -0.215873 0.600000 0.000000 0.300000
0.480547 0.007151 0.414091 0.500000 0.000000 0.500000
-0.157227 0.513494 -0.325045 0.600000 0.000000 0.300000
-0.271899 -0.011431 0.415297 0.500000 0.000000 0.500000
-0.482087 -0.228544 0.415297 0.500000 0.000000 0.500000
0.189812 0.596993 -0.166299 0.600000 0.000000 0.300000
-0.268267 0.643682 0.050608 0.600000 0.000000 0.300000
0.473331 -0.703536 0.051096 0.600000 0.000000 0.300000
0.305307 -0.294062 -0.456957 0.600000 0.000000 0.300000
0.418936 -0.048018 -0.452525 0.600000 0.000000 0.300000
-0.497172 0.328318 0.232285 0.600000 0.000000 0.300000
-0.497172 -0.318147 -0.126584 0.600000 0.000000 0.300000
-0.145409 0.441513 0.183876 0.600000 0.000000 0.300000
-0.013485 -0.712094 -0.317855 0.600000 0.000000 0.300000
0.337949 0.033343 0.116567 0.600000 0.000000 0.300000
0.049446 0.643682 0.328160 0.600000 0.000000 0.300000
0.115673 0.284319 0.348940 0.600000 0.000000 0.300000
-0.387500 0.715663 0.333733 0.600000 0.000000 0.300000
0.273468 -0.513332 0.413042 0.000000 0.500000 0.500000
-0.309401 0.643682 0.330259 0.600000 0.000000 0.300000
-0.063910 -0.613794 0.415297 0.500000 0.000000 0.500000
-0.497172 0.256437 -0.059760 0.600000 0.000000 0.300000
-0.182604 0.643682 -0.116538 0.600000 0.000000 0.300000
0.293379 0.618619 -0.452525 0.600000 0.000000 0.300000
-0.497172 0.244802 -0.251025 0.600000 0.000000 0.300000
0.160141 0.715663 -0.227840 0.600000 0.000000 0.300000
-0.060498 0.643682 -0.043779 0.600000 0.000000 0.300000
-0.497172 -0.640998 0.207328 0.600000 0.000000 0.300000
-0.376308 0.513494 0.037072 0.600000 0.000000 0.300000
-0.293325 -0.803972 -0.359907 0.600000 0.000000 0.300000
-0.236825 -0.803972 0.245775 0.600000 0.000000 0.300000
0.017414 0.596993 0.247150 0.600000 0.000000 0.300000
0.298619 0.513504 0.402364 1.000000 0.000000 0.000000
0.177260 -0.058534 -0.061463 0.600000 0.000000 0.300000
0.041769 -0.058534 0.163447 0.600000 0.000000 0.300000
-0.405294 -0.568762 0.339968 0.600000 0.000000 0.300000
0.473331 0.346161 -0.239245 0.600000 0.000000 0.300000
0.303312 0.287314 -0.452525 0.600000 0.000000 0.300000
-0.405294 -0.567726 -0.148376 0.600000 0.000000 0.300000
-0.333483 0.643682 0.234127 0.600000 0.000000 0.300000
0.396265 0.136997 -0.392631 0.600000 0.000000 0.300000
-0.349659 -0.449282 0.274775 0.300000 0.000000 0.600000
0.276875 0.059942 0.285671 0.600000 0.000000 0.300000
0.459453 0.059942 -0.130779 0.600000 0.000000 0.300000
-0.007633 0.293203 0.349205 0.600000 0.000000 0.300000
-0.497172 -0.077832 0.362166 0.600000 0.000000 0.300000
0.373709 -0.788117 0.415297 0.500000 0.000000 0.500000
-0.141849 -0.712094 0.212997 0.600000 0.000000 0.300000
-0.233058 -0.712094 0.176853 0.600000 0.000000 0.300000
-0.405294 -0.702337 0.126935 0.600000 0.000000 0.300000
-0.455241 0.033343 -0.191335 0.600000 0.000000 0.300000
0.056489 -0.439111 0.095454 0.300000 0.000000 0.600000
-0.344463 0.596993 0.093647 0.600000 0.000000 0.300000
0.166811 -0.200129 -0.456957 0.600000 0.000000 0.300000
0.166847 -0.058534 0.183976 0.600000 0.000000 0.300000
0.464141 0.655972 -0.390795 0.600000 0.000000 0.300000
0.142490 0.643682 -0.100262 0.600000 0.000000 0.300000
-0.425190 0.249251 -0.185384 0.600000 0.000000 0.300000
0.473331 0.146776 -0.369394 0.600000 0.000000 0.300000
-0.210492 0.286362 0.413042 0.000000 1.000000 0.000000
0.473331 0.408764 -0.091157 0.600000 0.000000 0.300000
0.059089 0.441513 0.017665 0.600000 0.000000 0.300000
0.261007 -0.132443 0.414204 0.500000 0.000000 0.500000
0.128922 0.513494 0.297043 0.600000 0.000000 0.300000
0.089886 -0.058534 0.330673 0.600000 0.000000 0.300000
0.381453 -0.580776 -0.257365 0.600000 0.000000 0.300000
-0.107827 0.643682 -0.374048 0.600000 0.000000 0.300000
-0.075736 0.525012 -0.145987 0.600000 0.000000 0.300000
0.040203 0.293127 -0.452525 0.600000 0.000000 0.300000
0.025409 0.441513 -0.308215 0.600000 0.000000 0.300000
-0.363908 0.643682 -0.293042 0.600000 0.000000 0.300000
-0.425190 0.349110 -0.295687 0.600000 0.000000 0.300000
-0.060498 0.131923 0.365308 0.600000 0.000000 0.300000
-0.148820 0.033343 -0.195645 0.600000 0.000000 0.300000
-0.249014 -0.058534 -0.276038 0.600000 0.000000 0.300000
-0.419981 -0.657968 0.386179 0.600000 0.000000 0.300000
0.196029 -0.058534 0.104778 0.600000 0.000000 0.300000
-0.205475 0.131923 -0.036679 0.600000 0.000000 0.300000
-0.268900 0.525012 -0.450373 0.600000 0.000000 0.300000
0.141075 0.715663 -0.327470 0.600000 0.000000 0.300000
0.473331 0.161242 -0.211101 0.600000 0.000000 0.300000
0.035377 -0.276767 0.413042 0.000000 0.500000 0.500000
-0.100292 -0.319367 -0.057513 0.600000 0.300000 0.000000
0.266076 -0.712094 0.276708 0.600000 0.000000 0.300000
-0.020682 0.059942 0.071924 0.600000 0.000000 0.300000
-0.114546 0.441513 -0.147333 0.600000 0.000000 0.300000
0.049095 0.596993 -0.373592 0.600000 0.000000 0.300000
-0.344961 0.591502 -0.452525 0.600000 0.000000 0.300000
-0.425190 0.182447 -0.019836 0.600000 0.000000 0.300000
0.371322 -0.712094 -0.178544 0.600000 0.000000 0.300000
-0.497172 -0.330060 0.329458 0.600000 0.000000 0.300000
0.473331 -0.493771 0.324532 0.600000 0.000000 0.300000
0.310078 -0.712094 -0.260258 0.600000 0.000000 0.300000
-0.393904 0.715663 -0.124345 0.600000 0.000000 0.300000
-0.405294 -0.412132 -0.190593 0.600000 0.000000 0.300000
0.185494 0.441513 -0.262478 0.600000 0.000000 0.300000
0.153771 0.059942 0.095908 0.600000 0.000000 0.300000
0.236809 0.715663 -0.353675 0.600000 0.000000 0.300000
0.005350 0.441513 -0.042423 0.600000 0.000000 0.300000
0.099793 0.136076 -0.452525 0.600000 0.000000 0.300000
0.390848 -0.453897 0.353012 0.300000 0.000000 0.600000
0.194343 0.715663 -0.068992 0.600000 0.000000 0.300000
0.025569 0.715663 -0.158151 0.600000 0.000000 0.300000
-0.022908 0.059942 -0.260885 0.600000 0.000000 0.300000
0.473331 0.084252 0.323969 0.600000 0.000000 0.300000
-0.122914 -0.803972 -0.295860 0.600000 0.000000 0.300000
-0.360460 0.324035 -0.452525 0.600000 0.000000 0.300000
0.089796 -0.803972 -0.189206 0.600000 0.000000 0.300000
0.009314 0.596993 -0.034428 0.600000 0.000000 0.300000
-0.429765 -0.312245 -0.234459 0.600000 0.300000 0.000000
-0.118455 0.643682 0.336730 0.600000 0.000000 0.300000
0.254560 0.441513 -0.022465 0.600000 0.000000 0.300000
-0.303423 -0.186777 0.410745 0.000000 0.500000 0.500000
0.305429 -0.058534 0.126894 0.600000 0.000000 0.300000
-0.322210 0.033343 -0.041815 0.600000 0.000000 0.300000
-0.171971 0.525012 -0.175918 0.600000 0.000000 0.300000
-0.245983 -0.052371 -0.452525 0.600000 0.000000 0.300000
0.023556 -0.803972 -0.385946 0.600000 0.000000 0.300000
-0.411103 0.643682 0.215631 0.600000 0.000000 0.300000
-0.487982 0.567649 -0.371302 0.600000 0.000000 0.300000
-0.265945 0.441513 -0.067630 0.600000 0.000000 0.300000
0.131756 0.589455 -0.452525 0.600000 0.000000 0.300000
-0.061967 0.596993 -0.200968 0.600000 0.000000 0.300000
-0.017972 0.131923 -0.195495 0.600000 0.000000 0.300000
0.236877 0.059942 -0.159221 0.600000 0.000000 0.300000
0.184361 -0.803972 -0.313899 0.600000 0.000000 0.300000
0.381453 -0.157812 -0.253986 0.600000 0.000000 0.300000
0.134661 0.513494 -0.021868 0.600000 0.000000 0.300000
-0.055378 -0.058534 0.034303 0.600000 0.000000 0.300000
-0.425190 0.605341 -0.326637 0.600000 0.000000 0.300000
0.356215 -0.712094 0.150900 0.600000 0.000000 0.300000
-0.299686 0.059942 -0.204400 0.600000 0.000000 0.300000
0.157849 0.715663 0.214257 0.600000 0.000000 0.300000
-0.425190 0.411944 -0.061133 0.600000 0.000000 0.300000
0.464141 0.649213 -0.159512 0.600000 0.000000 0.300000
0.276174 0.293695 -0.196427 0.600000 0.000000 0.300000
-0.047239 0.300674 0.051701 0.600000 0.000000 0.300000
-0.049220 -0.447296 -0.196770 0.300000 0.000000 0.600000
-0.170016 0.596993 -0.265979 0.600000 0.000000 0.300000
0.033265 0.131923 0.081870 0.600000 0.000000 0.300000
-0.405294 -0.478201 -0.063884 0.600000 0.000000 0.300000
-0.405294 -0.569347 0.220730 0.600000 0.000000 0.300000
0.298418 -0.166434 -0.456957 0.600000 0.000000 0.300000
-0.419208 0.014768 0.386179 0.600000 0.000000 0.300000
-0.030706 0.596993 0.109335 0.600000 0.000000 0.300000
0.336096 0.441513 0.366119 0.600000 0.000000 0.300000
0.079763 0.316442 0.413042 0.000000 1.000000 0.000000
-0.371979 0.420356 -0.452525 0.600000 0.000000 0.300000
0.312443 0.000296 -0.452525 0.600000 0.000000 0.300000
0.312859 -0.058534 -0.154221 0.600000 0.000000 0.300000
-0.141588 -0.494701 0.410745 0.000000 0.500000 0.500000
0.370878 -0.803972 -0.304074 0.600000 0.000000 0.300000
-0.010415 0.345191 -0.392631 0.600000 0.000000 0.300000
0.473331 -0.579394 0.102720 0.600000 0.000000 0.300000
-0.163405 0.715663 0.328752 0.600000 0.000000 0.300000
0.050772 -0.443079 0.228192 0.300000 0.000000 0.600000
0.148405 0.643682 0.035704 0.600000 0.000000 0.300000
-0.135609 0.033343 0.207644 0.600000 0.000000 0.300000
0.473331 -0.503964 0.068817 0.600000 0.000000 0.300000
-0.139082 0.441513 -0.388507 0.600000 0.000000 0.300000
0.195448 0.131923 -0.098497 0.600000 0.000000 0.300000
-0.497172 -0.261893 -0.192766 0.600000 0.000000 0.300000
0.473331 -0.237509 -0.281882 0.600000 0.000000 0.300000
0.271502 -0.439111 -0.194351 0.300000 0.000000 0.600000
0.133468 -0.712094 0.273592 0.600000 0.000000 0.300000
0.350271 0.513494 0.020502 0.600000 0.000000 0.300000
0.435974 -0.803972 0.254789 0.600000 0.000000 0.300000
0.473331 -0.477571 -0.176652 0.600000 0.000000 0.300000
0.381453 -0.492650 -0.277784 0.600000 0.000000 0.300000
0.381453 -0.315739 -0.034621 0.600000 0.000000 0.300000
-0.425190 0.159832 -0.305883 0.600000 0.000000 0.300000
0.473331 -0.702369 0.183491 0.600000 0.000000 0.300000
-0.063002 -0.803972 0.022425 0.600000 0.000000 0.300000
0.160868 -0.447295 0.087110 0.300000 0.000000 0.600000
0.075803 -0.331922 -0.456957 0.600000 0.000000 0.300000
0.401349 0.195265 0.234274 0.600000 0.000000 0.300000
-0.487982 0.674074 -0.358925 0.600000 0.000000 0.300000
0.050284 -0.368861 0.413042 0.000000 0.500000 0.500000
0.088471 0.525012 -0.175426 0.600000 0.000000 0.300000
0.338836 0.441513 -0.215255 0.600000 0.000000 0.300000
-0.492072 0.059942 -0.438493 0.600000 0.000000 0.300000
0.272777 0.675680 0.408989 0.000000 0.000000 1.000000
-0.497172 -0.596617 -0.394156 0.600000 0.000000 0.300000
0.450261 -0.326830 -0.117962 0.600000 0.300000 0.000000
-0.209089 0.033343 -0.383939 0.600000 0.000000 0.300000
0.031540 -0.708290 -0.456957 0.600000 0.000000 0.300000
-0.425190 0.323229 -0.223204 0.600000 0.000000 0.300000
-0.425714 0.235522 -0.452525 0.600000 0.000000 0.300000
0.321877 0.736459 0.416477 0.600000 0.000000 0.300000
0.381453 -0.543086 0.278762 0.600000 0.000000 0.300000
-0.276565 -0.831558 0.395863 0.600000 0.000000 0.300000
0.473331 -0.364552 0.014386 0.600000 0.000000 0.300000
-0.435192 -0.325448 0.028515 0.600000 0.300000 0.000000
0.010592 -0.311183 0.156824 0.600000 0.300000 0.000000
-0.497172 -0.072033 -0.354569 0.600000 0.000000 0.300000
-0.000759 0.513494 0.204581 0.600000 0.000000 0.300000
-0.497172 0.268457 -0.375975 0.600000 0.000000 0.300000
-0.456598 0.033343 0.023091 0.600000 0.000000 0.300000
-0.027312 -0.131675 0.415297 0.500000 0.000000 0.500000
0.266604 -0.570529 -0.452525 0.600000 0.000000 0.300000
0.473331 0.381942 -0.388051 0.600000 0.000000 0.300000
-0.373197 -0.803972 0.293275 0.600000 0.000000 0.300000
-0.129725 0.596993 0.020241 0.600000 0.000000 0.300000
-0.497172 0.135901 -0.265005 0.600000 0.000000 0.300000
0.263651 0.715663 0.059512 0.600000 0.000000 0.300000
0.473331 -0.736342 -0.169249 0.600000 0.000000 0.300000
-0.497172 -0.493890 0.343066 0.600000 0.000000 0.300000
0.028228 -0.604514 -0.452525 0.600000 0.000000 0.300000
-0.274717 -0.360527 0.413042 0.000000 0.500000 0.500000
0.225683 -0.803972 0.375126 0.600000 0.000000 0.300000
-0.041510 -0.268522 -0.456957 0.600000 0.000000 0.300000
-0.228973 -0.058534 -0.042591 0.600000 0.000000 0.300000
-0.482758 0.525012 0.001939 0.600000 0.000000 0.300000
0.113866 0.296435 0.210064 0.600000 0.000000 0.300000
0.188546 0.250892 -0.392631 0.600000 0.000000 0.300000
-0.243695 0.496548 0.415297 1.000000 0.000000 0.000000
0.102121 -0.712094 -0.094656 0.600000 0.000000 0.300000
0.036025 -0.200879 -0.456957 0.600000 0.000000 0.300000
-0.323135 0.059942 -0.430751 0.600000 0.000000 0.300000
-0.231985 0.715663 -0.059553 0.600000 0.000000 0.300000
-0.151695 0.237826 0.410745 0.000000 1.000000 0.000000
0.401349 0.343176 -0.309876 0.600000 0.000000 0.300000
0.112926 -0.082523 0.413042 0.000000 0.500000 0.500000
-0.138171 -0.803972 0.151730 0.600000 0.000000 0.300000
-0.036186 -0.803972 -0.108269 0.600000 0.000000 0.300000
-0.093634 0.293695 0.189204 0.600000 0.000000 0.300000
-0.405294 -0.256085 0.093171 0.600000 0.000000 0.300000
0.401349 0.149277 0.362127 0.600000 0.000000 0.300000
0.401349 0.381002 0.009632 0.600000 0.000000 0.300000
-0.018835 0.005044 -0.452525 0.600000 0.000000 0.300000
0.049310 -0.673703 0.415297 0.500000 0.000000 0.500000
0.464141 0.566961 0.088712 0.600000 0.000000 0.300000
0.391179 0.131923 -0.082958 0.600000 0.000000 0.300000
-0.337310 -0.058534 -0.119972 0.600000 0.000000 0.300000
-0.226920 0.285795 0.272869 0.600000 0.000000 0.300000
0.272600 0.643682 -0.233649 0.600000 0.000000 0.300000
-0.143688 -0.058534 0.287920 0.600000 0.000000 0.300000
0.401804 -0.545651 -0.452525 0.600000 0.000000 0.300000
-0.497073 0.444299 0.346807 0.600000 0.000000 0.300000
-0.425190 0.332050 0.300392 0.600000 0.000000 0.300000
-0.097417 0.293695 -0.223755 0.600000 0.000000 0.300000
-0.487982 0.551261 -0.236215 0.600000 0.000000 0.300000
0.246372 -0.712094 -0.101508 0.600000 0.000000 0.300000
0.447830 -0.312096 0.217447 0.600000 0.300000 0.000000
-0.420908 0.525012 0.167985 0.600000 0.000000 0.300000
-0.425190 0.356194 0.192811 0.600000 0.000000 0.300000
0.230313 -0.803972 -0.253605 0.600000 0.000000 0.300000
0.464141 0.563387 -0.158296 0.600000 0.000000 0.300000
-0.068547 0.441513 -0.025314 0.600000 0.000000 0.300000
-0.313783 0.525012 0.218648 0.600000 0.000000 0.300000
0.344910 -0.335840 0.410745 0.000000 0.500000 0.500000
-0.096897 0.059942 0.378432 0.600000 0.000000 0.300000
0.091718 0.059942 -0.192385 0.600000 0.000000 0.300000
0.418558 -0.796446 -0.452525 0.600000 0.000000 0.300000
-0.320144 -0.712094 -0.005025 0.600000 0.000000 0.300000
-0.497172 -0.587989 -0.130711 0.600000 0.000000 0.300000
0.095276 0.715663 0.064738 0.600000 0.000000 0.300000
-0.473409 -0.310891 -0.452525 0.600000 0.000000 0.300000
0.279480 0.715663 0.322508 0.600000 0.000000 0.300000
-0.497172 0.408969 -0.392612 0.600000 0.000000 0.300000
0.473331 0.331040 -0.073069 0.600000 0.000000 0.300000
0.146161 0.513494 0.216184 0.600000 0.000000 0.300000
0.473331 -0.640945 -0.424713 0.600000 0.000000 0.300000
-0.004450 0.643101 -0.452525 0.600000 0.000000 0.300000
-0.497172 0.289942 0.161060 0.600000 0.000000 0.300000
0.076473 0.656394 0.408990 0.000000 0.000000 1.000000
0.381453 -0.418159 0.196153 0.600000 0.000000 0.300000
-0.405294 -0.296039 0.350525 0.600000 0.000000 0.300000
0.129598 0.168263 0.411916 1.000000 0.000000 0.000000
0.473331 0.231898 -0.355198 0.600000 0.000000 0.300000
-0.124496 -0.333187 0.413042 0.000000 0.500000 0.500000
-0.305963 -0.712094 0.242619 0.600000 0.000000 0.300000
-0.317960 0.033343 0.269050 0.600000 0.000000 0.300000
0.321890 -0.058534 0.047840 0.600000 0.000000 0.300000
-0.497172 0.374507 0.057592 0.600000 0.000000 0.300000
0.477898 0.198130 0.362886 0.600000 0.000000 0.300000
-0.343217 0.513494 0.316343 0.600000 0.000000 0.300000
0.135183 0.314553 -0.277458 0.600000 0.000000 0.300000
0.196615 0.068137 0.415297 1.000000 0.000000 0.000000
-0.297381 -0.712094 -0.190044 0.600000 0.000000 0.300000
-0.313245 0.441513 0.002391 0.600000 0.000000 0.300000
0.345058 0.131923 -0.161687 0.600000 0.000000 0.300000
0.146311 0.441513 -0.067534 0.600000 0.000000 0.300000
-0.248059 0.033343 -0.050414 0.600000 0.000000 0.300000
-0.487982 0.641546 0.332444 0.600000 0.000000 0.300000
-0.407857 -0.774094 0.415297 0.500000 0.000000 0.500000
0.473331 0.236841 0.137813 0.600000 0.000000 0.300000
0.296806 0.643682 -0.102131 0.600000 0.000000 0.300000
-0.316956 -0.439793 0.017208 0.300000 0.000000 0.600000
-0.273302 0.441513 -0.153284 0.600000 0.000000 0.300000
0.332940 0.078372 -0.452525 0.600000 0.000000 0.300000
-0.367084 0.643682 -0.180629 0.600000 0.000000 0.300000
-0.115122 -0.181919 0.413042 0.000000 0.500000 0.500000
-0.405294 -0.405574 0.251966 0.600000 0.000000 0.300000
0.171197 -0.733355 0.415297 0.500000 0.000000 0.500000
0.300097 0.441513 0.161872 0.600000 0.000000 0.300000
-0.497172 0.189620 0.246438 0.600000 0.000000 0.300000
-0.106350 0.709839 -0.452525 0.600000 0.000000 0.300000
-0.374304 -0.051188 0.437261 0.300000 0.600000 0.000000
-0.456539 -0.803972 0.100042 0.600000 0.000000 0.300000
-0.104529 -0.447295 0.255836 0.300000 0.000000 0.600000
0.122479 -0.712094 0.168184 0.600000 0.000000 0.300000
0.247848 0.332548 0.410745 0.000000 1.000000 0.000000
0.401349 0.212733 -0.222523 0.600000 0.000000 0.300000
-0.497172 0.163831 0.093263 0.600000 0.000000 0.300000
-0.100940 -0.310990 -0.245056 0.600000 0.300000 0.000000
-0.316610 -0.278543 -0.456957 0.600000 0.000000 0.300000
-0.367437 -0.319367 0.160881 0.600000 0.300000 0.000000
0.473331 0.349513 0.230462 0.600000 0.000000 0.300000
-0.175012 0.059942 0.351130 0.600000 0.000000 0.300000
0.239171 -0.691002 -0.452525 0.600000 0.000000 0.300000
-0.405294 -0.678230 -0.274282 0.600000 0.000000 0.300000
-0.497172 -0.726958 0.019880 0.600000 0.000000 0.300000
-0.413837 0.131923 -0.149735 0.600000 0.000000 0.300000
-0.497172 0.442127 0.200950 0.600000 0.000000 0.300000
-0.428606 -0.803972 -0.247356 0.600000 0.000000 0.300000
-0.106606 0.535846 -0.452525 0.600000 0.000000 0.300000
0.353470 0.033343 -0.279562 0.600000 0.000000 0.300000
0.151080 0.131923 0.142927 0.600000 0.000000 0.300000
-0.300892 0.033343 0.128018 0.600000 0.000000 0.300000
0.236296 0.446396 0.468672 0.500000 0.500000 0.000000
0.381390 -0.712094 0.233323 0.600000 0.000000 0.300000
0.473331 -0.102835 -0.320447 0.600000 0.000000 0.300000
0.397461 0.441513 0.052451 0.600000 0.000000 0.300000
-0.210792 0.131923 -0.383040 0.600000 0.000000 0.300000
-0.035865 0.131923 -0.269884 0.600000 0.000000 0.300000
0.373956 0.715663 -0.068637 0.600000 0.000000 0.300000
-0.361264 0.295610 0.349857 0.600000 0.000000 0.300000
-0.435359 -0.482765 -0.452525 0.600000 0.000000 0.300000
-0.066944 0.033343 -0.348949 0.600000 0.000000 0.300000
-0.142404 0.596993 0.123523 0.600000 0.000000 0.300000
0.139854 -0.435733 -0.456957 0.600000 0.000000 0.300000
-0.405294 -0.523760 -0.320621 0.600000 0.000000 0.300000
0.457903 0.525012 0.216201 0.600000 0.000000 0.300000
0.265578 -0.447207 0.095109 0.300000 0.000000 0.600000
-0.209478 -0.429727 -0.456957 0.600000 0.000000 0.300000
-0.261210 0.301879 0.136390 0.600000 0.000000 0.300000
0.173132 0.178102 -0.452525 0.600000 0.000000 0.300000
-0.274384 0.643682 -0.126289 0.600000 0.000000 0.300000
0.052177 0.059942 -0.126482 0.600000 0.000000 0.300000
-0.353511 0.596993 0.286942 0.600000 0.000000 0.300000
-0.329049 -0.129357 -0.456957 0.600000 0.000000 0.300000
0.407204 -0.803972 -0.040607 0.600000 0.000000 0.300000
0.287142 -0.411624 0.413042 0.000000 0.500000 0.500000
-0.039328 -0.803972 0.212854 0.600000 0.000000 0.300000
0.336857 0.299661 -0.071074 0.600000 0.000000 0.300000
0.030319 0.715663 0.188510 0.600000 0.000000 0.300000
-0.266965 0.322464 -0.283195 0.600000 0.000000 0.300000
0.031742 0.525012 0.358194 0.600000 0.000000 0.300000
-0.179869 -0.058534 -0.412959 0.600000 0.000000 0.300000
0.013529 0.643682 -0.104935 0.600000 0.000000 0.300000
-0.451362 0.550493 0.386179 0.600000 0.000000 0.300000
-0.005401 0.285563 0.271814 0.600000 0.000000 0.300000
0.172763 -0.315668 0.413042 0.000000 0.500000 0.500000
0.464141 0.645325 0.133840 0.600000 0.000000 0.300000
0.420792 -0.211542 -0.452525 0.600000 0.000000 0.300000
0.303700 0.715663 -0.285349 0.600000 0.000000 0.300000
0.192981 0.596993 0.335829 0.600000 0.000000 0.300000
-0.044387 0.513494 -0.290372 0.600000 0.000000 0.300000
-0.109895 0.033343 -0.055992 0.600000 0.000000 0.300000
-0.103468 0.307995 0.410745 0.000000 1.000000 0.000000
0.089932 0.525012 -0.319044 0.600000 0.000000 0.300000
0.081472 -0.058534 -0.078761 0.600000 0.000000 0.300000
0.473331 -0.097889 0.304639 0.600000 0.000000 0.300000
0.210173 0.131923 0.056026 0.600000 0.000000 0.300000
-0.013349 -0.109311 -0.452525 0.600000 0.000000 0.300000
-0.177339 -0.790427 -0.452525 0.600000 0.000000 0.300000
-0.497172 -0.406224 -0.161456 0.600000 0.000000 0.300000
-0.004449 -0.803972 -0.176566 0.600000 0.000000 0.300000
-0.213899 0.059942 0.040497 0.600000 0.000000 0.300000
0.381453 -0.285963 0.031825 0.600000 0.000000 0.300000
-0.447900 0.059942 -0.319581 0.600000 0.000000 0.300000
0.333149 0.301879 0.232723 0.600000 0.000000 0.300000
0.401349 0.404577 -0.385608 0.600000 0.000000 0.300000
0.299879 0.643682 0.226134 0.600000 0.000000 0.300000
-0.060733 -0.578142 -0.456957 0.600000 0.000000 0.300000
0.267163 -0.479216 -0.452525 0.600000 0.000000 0.300000
0.381453 -0.496043 -0.109694 0.600000 0.000000 0.300000
-0.211346 -0.439111 -0.113687 0.300000 0.000000 0.600000
0.473331 -0.258268 -0.399071 0.600000 0.000000 0.300000
-0.082888 0.715663 0.093541 0.600000 0.000000 0.300000
-0.458362 -0.717819 0.410702 0.500000 0.000000 0.500000
0.401349 0.371170 0.379038 0.600000 0.000000 0.300000
0.192333 0.441513 0.171893 0.600000 0.000000 0.300000
0.381453 -0.312477 -0.411421 0.600000 0.000000 0.300000
0.419694 0.715663 0.102484 0.600000 0.000000 0.300000
0.304889 -0.712094 -0.025658 0.600000 0.000000 0.300000
-0.204951 -0.298339 0.413042 0.000000 0.500000 0.500000
-0.169632 0.441513 0.028043 0.600000 0.000000 0.300000
0.258542 0.643682 -0.307839 0.600000 0.000000 0.300000
-0.497172 -0.177611 -0.064777 0.600000 0.000000 0.300000
-0.056632 -0.441113 -0.103546 0.300000 0.000000 0.600000
0.237362 -0.319315 0.266179 0.600000 0.300000 0.000000
-0.277962 0.639084 0.409277 0.000000 0.000000 1.000000
-0.262981 0.525012 -0.283535 0.600000 0.000000 0.300000
-0.286457 0.033343 -0.278657 0.600000 0.000000 0.300000
0.086389 -0.494947 -0.452525 0.600000 0.000000 0.300000
0.168606 -0.712094 -0.036845 0.600000 0.000000 0.300000
-0.312415 0.131923 0.328727 0.600000 0.000000 0.300000
-0.045338 0.441513 -0.181114 0.600000 0.000000 0.300000
0.098215 0.715663 0.322936 0.600000 0.000000 0.300000
0.473331 -0.263929 0.355052 0.600000 0.000000 0.300000
-0.010815 -0.751333 0.386179 0.600000 0.000000 0.300000
-0.185474 0.715663 0.087758 0.600000 0.000000 0.300000
-0.497073 -0.666709 0.330342 0.600000 0.000000 0.300000
0.173893 0.301879 -0.132737 0.600000 0.000000 0.300000
0.437474 -0.709523 0.415297 0.500000 0.000000 0.500000
-0.069350 0.059942 0.217460 0.600000 0.000000 0.300000
-0.174862 -0.079487 0.415297 0.500000 0.000000 0.500000
-0.021335 0.059942 0.334160 0.600000 0.000000 0.300000
0.333473 0.366321 -0.392631 0.600000 0.000000 0.300000
0.151640 0.643682 0.166306 0.600000 0.000000 0.300000
-0.220495 0.365316 -0.392631 0.600000 0.000000 0.300000
0.392355 0.596993 -0.234036 0.600000 0.000000 0.300000
0.002291 0.130079 -0.452525 0.600000 0.000000 0.300000
-0.130858 0.441513 -0.302218 0.600000 0.000000 0.300000
-0.230781 0.640063 -0.392631 0.600000 0.000000 0.300000
0.191294 0.409379 0.410702 1.000000 0.000000 0.000000
0.473331 -0.336913 0.337009 0.600000 0.000000 0.300000
-0.405294 -0.586948 -0.037689 0.600000 0.000000 0.300000
-0.473166 -0.124992 0.410702 0.500000 0.000000 0.500000
-0.264885 0.722839 0.416077 0.600000 0.000000 0.300000
0.179760 0.289478 -0.452525 0.600000 0.000000 0.300000
-0.405092 -0.573777 -0.452525 0.600000 0.000000 0.300000
-0.425190 0.227918 0.165393 0.600000 0.000000 0.300000
0.473331 -0.644239 0.309631 0.600000 0.000000 0.300000
0.179671 -0.803972 -0.385431 0.600000 0.000000 0.300000
0.104787 0.525012 -0.404194 0.600000 0.000000 0.300000
-0.200159 -0.313795 0.205255 0.600000 0.300000 0.000000
0.154041 0.059942 -0.050650 0.600000 0.000000 0.300000
-0.198423 -0.537582 -0.452525 0.600000 0.000000 0.300000
0.388168 0.293826 0.415297 1.000000 0.000000 0.000000
0.273101 -0.202962 0.413042 0.000000 0.500000 0.500000
0.232231 0.131923 0.321622 0.600000 0.000000 0.300000
-0.117482 0.596993 -0.320723 0.600000 0.000000 0.300000
-0.396944 -0.451679 0.410702 0.500000 0.000000 0.500000
0.057501 -0.781446 -0.452525 0.600000 0.000000 0.300000
-0.429659 0.157672 -0.452525 0.600000 0.000000 0.300000
-0.264520 0.441513 -0.297959 0.600000 0.000000 0.300000
-0.415125 0.643682 -0.073699 0.600000 0.000000 0.300000
-0.388752 0.266488 0.410702 1.000000 0.000000 0.000000
0.473331 -0.733285 -0.375007 0.600000 0.000000 0.300000
0.472608 -0.001070 -0.452525 0.600000 0.000000 0.300000
-0.065164 0.059942 -0.197476 0.600000 0.000000 0.300000
0.472275 -0.803972 -0.217177 0.600000 0.000000 0.300000
0.473331 -0.796906 0.315021 0.600000 0.000000 0.300000
-0.497172 0.015411 -0.119778 0.600000 0.000000 0.300000
-0.187810 0.513494 0.251033 0.600000 0.000000 0.300000
0.473331 -0.117143 0.055792 0.600000 0.000000 0.300000
-0.402508 -0.712094 -0.205173 0.600000 0.000000 0.300000
-0.060069 0.441513 0.372995 0.600000 0.000000 0.300000
0.464141 0.634567 -0.000610 0.600000 0.000000 0.300000
-0.497172 -0.740396 0.196860 0.600000 0.000000 0.300000
0.046635 0.033343 -0.260874 0.600000 0.000000 0.300000
0.381453 -0.598934 0.105820 0.600000 0.000000 0.300000
-0.292541 0.643682 -0.238818 0.600000 0.000000 0.300000
-0.407151 0.669087 0.386179 0.600000 0.000000 0.300000
-0.497172 -0.067690 -0.004117 0.600000 0.000000 0.300000
-0.425190 0.236747 -0.363909 0.600000 0.000000 0.300000
0.286460 0.513494 -0.261411 0.600000 0.000000 0.300000
-0.097887 -0.311183 0.245494 0.600000 0.300000 0.000000
-0.056860 -0.283474 0.410745 0.000000 0.500000 0.500000
0.123411 -0.803972 0.031958 0.600000 0.000000 0.300000
0.300796 0.441513 -0.076002 0.600000 0.000000 0.300000
0.473331 -0.138563 0.155902 0.600000 0.000000 0.300000
0.381453 -0.686186 -0.067733 0.600000 0.000000 0.300000
-0.497172 -0.064362 0.142254 0.600000 0.000000 0.300000
-0.497172 -0.303695 0.086342 0.600000 0.000000 0.300000
0.327997 -0.066497 0.410702 0.500000 0.000000 0.500000
0.190294 0.395375 -0.452525 0.600000 0.000000 0.300000
-0.195136 -0.701065 -0.456957 0.600000 0.000000 0.300000
0.464141 0.653800 -0.305903 0.600000 0.000000 0.300000
-0.325140 -0.440087 0.202036 0.300000 0.000000 0.600000
-0.497172 -0.475720 0.179171 0.600000 0.000000 0.300000
0.441345 0.715663 -0.152499 0.600000 0.000000 0.300000
-0.497172 0.337931 -0.399106 0.600000 0.000000 0.300000
0.381453 -0.482984 -0.412949 0.600000 0.000000 0.300000
-0.192369 -0.445723 0.410745 0.000000 0.500000 0.500000
0.008170 -0.452150 0.352349 0.300000 0.000000 0.600000
-0.016461 -0.712094 0.301713 0.600000 0.000000 0.300000
0.401349 0.344179 -0.124128 0.600000 0.000000 0.300000
0.156089 -0.058534 -0.321802 0.600000 0.000000 0.300000
-0.497172 -0.738360 -0.353752 0.600000 0.000000 0.300000
0.286273 -0.803972 0.048844 0.600000 0.000000 0.300000
-0.497172 -0.153349 -0.228469 0.600000 0.000000 0.300000
0.401349 0.254454 -0.384289 0.600000 0.000000 0.300000
-0.267494 0.643682 0.209607 0.600000 0.000000 0.300000
0.335779 0.525012 -0.315969 0.600000 0.000000 0.300000
0.473331 -0.090508 -0.149108 0.600000 0.000000 0.300000
-0.194850 0.378084 0.413042 0.000000 1.000000 0.000000
-0.329110 0.366560 0.413042 0.000000 1.000000 0.000000
0.317030 0.596993 -0.328400 0.600000 0.000000 0.300000
0.157087 0.643682 -0.283098 0.600000 0.000000 0.300000
-0.300151 -0.803972 0.120807 0.600000 0.000000 0.300000
0.291731 0.193161 0.413042 0.000000 1.000000 0.000000
-0.355556 0.660892 -0.452525 0.600000 0.000000 0.300000
-0.199045 0.715663 0.245053 0.600000 0.000000 0.300000
0.401349 0.436129 -0.270282 0.600000 0.000000 0.300000
-0.497172 -0.580493 -0.272991 0.600000 0.000000 0.300000
-0.448306 -0.751679 -0.452525 0.600000 0.000000 0.300000
-0.285639 -0.712094 -0.296262 0.600000 0.000000 0.300000
-0.131142 0.131923 -0.343254 0.600000 0.000000 0.300000
0.381453 -0.145754 0.255506 0.600000 0.000000 0.300000
0.250787 0.436826 -0.452525 0.600000 0.000000 0.300000
-0.436384 -0.320922 -0.045059 0.600000 0.300000 0.000000
0.187199 -0.419550 -0.267147 0.300000 0.000000 0.600000
0.425096 0.513494 -0.297188 0.600000 0.000000 0.300000
-0.428060 -0.321248 0.104152 0.600000 0.300000 0.000000
0.327464 -0.442955 0.292529 0.300000 0.000000 0.600000
0.411091 -0.129665 0.410702 0.500000 0.000000 0.500000
0.097042 0.513494 -0.089646 0.600000 0.000000 0.300000
0.098935 -0.313913 0.410745 0.000000 0.500000 0.500000
-0.352014 0.441513 -0.250988 0.600000 0.000000 0.300000
0.381453 -0.552255 -0.002786 0.600000 0.000000 0.300000
-0.039283 0.192509 -0.392631 0.600000 0.000000 0.300000
0.464141 0.648981 0.226605 0.600000 0.000000 0.300000
-0.497172 0.214468 0.375882 0.600000 0.000000 0.300000
0.396935 0.643682 0.015280 0.600000 0.000000 0.300000
-0.372059 -0.439111 0.136819 0.300000 0.000000 0.600000
0.287340 0.715663 0.166250 0.600000 0.000000 0.300000
0.078574 0.596993 0.213909 0.600000 0.000000 0.300000
0.211861 -0.639854 0.410702 0.500000 0.000000 0.500000
0.140471 -0.712094 0.356649 0.600000 0.000000 0.300000
-0.199059 0.236682 -0.392631 0.600000 0.000000 0.300000
-0.058804 -0.058534 -0.330151 0.600000 0.000000 0.300000
0.401349 0.296308 0.133699 0.600000 0.000000 0.300000
-0.213920 0.596993 0.045838 0.600000 0.000000 0.300000
0.320441 -0.447295 0.211971 0.300000 0.000000 0.600000
0.159252 -0.058534 0.328117 0.600000 0.000000 0.300000
-0.194290 -0.058534 -0.212416 0.600000 0.000000 0.300000
-0.319794 -0.652803 0.415297 0.500000 0.000000 0.500000
0.014752 0.228613 -0.452525 0.600000 0.000000 0.300000
0.265916 0.070603 0.415297 1.000000 0.000000 0.000000
-0.320920 0.223058 -0.392631 0.600000 0.000000 0.300000
-0.328517 -0.058534 -0.380086 0.600000 0.000000 0.300000
-0.166845 -0.803972 -0.100557 0.600000 0.000000 0.300000
0.428630 0.197141 0.415297 1.000000 0.000000 0.000000
-0.425190 0.250255 -0.072446 0.600000 0.000000 0.300000
0.148114 0.059942 0.366525 0.600000 0.000000 0.300000
0.113297 -0.163111 0.413042 0.000000 0.500000 0.500000
0.081857 0.033343 0.123499 0.600000 0.000000 0.300000
-0.497172 0.274138 -0.129574 0.600000 0.000000 0.300000
-0.405294 -0.117828 0.229119 0.600000 0.000000 0.300000
-0.177584 0.476308 0.415297 1.000000 0.000000 0.000000
-0.497172 0.474923 0.275663 0.600000 0.000000 0.300000
-0.206878 -0.309637 -0.232344 0.600000 0.300000 0.000000
-0.315747 -0.317234 0.355363 0.600000 0.300000 0.000000
0.028825 0.265136 0.413042 0.000000 1.000000 0.000000
-0.043071 0.529109 0.385915 0.600000 0.000000 0.300000
0.076234 -0.712094 0.223999 0.600000 0.000000 0.300000
-0.113038 -0.662146 0.410702 0.500000 0.000000 0.500000
0.370425 -0.058534 -0.084046 0.600000 0.000000 0.300000
0.473331 0.014197 0.227785 0.600000 0.000000 0.300000
0.002008 -0.521547 0.410745 0.000000 0.500000 0.500000
-0.497172 0.228716 0.069681 0.600000 0.000000 0.300000
-0.312142 0.596993 -0.389199 0.600000 0.000000 0.300000
0.086763 -0.803972 -0.258145 0.600000 0.000000 0.300000
0.246856 0.059942 0.017132 0.600000 0.000000 0.300000
-0.384201 0.715663 -0.356080 0.600000 0.000000 0.300000
-0.176206 0.131923 0.272594 0.600000 0.000000 0.300000
0.388692 0.596993 -0.321271 0.600000 0.000000 0.300000
0.441377 0.558649 0.386179 0.600000 0.000000 0.300000
0.401349 0.311645 -0.046190 0.600000 0.000000 0.300000
0.086082 0.131923 -0.193708 0.600000 0.000000 0.300000
0.191668 0.525012 -0.274349 0.600000 0.000000 0.300000
-0.416784 0.606528 -0.452525 0.600000 0.000000 0.300000
-0.496863 0.442802 -0.452525 0.600000 0.000000 0.300000
0.048866 0.059942 0.337224 0.600000 0.000000 0.300000
-0.154642 -0.316171 -0.103540 0.600000 0.300000 0.000000
0.355805 0.525012 -0.143540 0.600000 0.000000 0.300000
0.401349 0.434164 -0.182840 0.600000 0.000000 0.300000
-0.135623 0.131923 0.063395 0.600000 0.000000 0.300000
0.230892 -0.712094 0.060908 0.600000 0.000000 0.300000
-0.405294 -0.344933 -0.373479 0.600000 0.000000 0.300000
0.264122 -0.803972 -0.068831 0.600000 0.000000 0.300000
-0.505686 0.714727 0.391811 0.600000 0.000000 0.300000
0.381453 -0.191359 -0.098403 0.600000 0.000000 0.300000
0.060572 -0.284806 -0.275953 0.600000 0.300000 0.000000
-0.304409 0.446137 -0.452525 0.600000 0.000000 0.300000
-0.458327 -0.803972 -0.331252 0.600000 0.000000 0.300000
-0.076508 0.596993 0.304254 0.600000 0.000000 0.300000
0.202251 0.596993 -0.323626 0.600000 0.000000 0.300000
0.332486 0.059942 -0.053045 0.600000 0.000000 0.300000
0.353942 0.059942 -0.157504 0.600000 0.000000 0.300000
-0.497172 0.419290 -0.197646 0.600000 0.000000 0.300000
-0.425190 0.195229 0.338725 0.600000 0.000000 0.300000
0.473331 0.388546 0.174381 0.600000 0.000000 0.300000
-0.497172 0.152930 -0.198836 0.600000 0.000000 0.300000
0.174495 0.525012 0.352181 0.600000 0.000000 0.300000
-0.324863 0.525012 -0.169927 0.600000 0.000000 0.300000
-0.287097 0.441513 0.299982 0.600000 0.000000 0.300000
0.173647 -0.314630 -0.240117 0.600000 0.300000 0.000000
-0.116115 0.059942 0.093259 0.600000 0.000000 0.300000
-0.261044 0.525012 -0.215271 0.600000 0.000000 0.300000
-0.360392 -0.377774 -0.456957 0.600000 0.000000 0.300000
-0.425190 0.403879 0.127615 0.600000 0.000000 0.300000
-0.405294 -0.145218 -0.204177 0.600000 0.000000 0.300000
0.146250 0.715650 0.386179 0.600000 0.000000 0.300000
0.341307 0.059942 0.262477 0.600000 0.000000 0.300000
-0.312656 -0.058534 0.179592 0.600000 0.000000 0.300000
0.053514 0.596993 0.017459 0.600000 0.000000 0.300000
0.473331 -0.651720 -0.104684 0.600000 0.000000 0.300000
0.401349 0.184235 0.061320 0.600000 0.000000 0.300000
0.272454 -0.712094 0.346535 0.600000 0.000000 0.300000
0.473331 -0.628584 0.055714 0.600000 0.000000 0.300000
-0.180268 -0.550644 0.410745 0.000000 0.500000 0.500000
0.365653 0.643682 0.208940 0.600000 0.000000 0.300000
0.120601 -0.328847 0.267131 0.600000 0.300000 0.000000
0.473331 -0.200502 0.034403 0.600000 0.000000 0.300000
-0.069657 0.059942 0.000586 0.600000 0.000000 0.300000
0.287255 0.441513 0.053230 0.600000 0.000000 0.300000
0.274395 0.033343 0.150950 0.600000 0.000000 0.300000
0.064368 0.145454 0.410702 1.000000 0.000000 0.000000
0.449628 0.292881 0.259284 0.600000 0.000000 0.300000
-0.016321 0.715663 -0.349864 0.600000 0.000000 0.300000
0.473331 -0.439924 0.110216 0.600000 0.000000 0.300000
-0.487982 0.669767 -0.013247 0.600000 0.000000 0.300000
-0.125005 0.362828 -0.452525 0.600000 0.000000 0.300000
-0.405294 -0.622143 -0.381826 0.600000 0.000000 0.300000
-0.497172 0.496310 -0.065426 0.600000 0.000000 0.300000
0.473331 -0.742410 -0.016940 0.600000 0.000000 0.300000
0.448538 0.290236 0.085642 0.600000 0.000000 0.300000
0.235082 0.596993 -0.392274 0.600000 0.000000 0.300000
0.426335 0.513494 -0.048248 0.600000 0.000000 0.300000
-0.497172 -0.016062 -0.450602 0.600000 0.000000 0.300000
0.075813 0.596993 -0.227083 0.600000 0.000000 0.300000
0.473331 -0.539288 -0.356378 0.600000 0.000000 0.300000
-0.181936 0.059942 -0.128134 0.600000 0.000000 0.300000
0.389142 -0.803972 0.167877 0.600000 0.000000 0.300000
0.473331 0.472331 0.049770 0.600000 0.000000 0.300000
-0.497172 -0.128296 -0.309888 0.600000 0.000000 0.300000
0.473331 -0.304888 0.115058 0.600000 0.000000 0.300000
0.381453 -0.545404 0.357836 0.600000 0.000000 0.300000
0.473331 0.118578 0.219970 0.600000 0.000000 0.300000
0.221270 0.301842 0.139435 0.600000 0.000000 0.300000
0.161918 -0.292033 -0.456957 0.600000 0.000000 0.300000
0.082110 0.441513 0.278365 0.600000 0.000000 0.300000
-0.439294 -0.593159 0.410702 0.500000 0.000000 0.500000
0.425332 0.033343 -0.273460 0.600000 0.000000 0.300000
0.311199 -0.732886 0.410702 0.500000 0.000000 0.500000
-0.022333 0.059942 -0.405317 0.600000 0.000000 0.300000
-0.049768 -0.712094 -0.069694 0.600000 0.000000 0.300000
0.440534 -0.444193 -0.235451 0.300000 0.000000 0.600000
0.381453 -0.224077 0.068353 0.600000 0.000000 0.300000
0.068349 -0.315484 -0.048409 0.600000 0.300000 0.000000
0.302857 0.131923 0.103223 0.600000 0.000000 0.300000
-0.497172 -0.778599 0.284745 0.600000 0.000000 0.300000
0.106780 0.715663 -0.163301 0.600000 0.000000 0.300000
0.167593 -0.311183 0.077214 0.600000 0.300000 0.000000
-0.402198 -0.712094 0.347160 0.600000 0.000000 0.300000
-0.497172 0.002234 -0.292406 0.600000 0.000000 0.300000
-0.330968 -0.803972 -0.107587 0.600000 0.000000 0.300000
-0.329371 -0.712094 0.359171 0.600000 0.000000 0.300000
0.007035 0.715663 -0.085775 0.600000 0.000000 0.300000
0.421316 0.525012 0.132937 0.600000 0.000000 0.300000
-0.322193 0.131923 0.174564 0.600000 0.000000 0.300000
0.410198 0.513494 -0.180821 0.600000 0.000000 0.300000
0.368483 0.032131 0.404817 0.500000 0.000000 0.500000
0.263117 0.246353 -0.392631 0.600000 0.000000 0.300000
-0.451389 0.715663 0.266328 0.600000 0.000000 0.300000
0.017211 -0.058534 -0.212302 0.600000 0.000000 0.300000
-0.405294 -0.167051 0.361020 0.600000 0.000000 0.300000
0.473331 0.098599 -0.056725 0.600000 0.000000 0.300000
-0.222885 0.441513 0.181246 0.600000 0.000000 0.300000
0.368338 0.441513 -0.055295 0.600000 0.000000 0.300000
-0.367412 0.080870 0.386179 0.600000 0.000000 0.300000
-0.415465 0.441513 0.073417 0.600000 0.000000 0.300000
0.334732 -0.584744 -0.452525 0.600000 0.000000 0.300000
-0.004234 0.440094 0.464800 0.500000 0.500000 0.000000
0.426869 0.659085 -0.452525 0.600000 0.000000 0.300000
0.438476 -0.452416 0.191585 0.300000 0.000000 0.600000
-0.329024 0.513494 -0.334089 0.600000 0.000000 0.300000
-0.141346 -0.712094 0.280225 0.600000 0.000000 0.300000
-0.269663 0.525012 0.121254 0.600000 0.000000 0.300000
0.333932 -0.426630 -0.275563 0.300000 0.000000 0.600000
0.046463 -0.061616 0.415297 0.500000 0.000000 0.500000
0.403950 0.033343 0.161178 0.600000 0.000000 0.300000
0.381453 -0.166116 0.356485 0.600000 0.000000 0.300000
-0.405294 -0.180137 -0.141655 0.600000 0.000000 0.300000
0.045017 0.643682 -0.288555 0.600000 0.000000 0.300000
-0.171413 0.596993 0.364601 0.600000 0.000000 0.300000
-0.405294 -0.200012 0.208896 0.600000 0.000000 0.300000
-0.348216 -0.803972 -0.242267 0.600000 0.000000 0.300000
0.069264 0.543559 0.416394 0.600000 0.000000 0.300000
0.435747 -0.803972 0.094377 0.600000 0.000000 0.300000
0.107627 0.192613 -0.392631 0.600000 0.000000 0.300000
-0.207209 0.596993 -0.164344 0.600000 0.000000 0.300000
0.479564 0.313058 0.386179 1.000000 0.000000 0.000000
-0.162797 0.457826 -0.452525 0.600000 0.000000 0.300000
0.000656 0.643682 0.037767 0.600000 0.000000 0.300000
-0.436663 -0.454002 0.137296 0.300000 0.000000 0.600000
-0.425190 0.363784 -0.391829 0.600000 0.000000 0.300000
-0.497172 -0.792984 -0.133055 0.600000 0.000000 0.300000
-0.384060 -0.803972 0.180853 0.600000 0.000000 0.300000
0.077163 0.131923 -0.372230 0.600000 0.000000 0.300000
-0.395143 -0.058534 0.007871 0.600000 0.000000 0.300000
-0.225460 0.715663 -0.194335 0.600000 0.000000 0.300000
-0.132353 0.513494 -0.393154 0.600000 0.000000 0.300000
-0.148211 -0.058534 0.358514 0.600000 0.000000 0.300000
-0.430771 -0.830676 0.389938 0.600000 0.000000 0.300000
-0.253628 0.715663 -0.372218 0.600000 0.000000 0.300000
0.330941 -0.803972 -0.162343 0.600000 0.000000 0.300000
-0.431672 0.327830 -0.452525 0.600000 0.000000 0.300000
-0.405294 -0.581877 0.099055 0.600000 0.000000 0.300000
