ply
format ascii 1.0
element vertex 1277
property float x
property float y
property float z
property uchar red
property uchar green
property uchar blue
end_header
-0.497172 0.417972 -0.326864 153 0 76
0.239242 -0.142316 0.413042 127 0 127
-0.058177 -0.270070 -0.456957 153 0 76
0.139338 -0.615421 0.410702 127 0 127
0.381453 -0.623416 0.274189 153 0 76
0.302734 0.033343 0.260482 153 0 76
-0.121212 0.131923 -0.041233 153 0 76
0.372110 0.062291 0.382367 153 0 76
0.401349 0.370123 0.006388 153 0 76
0.363747 -0.712094 0.260174 153 0 76
-0.149178 0.590289 -0.452525 153 0 76
0.473331 0.137071 0.287793 153 0 76
-0.405294 -0.331838 -0.407286 153 0 76
0.004672 0.715663 0.169558 153 0 76
-0.425190 0.370980 0.320864 153 0 76
0.201990 -0.770833 -0.452525 153 0 76
0.388702 0.131923 -0.313532 153 0 76
0.219655 -0.439111 0.018687 76 0 153
0.264086 0.441513 0.073894 153 0 76
0.014085 -0.712094 0.088564 153 0 76
-0.048056 0.421661 0.415297 255 0 0
0.480547 -0.307409 0.364173 153 0 76
0.424453 0.059942 -0.229048 153 0 76
0.473331 -0.186916 -0.358594 153 0 76
0.473331 0.465014 -0.408850 153 0 76
-0.032388 0.033343 0.003390 153 0 76
0.473331 0.321589 -0.057425 153 0 76
0.473331 -0.010805 0.118789 153 0 76
0.059774 0.292969 0.349722 153 0 76
0.207694 0.578956 -0.452525 153 0 76
-0.405294 -0.489420 -0.392996 153 0 76
-0.241949 0.131923 -0.172141 153 0 76
-0.497172 -0.501007 -0.436746 153 0 76
-0.020267 0.643682 -0.124967 153 0 76
-0.405294 -0.604937 -0.132467 153 0 76
0.052675 -0.078299 0.467644 76 153 0
-0.221386 -0.482751 0.413042 0 127 127
0.473331 0.307985 0.298340 153 0 76
0.139566 -0.105037 0.413042 0 127 127
0.323823 -0.712094 -0.163478 153 0 76
0.293067 0.441513 0.233939 153 0 76
0.473331 -0.019477 -0.313000 153 0 76
-0.235120 0.131923 -0.392612 153 0 76
0.232411 0.596993 -0.231008 153 0 76
-0.234405 0.715663 -0.193261 153 0 76
0.351333 -0.684162 0.410702 127 0 127
-0.226452 -0.305407 -0.452525 153 0 76
0.374616 -0.379417 0.415297 127 0 127
-0.011966 0.596993 0.098154 153 0 76
-0.414275 0.525012 -0.328823 153 0 76
-0.278486 0.643682 -0.000831 153 0 76
0.480278 -0.692474 0.386179 127 0 127
-0.497172 0.392053 0.128741 153 0 76
-0.038195 0.596993 -0.171421 153 0 76
0.046331 -0.712094 0.321579 153 0 76
-0.222546 0.484008 0.415297 255 0 0
-0.377405 0.334983 -0.392631 153 0 76
0.158175 -0.446782 -0.115915 76 0 153
-0.372257 0.033343 -0.233517 153 0 76
-0.183861 -0.058534 0.346764 153 0 76
-0.074560 -0.373661 -0.456957 153 0 76
-0.452202 0.059942 -0.400223 153 0 76
0.473331 0.398220 -0.044466 153 0 76
0.006463 0.301425 0.220656 153 0 76
-0.453146 0.059942 -0.078767 153 0 76
0.381453 -0.684250 -0.070072 153 0 76
0.401349 0.222172 -0.387189 153 0 76
0.473331 -0.758032 0.144885 153 0 76
-0.036057 -0.446831 0.357228 76 0 153
0.068542 -0.308853 -0.452525 153 0 76
0.402193 0.059942 -0.322562 153 0 76
0.245943 0.033343 -0.228924 153 0 76
-0.258931 -0.311183 0.046712 153 76 0
0.011926 0.102252 -0.452525 153 0 76
0.434670 -0.303029 0.386179 153 0 76
-0.246828 -0.632637 0.410702 127 0 127
0.364305 0.525012 0.057106 153 0 76
0.155442 -0.058534 -0.285942 153 0 76
-0.043007 -0.319367 0.089996 153 76 0
-0.430185 0.258723 0.410702 255 0 0
0.336054 0.525012 -0.059310 153 0 76
-0.162741 0.715663 -0.073399 153 0 76
0.473331 -0.510779 -0.309074 153 0 76
0.096149 0.596993 -0.392516 153 0 76
0.167361 -0.549118 0.410745 0 127 127
0.107962 0.059942 -0.232750 153 0 76
0.296606 0.596993 0.342407 153 0 76
-0.119041 -0.363402 0.413042 0 127 127
0.473331 -0.455743 -0.276397 153 0 76
-0.497172 -0.459811 0.018645 153 0 76
0.068044 0.715663 0.121883 153 0 76
0.038305 0.715663 -0.424604 153 0 76
-0.045788 -0.058534 -0.119635 153 0 76
-0.293374 -0.532826 -0.456957 153 0 76
-0.176065 0.599817 -0.392631 153 0 76
-0.405294 -0.501084 -0.118284 153 0 76
-0.246052 -0.058534 0.101268 153 0 76
0.102216 0.033343 -0.179185 153 0 76
0.129075 -0.326469 0.344007 153 76 0
0.473331 -0.398711 -0.286923 153 0 76
-0.324921 0.550023 0.386179 153 0 76
-0.497172 -0.128171 -0.139948 153 0 76
-0.262045 0.299213 -0.035315 153 0 76
-0.220996 -0.388772 0.413042 0 127 127
-0.405294 -0.669187 -0.228102 153 0 76
0.197918 0.056613 0.386179 153 0 76
-0.090085 0.131923 -0.135953 153 0 76
-0.386211 -0.712094 -0.454993 153 0 76
0.439020 0.322530 -0.285225 153 0 76
-0.217736 -0.442617 0.363127 76 0 153
0.248398 0.130807 -0.452525 153 0 76
-0.155851 -0.444370 0.296912 76 0 153
-0.497172 0.076506 -0.024781 153 0 76
0.238091 0.131923 0.172339 153 0 76
-0.405525 0.531021 -0.452525 153 0 76
-0.444415 0.059942 0.036619 153 0 76
0.225684 0.059942 0.023839 153 0 76
0.081743 -0.803972 0.360999 153 0 76
0.449338 -0.380244 0.386179 127 0 127
0.351724 -0.712094 0.356338 153 0 76
0.473331 0.330626 -0.323671 153 0 76
0.263732 -0.707011 0.415297 127 0 127
-0.385227 0.510893 0.381545 255 0 0
-0.025766 0.548501 0.410702 153 0 76
0.473331 0.092771 -0.002037 153 0 76
0.024701 0.033343 -0.383583 153 0 76
0.444249 0.033343 0.339926 153 0 76
-0.383361 -0.058534 -0.000908 153 0 76
-0.383100 0.441513 -0.131842 153 0 76
0.124259 0.596993 -0.223952 153 0 76
-0.435334 -0.184713 -0.452525 153 0 76
0.310423 0.715663 -0.193582 153 0 76
0.420549 0.535572 -0.452525 153 0 76
0.039763 0.340554 -0.392631 153 0 76
-0.010283 -0.016121 -0.452525 153 0 76
0.233067 -0.571753 -0.452525 153 0 76
-0.237230 0.131923 -0.060317 153 0 76
0.429077 0.209480 0.415297 255 0 0
0.221270 -0.313484 0.223099 153 76 0
-0.044194 0.033343 0.078934 153 0 76
-0.216140 0.643682 0.342196 153 0 76
-0.034174 0.513494 0.220853 153 0 76
0.112658 -0.442157 0.120832 76 0 153
-0.361949 -0.311183 0.103133 153 76 0
-0.385397 0.167442 0.410745 0 255 0
0.473331 -0.563385 -0.229363 153 0 76
-0.501640 0.116385 0.383738 255 0 0
-0.246869 0.715663 0.308325 153 0 76
0.473331 -0.536596 -0.135750 153 0 76
0.464141 0.554619 -0.086046 153 0 76
0.421036 -0.741875 0.410702 127 0 127
0.473331 -0.624751 0.273623 153 0 76
0.184792 0.490856 -0.452525 153 0 76
0.320768 0.059942 -0.383719 153 0 76
0.473331 -0.298600 -0.040201 153 0 76
-0.497172 0.406860 -0.255450 153 0 76
-0.504289 -0.545305 0.414136 127 0 127
0.068352 -0.346805 0.410745 0 127 127
0.381453 -0.230345 0.130519 153 0 76
-0.504289 -0.780710 0.396295 153 0 76
0.349548 -0.091765 0.413042 0 127 127
0.381453 -0.656602 -0.002837 153 0 76
-0.497172 -0.478100 0.068630 153 0 76
-0.005116 0.033343 0.201939 153 0 76
0.225551 0.131923 0.316571 153 0 76
0.381453 -0.591003 -0.323525 153 0 76
0.288294 0.643682 -0.334552 153 0 76
0.381166 -0.426776 -0.243119 76 0 153
0.177353 0.525012 -0.266863 153 0 76
0.208525 0.525012 0.296849 153 0 76
0.055462 0.131923 -0.287925 153 0 76
0.473331 -0.247181 -0.221989 153 0 76
-0.379988 0.441513 0.191416 153 0 76
0.398507 0.131923 -0.004271 153 0 76
-0.185258 0.513494 -0.293312 153 0 76
0.131052 0.131923 -0.210516 153 0 76
0.185061 0.131923 0.219191 153 0 76
0.330104 0.596993 -0.350505 153 0 76
0.381453 -0.101133 -0.138086 153 0 76
-0.201793 0.513494 0.154869 153 0 76
-0.361264 -0.313083 -0.188233 153 76 0
-0.097109 0.596993 -0.320500 153 0 76
0.473331 -0.511413 0.161737 153 0 76
-0.405294 -0.510678 -0.265565 153 0 76
0.180209 0.059942 0.296735 153 0 76
-0.443680 -0.455674 0.267347 76 0 153
0.131731 0.441513 0.341151 153 0 76
-0.497172 0.493592 0.314822 153 0 76
-0.405294 -0.220441 -0.218255 153 0 76
0.433933 0.385757 -0.452525 153 0 76
-0.497172 -0.124067 -0.302404 153 0 76
-0.406730 0.359469 -0.452525 153 0 76
-0.233524 0.596993 -0.146120 153 0 76
0.377406 0.715663 0.377434 153 0 76
0.358849 -0.803972 -0.118466 153 0 76
-0.066899 0.715663 -0.336358 153 0 76
0.206045 0.596993 0.181065 153 0 76
0.289848 0.596993 -0.382574 153 0 76
0.332907 0.596993 0.158628 153 0 76
0.401349 0.262154 0.216380 153 0 76
-0.243579 -0.058534 -0.196189 153 0 76
-0.234840 -0.290647 0.410745 0 127 127
-0.073933 0.296705 -0.452525 153 0 76
0.014407 0.513494 -0.263691 153 0 76
-0.497172 -0.462752 0.229876 153 0 76
-0.263974 -0.712094 0.108550 153 0 76
0.302241 0.032131 0.412440 127 0 127
-0.188758 -0.803972 0.101170 153 0 76
-0.494630 0.232171 -0.452525 153 0 76
0.401349 0.434427 -0.068846 153 0 76
-0.202151 -0.712094 -0.202097 153 0 76
-0.362607 -0.311183 0.228411 153 76 0
-0.164736 -0.725370 0.415297 127 0 127
0.401349 0.137405 0.208686 153 0 76
0.178117 -0.535673 -0.456957 153 0 76
-0.160065 -0.418911 -0.456957 153 0 76
-0.472502 0.136699 -0.452525 153 0 76
-0.362539 0.059942 0.179612 153 0 76
0.473331 0.065499 0.050746 153 0 76
0.227762 0.131923 0.030922 153 0 76
0.211022 -0.712094 -0.025718 153 0 76
0.014083 -0.311183 0.224299 153 76 0
0.009049 0.715663 0.022153 153 0 76
-0.129244 0.715663 -0.416922 153 0 76
0.473331 -0.508404 -0.035324 153 0 76
-0.319830 0.059942 0.233221 153 0 76
-0.332789 0.715663 0.345713 153 0 76
0.182275 0.441513 -0.016271 153 0 76
-0.135832 0.441513 0.236937 153 0 76
0.129741 -0.374334 -0.452525 153 0 76
-0.275577 -0.803972 -0.318333 153 0 76
-0.488047 0.033343 0.220006 153 0 76
0.269235 -0.712094 -0.341197 153 0 76
-0.425190 0.393123 0.222142 153 0 76
0.013497 -0.058534 0.386163 153 0 76
0.398497 0.172266 -0.392631 153 0 76
-0.024606 0.033343 0.369551 153 0 76
0.215644 0.400992 -0.452525 153 0 76
-0.327688 0.643682 -0.184013 153 0 76
-0.060024 0.131923 -0.217906 153 0 76
-0.497172 -0.214998 0.079613 153 0 76
-0.405294 -0.587492 -0.340506 153 0 76
0.315504 0.117839 0.421096 255 0 0
0.355357 -0.447421 -0.165648 76 0 153
-0.405294 -0.575016 0.147787 153 0 76
0.381453 -0.273788 -0.068351 153 0 76
0.110119 0.443014 0.415297 255 0 0
0.197493 0.715663 -0.396227 153 0 76
-0.429889 -0.327499 0.270365 153 76 0
-0.040908 0.643682 0.031527 153 0 76
0.297899 0.596993 -0.034990 153 0 76
-0.089694 -0.110318 -0.456957 153 0 76
-0.127973 -0.712094 -0.145289 153 0 76
0.359526 -0.058534 0.024625 153 0 76
0.473331 -0.543016 0.264342 153 0 76
0.268266 0.612626 0.386179 153 0 76
-0.181426 0.596993 0.250286 153 0 76
-0.174728 0.131923 0.131466 153 0 76
-0.497172 -0.428713 -0.153500 153 0 76
-0.297767 0.513494 0.351367 153 0 76
0.201911 0.441513 0.057019 153 0 76
0.071278 0.643682 0.197352 153 0 76
0.473331 0.396603 -0.121371 153 0 76
-0.283716 -0.058534 -0.336122 153 0 76
-0.497172 -0.057054 0.219314 153 0 76
-0.060258 -0.449349 0.274775 76 0 153
-0.487982 0.619165 0.364075 153 0 76
0.226743 0.131923 -0.194147 153 0 76
-0.463539 -0.707676 0.415297 127 0 127
0.473331 0.401098 -0.397375 153 0 76
-0.462083 0.398338 0.386179 153 0 76
0.188042 0.596993 -0.208095 153 0 76
0.172356 0.643682 0.184318 153 0 76
0.309061 0.596993 -0.192879 153 0 76
-0.334066 0.637428 0.408405 0 0 255
-0.335399 0.324320 0.413042 0 255 0
0.457988 -0.321119 -0.087994 153 76 0
-0.497172 0.068593 -0.154780 153 0 76
-0.067357 0.513504 0.412036 255 0 0
-0.497172 -0.048503 0.088485 153 0 76
-0.497172 0.077799 -0.397401 153 0 76
-0.383998 -0.803972 -0.311519 153 0 76
-0.247028 -0.454882 -0.157464 76 0 153
0.473331 -0.477168 -0.084553 153 0 76
-0.487982 0.713809 0.376079 153 0 76
0.441110 0.513494 0.009578 153 0 76
-0.322236 0.033343 0.320766 153 0 76
-0.497172 -0.576014 -0.116031 153 0 76
-0.257179 -0.797780 -0.452525 153 0 76
-0.497172 -0.049268 -0.307928 153 0 76
0.175054 0.643682 -0.252988 153 0 76
0.016755 0.626359 -0.452525 153 0 76
0.401349 0.429201 -0.302207 153 0 76
0.056720 0.033343 -0.160988 153 0 76
0.231065 -0.618450 0.410745 0 127 127
-0.361264 -0.314508 -0.091169 153 76 0
-0.103168 0.643682 0.296177 153 0 76
0.019424 -0.803972 0.296921 153 0 76
0.153385 -0.618369 -0.452525 153 0 76
-0.162883 -0.712094 0.267312 153 0 76
-0.117921 0.131923 0.269536 153 0 76
-0.386534 0.634311 -0.392631 153 0 76
0.113503 -0.058534 -0.124761 153 0 76
0.061688 0.059942 0.164516 153 0 76
-0.076500 0.513494 0.165579 153 0 76
-0.164393 0.513494 -0.111766 153 0 76
-0.427879 0.525012 0.125367 153 0 76
-0.497172 -0.775114 0.025864 153 0 76
0.147905 0.033343 -0.235246 153 0 76
0.469585 0.033343 0.144575 153 0 76
0.281441 0.596993 0.236226 153 0 76
0.358653 0.033343 0.061300 153 0 76
0.170370 0.513494 0.209495 153 0 76
-0.177899 0.643682 -0.087458 153 0 76
0.450217 -0.318660 0.063352 153 76 0
0.376412 0.513494 0.194894 153 0 76
0.236274 -0.058534 -0.348227 153 0 76
0.093217 -0.712094 0.134860 153 0 76
0.059916 0.131923 -0.133743 153 0 76
0.381453 -0.159995 -0.060867 153 0 76
0.186166 0.441513 -0.307967 153 0 76
-0.246282 0.596993 -0.055083 153 0 76
0.447011 -0.448278 0.386179 127 0 127
-0.497172 -0.100780 0.305124 153 0 76
-0.375137 0.525012 -0.378835 153 0 76
-0.459986 -0.057288 0.386179 153 0 76
-0.134348 -0.803972 -0.094047 153 0 76
0.473331 -0.670536 0.341959 153 0 76
-0.405294 -0.106705 0.057819 153 0 76
0.002282 -0.712094 0.302188 153 0 76
-0.255203 -0.803972 0.343561 153 0 76
-0.260669 0.525012 0.073695 153 0 76
-0.432163 -0.831559 0.387977 153 0 76
-0.159153 -0.803972 0.185446 153 0 76
-0.411382 -0.543181 0.410745 0 127 127
-0.405294 -0.299261 0.019373 153 0 76
-0.112133 0.513494 0.070208 153 0 76
0.381453 -0.340629 0.114932 153 0 76
-0.340411 0.266696 -0.392631 153 0 76
-0.217240 0.596993 -0.303615 153 0 76
-0.450090 0.643284 -0.452525 153 0 76
-0.497172 -0.392078 -0.061061 153 0 76
0.328675 -0.712094 -0.290915 153 0 76
0.328673 0.299126 -0.059075 153 0 76
0.388721 -0.319367 0.072792 153 76 0
0.413246 -0.803972 0.357568 153 0 76
0.381453 -0.657744 0.363922 153 0 76
-0.405294 -0.314577 0.374815 153 0 76
0.222506 0.513494 -0.341015 153 0 76
0.473331 -0.397739 -0.218281 153 0 76
-0.158315 -0.230702 -0.452525 153 0 76
0.020324 0.643682 -0.207910 153 0 76
-0.497172 -0.113966 -0.238178 153 0 76
-0.350221 -0.532239 0.410745 0 127 127
-0.306382 -0.762450 -0.452525 153 0 76
0.473331 -0.126836 -0.014344 153 0 76
0.381453 -0.540350 -0.370855 153 0 76
-0.269530 -0.702386 -0.456957 153 0 76
0.434673 -0.075306 0.434166 76 153 0
0.110997 -0.712094 0.004022 153 0 76
0.061868 0.596993 0.351911 153 0 76
-0.441940 0.513494 -0.032094 153 0 76
-0.162792 -0.712094 0.172342 153 0 76
0.059984 0.131923 0.116927 153 0 76
-0.497172 0.150747 0.000029 153 0 76
-0.175834 0.643682 -0.151734 153 0 76
0.296698 -0.712094 -0.401669 153 0 76
0.309287 -0.058534 -0.216648 153 0 76
0.473331 -0.142625 0.302657 153 0 76
-0.497172 0.482639 0.093866 153 0 76
0.254242 0.131923 -0.077179 153 0 76
-0.305980 -0.362674 -0.456957 153 0 76
0.044895 0.643682 -0.383304 153 0 76
0.401349 0.221519 0.309370 153 0 76
-0.123112 0.363503 0.410745 0 255 0
-0.497172 -0.351174 -0.297034 153 0 76
-0.405294 -0.501996 0.203411 153 0 76
0.232222 -0.375901 -0.456957 153 0 76
0.432120 0.715663 0.127066 153 0 76
-0.143365 -0.518176 0.410745 0 127 127
-0.229476 0.451731 -0.452525 153 0 76
0.381453 -0.638616 -0.389390 153 0 76
0.336590 0.293695 0.226681 153 0 76
-0.405294 -0.697779 -0.349741 153 0 76
-0.345329 0.028011 0.386179 127 0 127
-0.129237 0.131923 -0.287520 153 0 76
-0.117950 -0.058534 0.177709 153 0 76
-0.388988 0.596993 -0.184669 153 0 76
-0.469060 0.527426 0.401643 153 0 76
-0.138195 -0.803972 0.352195 153 0 76
-0.294959 -0.712094 -0.217121 153 0 76
-0.425190 0.362539 -0.323171 153 0 76
0.161976 0.439900 0.457453 127 127 0
0.381453 -0.351753 -0.351694 153 0 76
-0.047238 0.293978 0.083802 153 0 76
0.104228 -0.271005 -0.452525 153 0 76
0.249774 0.449887 0.451983 127 127 0
0.207265 0.033343 -0.173442 153 0 76
0.372330 0.715663 0.036740 153 0 76
0.473331 0.235435 -0.095348 153 0 76
-0.497172 0.019809 0.156760 153 0 76
-0.262354 0.441513 -0.069436 153 0 76
0.055614 -0.439111 -0.062036 76 0 153
0.266685 -0.803972 -0.046664 153 0 76
-0.055768 0.441513 0.173604 153 0 76
0.473331 -0.602912 -0.302810 153 0 76
-0.035726 -0.061960 -0.452525 153 0 76
-0.277743 0.059942 0.168664 153 0 76
-0.385591 0.715663 0.379986 153 0 76
-0.265728 -0.131191 0.410745 127 0 127
0.099170 0.033343 -0.023004 153 0 76
0.473331 -0.035389 -0.067339 153 0 76
0.381453 -0.560178 -0.198746 153 0 76
0.464141 0.552441 0.092265 153 0 76
-0.425190 0.308130 -0.074577 153 0 76
0.320908 0.103307 -0.452525 153 0 76
0.276409 0.083967 0.415297 255 0 0
-0.405294 -0.270951 0.296292 153 0 76
-0.406633 -0.448326 0.410702 127 0 127
0.350691 0.351228 0.415297 0 255 0
-0.031050 0.195142 -0.452525 153 0 76
0.068600 0.643682 -0.112820 153 0 76
-0.405294 -0.170942 0.306567 153 0 76
0.237214 0.640407 0.408405 153 0 76
0.328904 -0.712094 -0.012889 153 0 76
-0.131841 0.131923 0.166402 153 0 76
0.473331 -0.166460 -0.186091 153 0 76
0.321603 0.525012 0.026092 153 0 76
-0.100691 0.596993 -0.080867 153 0 76
0.317651 0.131923 0.201414 153 0 76
0.126417 0.643682 -0.227740 153 0 76
-0.320434 0.596993 -0.332161 153 0 76
0.120457 0.500439 0.415297 255 0 0
-0.147140 0.643682 0.138451 153 0 76
-0.315823 0.525012 0.204775 153 0 76
0.091427 0.059942 0.301385 153 0 76
-0.425190 0.181892 -0.159554 153 0 76
0.401349 0.604405 -0.137542 153 0 76
0.243638 0.715663 -0.256259 153 0 76
0.464141 0.712491 -0.223926 153 0 76
-0.428997 -0.496396 0.386179 127 0 127
-0.486597 0.059942 -0.246433 153 0 76
-0.213661 -0.058534 -0.270449 153 0 76
-0.141709 0.643682 0.053460 153 0 76
-0.387657 0.033343 0.042178 153 0 76
0.136374 0.513494 -0.357075 153 0 76
-0.337426 0.715663 -0.300396 153 0 76
-0.254273 0.063917 -0.452525 153 0 76
0.464141 0.600169 -0.242314 153 0 76
-0.147273 -0.319367 -0.222170 153 76 0
0.093469 -0.803972 0.145093 153 0 76
0.477898 0.063655 0.367576 153 0 76
0.473331 0.403395 0.275478 153 0 76
0.401349 0.163948 -0.222110 153 0 76
-0.146458 0.313026 -0.252965 153 0 76
-0.497172 0.476760 -0.032574 153 0 76
0.286668 0.440686 0.415297 255 0 0
-0.378841 -0.446400 -0.017087 76 0 153
-0.161855 0.590295 0.408405 0 0 255
0.001339 -0.006378 0.386179 127 0 127
0.221807 0.441513 0.291693 153 0 76
0.392282 -0.483788 -0.452525 153 0 76
-0.328496 -0.058534 -0.390611 153 0 76
0.473331 -0.698642 -0.315722 153 0 76
0.313435 -0.803972 0.194717 153 0 76
-0.423679 0.643682 -0.291670 153 0 76
-0.157479 -0.058534 -0.242888 153 0 76
-0.363075 0.441513 -0.178701 153 0 76
-0.200159 -0.314261 0.298188 153 76 0
-0.284079 0.525012 -0.359525 153 0 76
0.473331 -0.648482 0.121091 153 0 76
-0.264853 -0.058534 0.252373 153 0 76
0.349643 0.059942 0.307521 153 0 76
0.014091 0.033343 -0.000143 153 0 76
-0.440284 -0.803972 -0.405256 153 0 76
-0.280179 -0.803972 -0.208160 153 0 76
-0.243500 0.596993 0.056041 153 0 76
0.010176 0.525012 0.129517 153 0 76
-0.086971 0.639097 0.386179 153 0 76
0.190257 -0.712094 0.310340 153 0 76
-0.425190 0.328354 0.345345 153 0 76
-0.405294 -0.289324 0.077723 153 0 76
-0.419868 0.525012 0.057362 153 0 76
-0.338167 0.334478 -0.452525 153 0 76
0.337915 0.715663 -0.304573 153 0 76
-0.111623 0.513494 0.001862 153 0 76
0.027806 0.525012 -0.445897 153 0 76
-0.491064 -0.619351 -0.452525 153 0 76
0.464141 0.651706 -0.072554 153 0 76
-0.332315 -0.079433 0.456119 76 153 0
0.157576 0.525012 -0.174455 153 0 76
0.183032 0.182288 -0.392631 153 0 76
0.403385 0.138053 -0.452525 153 0 76
0.111939 0.147880 -0.452525 153 0 76
0.342239 0.576020 -0.452525 153 0 76
0.473331 0.106559 -0.181191 153 0 76
0.181955 0.214398 0.410745 0 255 0
-0.405294 -0.358795 -0.331597 153 0 76
-0.465124 -0.803972 -0.076262 153 0 76
0.473331 -0.115852 -0.167778 153 0 76
0.396894 0.628937 0.386179 153 0 76
-0.203563 0.513494 0.363935 153 0 76
-0.381648 -0.547930 -0.452525 153 0 76
-0.405294 -0.183548 -0.150349 153 0 76
0.473331 0.258816 -0.177780 153 0 76
-0.096069 -0.803972 -0.243678 153 0 76
0.183323 -0.712094 -0.119809 153 0 76
0.277880 -0.803972 -0.093668 153 0 76
-0.080852 0.715663 -0.015331 153 0 76
-0.316906 -0.445485 -0.456957 153 0 76
0.155215 0.304778 0.413042 0 255 0
0.185507 0.747836 0.388268 153 0 76
0.352958 0.643682 0.299301 153 0 76
0.102105 -0.803972 0.235076 153 0 76
-0.301105 0.513494 -0.406250 153 0 76
-0.405294 -0.350705 -0.235745 153 0 76
0.381453 -0.175120 -0.200829 153 0 76
-0.441372 -0.803972 -0.157536 153 0 76
0.401349 0.191538 0.172272 153 0 76
-0.352260 -0.712094 -0.250917 153 0 76
-0.392977 -0.058534 0.352120 153 0 76
0.062017 0.596993 0.293013 153 0 76
0.156110 0.059942 0.164242 153 0 76
0.097458 0.033343 -0.345153 153 0 76
0.162524 0.643682 -0.144476 153 0 76
-0.504289 -0.651137 0.367577 153 0 76
-0.230382 0.059942 -0.404247 153 0 76
0.163838 0.513494 -0.417982 153 0 76
-0.444943 -0.574748 0.415297 127 0 127
-0.313515 0.307043 -0.255237 153 0 76
0.430921 0.059942 0.209860 153 0 76
0.473331 0.100031 -0.444021 153 0 76
0.464141 0.648760 0.088116 153 0 76
0.447193 -0.612678 0.415297 127 0 127
0.217183 -0.560291 0.410745 0 127 127
0.369946 0.525012 0.106778 153 0 76
-0.060032 0.441513 -0.346282 153 0 76
-0.214646 0.715663 -0.347226 153 0 76
-0.255764 0.293695 0.302096 153 0 76
-0.265624 0.532030 -0.452525 153 0 76
-0.095579 0.321960 -0.392631 153 0 76
-0.153970 0.525012 0.300331 153 0 76
0.480547 0.188210 0.410112 255 0 0
-0.338743 -0.803972 -0.452484 153 0 76
-0.311360 0.705483 0.386179 153 0 76
-0.311393 0.715663 0.006680 153 0 76
-0.208343 -0.317971 -0.005606 153 76 0
-0.057658 0.131923 0.310234 153 0 76
0.401349 0.236529 -0.282175 153 0 76
0.074275 -0.548922 -0.452525 153 0 76
0.401349 0.611415 0.268873 153 0 76
-0.139290 0.228181 -0.452525 153 0 76
-0.130616 0.715663 -0.315160 153 0 76
0.017656 0.059942 0.278849 153 0 76
0.357241 -0.803972 -0.268255 153 0 76
0.473331 0.484503 -0.365574 153 0 76
-0.194378 -0.151921 0.410745 0 127 127
-0.083633 0.033343 -0.158122 153 0 76
0.269677 0.059942 0.286604 153 0 76
0.464141 0.661455 0.039987 153 0 76
-0.223821 -0.803972 -0.276553 153 0 76
0.120902 0.579430 0.408405 153 0 76
-0.403092 -0.058534 -0.260996 153 0 76
-0.497172 -0.613815 0.020918 153 0 76
0.084593 0.699894 0.408405 0 0 255
-0.133973 0.643682 -0.281237 153 0 76
-0.218843 -0.058534 0.059300 153 0 76
0.162883 0.441513 0.132481 153 0 76
-0.433012 0.715663 -0.016542 153 0 76
0.348172 -0.712094 0.092859 153 0 76
0.265237 -0.712094 0.057300 153 0 76
-0.280173 0.643682 -0.092195 153 0 76
0.480547 0.479174 0.411631 255 0 0
-0.497172 -0.282707 0.020438 153 0 76
0.169858 0.033343 -0.025855 153 0 76
-0.159569 0.715663 -0.120327 153 0 76
-0.040282 0.059942 0.300888 153 0 76
-0.218066 -0.058534 0.191764 153 0 76
0.128312 0.513494 0.228066 153 0 76
0.302114 0.596993 -0.283482 153 0 76
0.049886 -0.058534 -0.072442 153 0 76
0.068349 -0.311504 0.260455 153 76 0
-0.044563 -0.058534 0.343238 153 0 76
0.350943 0.713001 -0.452525 153 0 76
-0.497172 -0.419130 -0.255105 153 0 76
0.071972 -0.058534 -0.317894 153 0 76
0.278145 0.059942 -0.311684 153 0 76
0.401349 0.371404 -0.091172 153 0 76
0.447602 -0.324200 -0.225882 153 76 0
-0.425190 0.179817 0.112867 153 0 76
-0.409475 0.033343 0.344893 153 0 76
-0.499364 0.032131 0.392104 127 0 127
0.222533 0.643682 -0.045686 153 0 76
0.232701 -0.472154 0.413042 0 127 127
-0.405294 -0.708413 0.333676 153 0 76
-0.422018 -0.643274 0.415297 0 127 127
0.322726 -0.058534 -0.356255 153 0 76
0.109245 -0.058534 0.336671 153 0 76
0.354578 0.153216 -0.392631 153 0 76
-0.468428 0.123496 0.415297 255 0 0
-0.111789 0.131923 0.076790 153 0 76
-0.413816 0.365624 -0.392631 153 0 76
-0.193833 -0.799329 0.386179 153 0 76
-0.497172 0.320005 0.187166 153 0 76
0.211877 -0.439271 0.292738 76 0 153
-0.441337 0.715663 -0.255165 153 0 76
0.021012 0.596993 -0.290457 153 0 76
-0.497172 -0.361088 -0.203318 153 0 76
-0.319694 -0.712094 0.184847 153 0 76
-0.051870 -0.439111 0.171752 76 0 153
0.471750 -0.518797 -0.452525 153 0 76
-0.160519 0.435911 -0.452525 153 0 76
-0.072701 0.033343 -0.245006 153 0 76
-0.405294 -0.097962 0.007083 153 0 76
-0.497172 -0.799917 0.313606 153 0 76
0.325468 0.513494 -0.350742 153 0 76
0.477898 0.259261 0.369772 153 0 76
0.125551 0.441513 -0.237133 153 0 76
-0.013128 -0.746540 -0.452525 153 0 76
0.391105 -0.803972 -0.030908 153 0 76
0.293551 0.643682 -0.132237 153 0 76
-0.497172 -0.693873 -0.152562 153 0 76
0.473331 -0.120555 0.257607 153 0 76
0.159881 -0.439111 0.066153 76 0 153
-0.273362 -0.208179 0.410745 0 127 127
0.381453 -0.669210 0.275397 153 0 76
0.473331 0.140244 -0.258075 153 0 76
0.048774 -0.712094 0.149339 153 0 76
0.056217 0.131923 -0.080134 153 0 76
-0.110560 0.271722 -0.392631 153 0 76
0.297649 0.131923 0.244771 153 0 76
0.401349 0.359614 -0.191145 153 0 76
-0.307995 0.441513 0.250756 153 0 76
0.346177 -0.508378 -0.452525 153 0 76
-0.211101 0.441513 -0.378763 153 0 76
0.401349 0.293959 0.379128 153 0 76
0.357080 0.596993 0.074542 153 0 76
-0.225541 0.315534 -0.277427 153 0 76
0.473331 0.281225 -0.333683 153 0 76
0.439427 -0.478918 -0.452525 153 0 76
-0.131331 -0.194158 -0.456957 153 0 76
0.216017 -0.803972 -0.313640 153 0 76
-0.341482 -0.803972 0.365236 153 0 76
0.168750 0.059942 0.076292 153 0 76
0.148549 0.715663 0.298608 153 0 76
-0.058409 0.525012 -0.128495 153 0 76
-0.345271 0.033343 0.272169 153 0 76
-0.196738 0.708503 0.408405 0 0 255
0.065283 -0.042391 -0.452525 153 0 76
-0.213024 0.033343 0.069048 153 0 76
0.069790 0.064975 0.386179 153 0 76
0.473331 0.203136 0.085566 153 0 76
-0.405294 -0.670626 -0.089159 153 0 76
0.381453 -0.551628 0.228141 153 0 76
0.359148 0.513494 0.322910 153 0 76
-0.497172 -0.489941 0.134387 153 0 76
0.438386 -0.452640 -0.008347 76 0 153
0.102741 0.033343 0.232512 153 0 76
0.096865 0.249619 0.413042 0 255 0
0.038591 0.525012 0.088058 153 0 76
0.473331 0.429141 -0.308657 153 0 76
-0.197366 0.059942 0.200398 153 0 76
0.113867 -0.311995 -0.096178 153 76 0
0.351992 0.131923 0.382181 153 0 76
-0.497172 -0.764389 -0.211375 153 0 76
0.328358 0.675433 0.386179 153 0 76
0.243620 -0.752491 -0.452525 153 0 76
0.100126 0.123613 0.386179 153 0 76
-0.497172 -0.540408 0.069097 153 0 76
-0.192365 -0.058534 0.141180 153 0 76
-0.210507 0.596993 -0.185343 153 0 76
0.197633 0.441513 0.360605 153 0 76
0.126327 0.643682 0.071365 153 0 76
0.187862 -0.447243 -0.163776 76 0 153
0.129726 -0.178795 -0.456957 153 0 76
-0.487982 0.569457 0.361416 153 0 76
0.217386 0.715663 0.222108 153 0 76
0.365651 0.715663 -0.229912 153 0 76
0.246819 -0.712094 -0.258380 153 0 76
0.150025 -0.006889 0.386179 127 0 127
0.111243 -0.712094 -0.194024 153 0 76
-0.497172 0.330132 0.276659 153 0 76
0.020820 0.131923 0.333013 153 0 76
-0.497172 -0.144290 -0.448513 153 0 76
-0.210404 0.596993 0.153906 153 0 76
0.258096 0.525012 -0.148979 153 0 76
-0.325008 0.441513 -0.263618 153 0 76
-0.497172 0.309182 -0.244938 153 0 76
-0.310858 0.010655 -0.452525 153 0 76
-0.050272 -0.612012 -0.452525 153 0 76
0.420747 0.059942 0.022126 153 0 76
0.172169 -0.803972 0.285575 153 0 76
-0.425190 0.395238 -0.119260 153 0 76
0.053440 -0.712094 -0.108754 153 0 76
0.331304 0.663746 -0.452525 153 0 76
0.401349 0.381244 -0.338879 153 0 76
-0.384989 -0.803972 -0.243521 153 0 76
-0.497172 -0.785816 -0.305440 153 0 76
-0.405294 -0.114541 -0.303846 153 0 76
-0.050370 0.525012 0.084661 153 0 76
0.368311 -0.566280 0.410702 0 127 127
0.381453 -0.316964 -0.248901 153 76 0
0.381453 -0.278867 -0.181382 153 0 76
-0.425190 0.605024 -0.024905 153 0 76
0.473331 -0.757737 -0.030456 153 0 76
0.007923 0.525012 0.342353 153 0 76
-0.213122 -0.712094 0.214922 153 0 76
0.464141 0.602645 0.372513 153 0 76
0.113067 0.643682 -0.321637 153 0 76
-0.215861 0.131923 0.150264 153 0 76
-0.497172 0.238887 0.140966 153 0 76
-0.315747 0.297302 -0.099264 153 0 76
0.464141 0.555473 0.304165 153 0 76
-0.277238 0.622618 -0.452525 153 0 76
0.451588 0.402679 0.386179 153 0 76
-0.022051 0.441513 0.117300 153 0 76
0.294366 0.033343 -0.218946 153 0 76
-0.092833 -0.737089 -0.452525 153 0 76
-0.469913 0.513494 -0.110732 153 0 76
-0.474618 -0.358026 0.410702 127 0 127
-0.497172 -0.296629 -0.073712 153 0 76
-0.282697 0.596993 0.370828 153 0 76
0.191496 -0.643291 0.415297 127 0 127
0.480355 -0.026985 0.415297 127 0 127
0.464141 0.555444 0.219263 153 0 76
0.226851 0.715663 0.072381 153 0 76
0.350288 0.513494 -0.018017 153 0 76
0.443590 0.033343 0.269192 153 0 76
-0.040019 -0.208808 0.413042 0 127 127
-0.204375 0.033343 -0.341528 153 0 76
-0.412427 0.332506 0.415297 0 255 0
-0.462711 -0.085860 -0.452525 153 0 76
-0.486869 -0.803972 -0.139049 153 0 76
-0.085396 -0.570204 -0.452525 153 0 76
-0.095563 -0.452681 -0.165648 76 0 153
0.117029 -0.712094 -0.344924 153 0 76
0.472549 -0.830678 0.390426 153 0 76
0.401349 0.137645 0.253794 153 0 76
0.188315 0.441513 0.220840 153 0 76
-0.371946 0.133306 -0.452525 153 0 76
-0.055817 0.123972 -0.452525 153 0 76
0.392854 0.441513 0.346233 153 0 76
0.314374 -0.442838 -0.452525 153 0 76
-0.270186 0.059942 -0.224467 153 0 76
0.158175 -0.445854 0.229448 76 0 153
-0.318740 0.210082 -0.452525 153 0 76
0.038633 0.499317 0.410702 255 0 0
0.180235 -0.489974 -0.452525 153 0 76
-0.497172 0.450630 -0.244732 153 0 76
0.473331 -0.802711 -0.399435 153 0 76
-0.188914 0.293747 -0.172990 153 0 76
-0.263264 0.033343 -0.319064 153 0 76
0.453970 -0.638528 -0.452525 153 0 76
-0.429694 -0.803972 -0.010338 153 0 76
-0.205265 0.441513 0.078107 153 0 76
0.449600 0.292870 0.085503 153 0 76
0.063980 0.441513 0.067816 153 0 76
-0.160797 0.033343 -0.252137 153 0 76
-0.080138 0.615682 -0.452525 153 0 76
0.015601 0.715663 0.353468 153 0 76
-0.487982 0.560426 -0.236378 153 0 76
-0.101647 0.596993 0.127944 153 0 76
-0.405294 -0.416800 0.195099 153 0 76
0.387946 -0.482277 0.413042 127 0 127
0.381453 -0.477332 -0.021999 153 0 76
-0.074052 0.643682 -0.353564 153 0 76
-0.372046 0.643682 0.005845 153 0 76
-0.370807 0.643682 0.304997 153 0 76
-0.487982 0.713834 0.084834 153 0 76
0.182757 0.131923 0.012008 153 0 76
-0.454250 -0.803972 -0.224417 153 0 76
-0.425190 0.325407 0.075318 153 0 76
-0.266325 0.715663 0.237889 153 0 76
-0.155606 0.131923 0.298310 153 0 76
0.120274 0.389343 -0.392631 153 0 76
0.473331 -0.189941 -0.312733 153 0 76
-0.062356 -0.803972 0.298900 153 0 76
-0.180941 0.596993 0.111556 153 0 76
-0.137896 0.059942 -0.292814 153 0 76
-0.397534 0.525012 -0.135580 153 0 76
-0.226414 -0.432775 -0.456957 153 0 76
0.266041 -0.258586 -0.452525 153 0 76
0.295789 0.715663 -0.081251 153 0 76
-0.384605 0.131923 0.092421 153 0 76
-0.249579 0.663087 0.408405 0 0 255
-0.008165 -0.058534 -0.064162 153 0 76
0.243702 0.513494 0.159894 153 0 76
-0.179183 -0.223233 0.410745 0 127 127
-0.041445 -0.712094 -0.253037 153 0 76
0.473331 -0.085550 0.161753 153 0 76
0.473331 0.320726 -0.414273 153 0 76
0.381453 -0.166866 0.276659 153 0 76
-0.212523 0.441513 0.013352 153 0 76
0.473331 0.488715 -0.061850 153 0 76
0.405101 -0.562658 -0.452525 153 0 76
0.401349 0.603157 0.138438 153 0 76
-0.068986 -0.036706 0.415297 127 0 127
0.473331 -0.444156 -0.401979 153 0 76
-0.497172 -0.276621 0.307560 153 0 76
-0.030140 0.513494 -0.437012 153 0 76
0.381453 -0.520009 -0.280790 153 0 76
0.160094 -0.058534 0.138730 153 0 76
0.381453 -0.418156 0.014087 153 0 76
0.395293 0.596993 0.340914 153 0 76
0.439849 0.341974 0.386179 153 0 76
0.160693 0.596993 0.084778 153 0 76
-0.125508 -0.010300 0.410702 127 0 127
0.008763 0.131923 0.234751 153 0 76
-0.079426 0.441513 0.082215 153 0 76
0.179886 -0.058534 -0.417740 153 0 76
-0.040981 0.266185 -0.452525 153 0 76
-0.151415 -0.803972 0.076135 153 0 76
0.080210 0.715663 -0.254955 153 0 76
0.475590 0.455600 0.322539 153 0 76
-0.487982 0.599101 -0.268474 153 0 76
-0.033669 0.131923 0.136173 153 0 76
-0.346591 -0.712094 0.271098 153 0 76
-0.037539 -0.712094 -0.147231 153 0 76
0.292956 0.131923 -0.133267 153 0 76
-0.497172 0.283207 0.001336 153 0 76
-0.036987 0.131923 -0.256274 153 0 76
-0.160114 -0.439111 0.130602 76 0 153
-0.405294 -0.393113 0.371539 153 0 76
0.062324 -0.803972 -0.168219 153 0 76
0.321575 0.131923 0.064335 153 0 76
0.361537 0.059942 0.233368 153 0 76
-0.315747 0.294365 -0.009373 153 0 76
0.351678 0.715663 -0.392773 153 0 76
0.444864 0.066379 -0.452525 153 0 76
-0.425190 0.399759 0.129531 153 0 76
0.135365 0.714399 -0.452525 153 0 76
-0.223534 0.715663 -0.050323 153 0 76
0.059763 -0.712094 0.049611 153 0 76
-0.183549 0.456292 0.415297 255 0 0
0.209544 0.033343 -0.336158 153 0 76
-0.504289 -0.291587 0.364312 153 0 76
0.455543 0.059942 -0.101747 153 0 76
-0.369364 -0.458326 -0.456957 153 0 76
-0.497172 -0.022204 -0.239631 153 0 76
-0.292668 0.131923 -0.255754 153 0 76
0.381453 -0.550209 0.179364 153 0 76
-0.014931 0.596993 -0.334677 153 0 76
-0.157507 0.715663 0.139436 153 0 76
0.308941 -0.803972 -0.180585 153 0 76
0.101574 -0.461678 -0.456957 153 0 76
-0.067023 0.513494 -0.008148 153 0 76
-0.209732 0.293902 0.347695 153 0 76
-0.396315 0.441513 0.296216 153 0 76
-0.395492 0.513494 -0.052192 153 0 76
0.381453 -0.337196 -0.151402 153 0 76
-0.497172 0.014341 0.082897 153 0 76
0.279060 -0.803972 -0.450800 153 0 76
-0.487982 0.646472 0.039426 153 0 76
-0.203890 0.715663 0.080180 153 0 76
0.137902 -0.803972 0.002807 153 0 76
0.298366 0.441513 0.282946 153 0 76
0.010514 -0.712094 0.376943 153 0 76
0.334821 0.131923 -0.187978 153 0 76
0.163944 -0.712094 -0.249498 153 0 76
-0.487982 0.604227 -0.007135 153 0 76
0.393259 0.441513 -0.019676 153 0 76
-0.051293 0.513494 -0.302841 153 0 76
0.041590 0.262659 0.410745 0 255 0
0.197821 -0.803972 -0.361296 153 0 76
0.255280 -0.654062 -0.452525 153 0 76
-0.433575 0.295009 -0.246284 153 0 76
0.473331 0.249364 -0.017196 153 0 76
-0.204003 0.336674 -0.392631 153 0 76
0.303794 0.525012 -0.222017 153 0 76
0.273762 -0.445074 -0.043366 76 0 153
-0.083110 -0.058534 -0.381389 153 0 76
0.175232 0.596993 -0.366792 153 0 76
-0.405294 -0.362558 0.076258 153 0 76
0.015172 0.197608 -0.452525 153 0 76
-0.297043 0.686510 -0.452525 153 0 76
-0.090645 0.033343 0.117789 153 0 76
0.473331 0.459607 0.180270 153 0 76
0.473331 0.067502 0.184914 153 0 76
0.400066 -0.830678 0.390634 153 0 76
-0.013673 0.293747 -0.168078 153 0 76
0.473331 -0.285134 -0.389828 153 0 76
0.083355 0.441513 -0.147232 153 0 76
-0.497172 -0.776183 -0.394653 153 0 76
-0.386687 -0.803972 -0.105759 153 0 76
0.137862 0.592522 -0.452525 153 0 76
-0.010366 0.059942 -0.183547 153 0 76
-0.405294 -0.588310 0.296677 153 0 76
-0.034627 0.715663 -0.170022 153 0 76
0.375752 0.674432 -0.452525 153 0 76
-0.356842 0.715663 -0.030196 153 0 76
-0.425190 0.642982 0.239811 153 0 76
-0.335084 0.525012 -0.016187 153 0 76
-0.425190 0.212451 -0.268949 153 0 76
0.381453 -0.490502 -0.325353 153 0 76
-0.031319 -0.132443 0.414773 127 0 127
-0.060365 -0.282260 0.413042 0 127 127
0.211458 -0.117276 -0.456957 153 0 76
-0.419670 0.002976 0.415297 127 0 127
-0.271978 -0.720256 0.415297 127 0 127
-0.497172 -0.033873 0.161139 153 0 76
-0.497172 0.162105 -0.075473 153 0 76
-0.425190 0.252757 0.127960 153 0 76
0.241459 0.024830 0.386179 153 0 76
0.381453 -0.610628 0.342614 153 0 76
0.118772 0.513494 0.139028 153 0 76
0.469367 -0.803972 0.129287 153 0 76
0.389864 -0.601050 0.386179 127 0 127
0.077951 -0.539678 0.413042 0 127 127
-0.209230 -0.712094 -0.341907 153 0 76
-0.497172 0.312454 0.064305 153 0 76
-0.302945 0.111732 -0.452525 153 0 76
0.313070 0.033343 -0.418313 153 0 76
-0.077448 0.418817 0.473795 127 127 0
0.473331 -0.098988 -0.095610 153 0 76
-0.089119 0.715663 0.044711 153 0 76
0.144431 0.315902 -0.285604 153 0 76
0.263931 -0.803972 0.226350 153 0 76
-0.014658 -0.803972 -0.317181 153 0 76
-0.264072 -0.712094 -0.280763 153 0 76
0.151833 -0.712094 0.021079 153 0 76
-0.335629 0.131923 0.343612 153 0 76
0.155693 0.291251 -0.452525 153 0 76
-0.290091 -0.803972 0.098469 153 0 76
-0.013111 0.513494 -0.351731 153 0 76
-0.371279 -0.046810 -0.452525 153 0 76
0.473331 0.182897 -0.232254 153 0 76
0.063519 -0.058534 0.240510 153 0 76
-0.374096 0.715663 -0.147493 153 0 76
0.276205 -0.803972 -0.398128 153 0 76
0.161131 0.437233 -0.392631 153 0 76
0.218744 -0.709137 0.415297 127 0 127
0.316707 0.033343 0.027505 153 0 76
0.381453 -0.585117 -0.015219 153 0 76
0.381453 -0.201812 0.171196 153 0 76
-0.101270 -0.803972 0.218490 153 0 76
-0.101298 0.033343 0.373170 153 0 76
0.156697 0.643682 0.365335 153 0 76
-0.487982 0.565027 -0.434973 153 0 76
-0.425623 0.402856 0.410702 255 0 0
-0.142208 0.033343 -0.117123 153 0 76
0.194342 0.567942 0.386179 153 0 76
0.066791 0.513494 0.368998 153 0 76
-0.021515 -0.803972 -0.008818 153 0 76
0.358052 0.131923 -0.249115 153 0 76
-0.271253 0.302410 0.410745 0 255 0
0.308373 -0.058534 0.294652 153 0 76
-0.157633 0.033343 0.247905 153 0 76
-0.145395 0.059942 -0.398103 153 0 76
0.269764 0.401252 -0.392631 153 0 76
0.070071 -0.712094 0.239477 153 0 76
-0.242059 0.033343 0.006864 153 0 76
0.464141 0.694376 -0.106106 153 0 76
-0.007865 -0.502388 0.410745 0 127 127
0.477898 0.119693 0.356074 153 0 76
0.069050 0.596993 0.232777 153 0 76
-0.075684 0.441513 -0.185051 153 0 76
0.381453 -0.406911 0.171561 153 0 76
0.167215 -0.712094 -0.341220 153 0 76
-0.241562 -0.803972 0.231601 153 0 76
0.028438 -0.058534 0.088298 153 0 76
-0.171359 0.596993 -0.342488 153 0 76
0.473331 -0.339172 -0.153534 153 0 76
-0.418172 -0.263234 -0.452525 153 0 76
-0.359271 -0.717863 0.410702 127 0 127
-0.423826 0.596993 0.171802 153 0 76
0.083388 -0.803972 0.055081 153 0 76
0.066316 -0.712094 -0.043793 153 0 76
0.401349 0.429716 0.064152 153 0 76
0.469736 0.513494 0.185298 153 0 76
0.254800 0.596993 0.087768 153 0 76
-0.497172 -0.584676 0.107384 153 0 76
0.004323 -0.803972 -0.100779 153 0 76
0.391416 0.146806 0.413042 255 0 0
0.473331 0.270148 -0.424261 153 0 76
-0.497172 -0.056656 0.036135 153 0 76
0.473331 0.190817 0.240634 153 0 76
-0.080672 0.643682 0.140766 153 0 76
-0.426480 0.059942 0.129740 153 0 76
-0.323879 0.378628 0.410745 0 255 0
-0.127838 0.661130 0.386179 153 0 76
0.215781 -0.058534 0.305331 153 0 76
-0.178072 0.643682 0.227857 153 0 76
-0.497172 -0.699316 -0.341987 153 0 76
0.473331 -0.598752 0.129240 153 0 76
-0.452346 0.033343 -0.173627 153 0 76
-0.382730 0.285563 -0.173923 153 0 76
-0.356347 -0.206191 -0.456957 153 0 76
0.473331 -0.348435 0.213423 153 0 76
0.473331 -0.205536 -0.403815 153 0 76
0.223625 0.033343 0.217625 153 0 76
-0.218502 0.441513 0.174975 153 0 76
0.401349 0.304409 -0.136732 153 0 76
0.129905 -0.803972 -0.173590 153 0 76
-0.296595 0.441513 0.047248 153 0 76
-0.293737 0.529530 0.415297 153 0 76
0.174783 -0.241948 0.410745 0 127 127
-0.190960 0.033343 0.149349 153 0 76
-0.036982 0.715663 -0.016209 153 0 76
0.314593 0.033343 -0.265602 153 0 76
0.039110 -0.058534 0.306471 153 0 76
0.412020 0.699114 -0.452525 153 0 76
-0.007244 0.672052 -0.452525 153 0 76
-0.212980 0.668770 -0.452525 153 0 76
-0.497172 -0.213962 0.035769 153 0 76
-0.268883 0.059942 -0.145559 153 0 76
0.209966 0.033343 0.149925 153 0 76
-0.405294 -0.533165 -0.363021 153 0 76
-0.497172 -0.294389 0.231349 153 0 76
-0.014387 0.117604 0.410702 255 0 0
-0.401342 0.441513 0.056504 153 0 76
-0.405294 -0.194235 0.263866 153 0 76
0.473331 -0.368566 0.305210 153 0 76
0.401349 0.252809 -0.164852 153 0 76
-0.405294 -0.491214 0.320829 153 0 76
0.473331 -0.206650 -0.030714 153 0 76
-0.093213 0.441513 -0.284702 153 0 76
0.445974 -0.803972 -0.096732 153 0 76
0.327756 0.418901 0.415297 0 255 0
-0.096680 0.525012 -0.324044 153 0 76
0.445418 -0.137652 0.410702 127 0 127
-0.081751 0.033343 0.234693 153 0 76
0.473331 -0.235526 -0.144874 153 0 76
0.165567 0.683443 0.386179 153 0 76
-0.037308 0.285563 0.272173 153 0 76
0.473331 -0.496972 -0.193232 153 0 76
-0.497172 0.327627 0.138295 153 0 76
0.401349 0.346850 0.128122 153 0 76
0.469756 -0.748577 -0.452525 153 0 76
0.262397 0.715663 0.369971 153 0 76
0.046994 0.443202 0.415297 255 0 0
-0.294244 -0.058534 0.147206 153 0 76
-0.153478 -0.042603 -0.452525 153 0 76
0.286630 0.033343 -0.096207 153 0 76
-0.405294 -0.475579 -0.299155 153 0 76
0.401349 0.405796 0.203191 153 0 76
-0.307644 0.056449 0.414404 255 0 0
-0.405294 -0.325826 0.204512 153 0 76
-0.205006 0.059942 0.011817 153 0 76
0.182304 0.596993 -0.290810 153 0 76
-0.277877 0.131923 -0.097870 153 0 76
0.346676 -0.058534 -0.284339 153 0 76
-0.405294 -0.132278 -0.362094 153 0 76
0.026881 0.441513 -0.009246 153 0 76
-0.425190 0.224667 -0.352733 153 0 76
0.087567 -0.750816 -0.452525 153 0 76
-0.034283 -0.789585 0.415297 127 0 127
-0.350184 0.643682 -0.358579 153 0 76
-0.200930 -0.311183 0.083010 153 76 0
0.122051 0.306128 -0.240176 153 0 76
0.401349 0.438005 -0.363024 153 0 76
-0.355014 0.033343 -0.157632 153 0 76
0.428211 -0.694962 -0.452525 153 0 76
-0.405294 -0.439909 -0.120103 153 0 76
-0.244342 -0.163378 -0.452525 153 0 76
0.082003 0.329782 -0.392631 153 0 76
0.381453 -0.629249 0.078199 153 0 76
-0.487982 0.656491 -0.351110 153 0 76
-0.352897 0.715663 0.024660 153 0 76
0.480547 -0.793546 0.411765 127 0 127
-0.020829 0.513494 -0.148272 153 0 76
-0.242839 -0.039037 0.415297 127 0 127
0.269270 -0.439111 0.159109 76 0 153
-0.240205 -0.058534 -0.409844 153 0 76
0.469407 0.622287 0.415297 153 0 76
-0.146458 -0.317501 -0.071876 153 76 0
-0.487982 0.624034 -0.182196 153 0 76
-0.425190 0.237101 0.046370 153 0 76
-0.425190 0.639145 -0.131939 153 0 76
0.245119 -0.697492 -0.452525 153 0 76
-0.206952 0.059942 -0.194000 153 0 76
-0.155256 0.553464 0.386179 153 0 76
0.381453 -0.095768 0.019450 153 0 76
0.164027 0.503846 0.386179 153 0 76
0.464141 0.593496 0.167911 153 0 76
0.358647 0.596993 0.119555 153 0 76
-0.356467 0.086281 0.386179 153 0 76
-0.225792 -0.803972 -0.048858 153 0 76
0.387062 0.300194 -0.452525 153 0 76
-0.200159 0.297641 0.113129 153 0 76
0.172530 0.441513 -0.143825 153 0 76
-0.405294 -0.459551 -0.049807 153 0 76
-0.396534 0.660769 0.386179 153 0 76
0.401349 0.291753 0.062123 153 0 76
0.156332 0.715663 -0.382247 153 0 76
0.134858 0.033343 0.354533 153 0 76
-0.497172 -0.512956 0.171262 153 0 76
0.473331 -0.667774 -0.266243 153 0 76
-0.496428 -0.803972 0.078476 153 0 76
-0.124724 -0.712094 -0.243326 153 0 76
-0.286843 0.059942 -0.280757 153 0 76
-0.230355 -0.486073 -0.452525 153 0 76
0.271718 0.489881 0.410702 255 0 0
0.117432 0.637529 0.408405 0 0 255
0.001052 -0.439111 -0.172583 76 0 153
-0.432374 -0.701051 -0.452525 153 0 76
-0.276081 0.131923 0.173680 153 0 76
0.349902 0.457075 0.415297 255 0 0
-0.436330 0.057357 0.415297 255 0 0
-0.161374 -0.705418 -0.456957 153 0 76
-0.391115 -0.397912 -0.456957 153 0 76
-0.046085 0.131923 0.225767 153 0 76
-0.339518 0.033343 0.096289 153 0 76
0.473331 -0.308677 -0.299113 153 0 76
0.067831 0.441513 0.133998 153 0 76
-0.153614 0.715663 0.289741 153 0 76
0.304154 0.747836 0.412940 153 0 76
-0.377404 0.405660 0.410745 255 0 0
0.062078 0.033343 -0.424532 153 0 76
-0.497172 0.107881 -0.202340 153 0 76
-0.497172 0.197899 -0.402413 153 0 76
-0.405294 -0.164476 -0.012163 153 0 76
0.453028 0.185247 -0.452525 153 0 76
0.050772 -0.441098 0.088796 76 0 153
0.003981 0.433138 0.464618 127 127 0
-0.173313 -0.058534 -0.035522 153 0 76
-0.336005 0.525012 -0.184141 153 0 76
0.435929 -0.279879 -0.452525 153 0 76
-0.361264 -0.311930 0.318758 153 76 0
0.137883 -0.058534 0.286878 153 0 76
-0.332784 0.596993 -0.138263 153 0 76
-0.497172 0.247738 0.305839 153 0 76
0.329414 0.441513 -0.216004 153 0 76
-0.039448 0.394377 -0.392631 153 0 76
0.096658 -0.630634 -0.452525 153 0 76
-0.070012 0.131923 0.035940 153 0 76
-0.309678 -0.058534 0.058355 153 0 76
0.178887 0.513494 0.119307 153 0 76
0.473331 -0.407948 -0.061133 153 0 76
-0.040892 0.293695 -0.075632 153 0 76
-0.497172 -0.144477 -0.365819 153 0 76
-0.173361 0.441513 -0.032094 153 0 76
-0.437915 -0.803972 0.155043 153 0 76
-0.378818 0.059942 0.107007 153 0 76
-0.105454 0.596993 0.042618 153 0 76
-0.405294 -0.293395 -0.161124 153 0 76
0.372353 0.643682 -0.354768 153 0 76
-0.425190 0.396102 0.285704 153 0 76
-0.327641 0.131923 -0.308069 153 0 76
-0.497172 0.097128 -0.451193 153 0 76
0.284054 0.441513 -0.068848 153 0 76
0.256624 0.131923 0.348189 153 0 76
-0.130045 0.513494 -0.076288 153 0 76
0.438534 0.715663 -0.025834 153 0 76
-0.472732 -0.803972 0.369257 153 0 76
-0.209552 -0.441156 0.165518 76 0 153
-0.497172 0.205428 0.031517 153 0 76
0.473331 0.464285 0.111975 153 0 76
-0.497172 -0.148098 0.184128 153 0 76
-0.084906 0.059942 -0.109571 153 0 76
-0.141955 0.059942 -0.006553 153 0 76
0.221091 -0.182823 -0.452525 153 0 76
0.234265 0.131923 0.247759 153 0 76
-0.384418 -0.117365 -0.456957 153 0 76
0.381453 -0.201837 -0.405141 153 0 76
0.414130 0.513494 0.044631 153 0 76
0.030893 -0.557691 0.413042 0 127 127
-0.405294 -0.424562 0.266443 153 0 76
0.247226 0.033343 -0.153834 153 0 76
0.336866 0.525012 -0.432890 153 0 76
0.381453 -0.350252 0.301778 153 0 76
0.111460 0.596993 -0.119377 153 0 76
0.224981 0.059942 -0.267954 153 0 76
-0.411547 0.441513 -0.039594 153 0 76
-0.012338 0.441513 0.307949 153 0 76
-0.487982 0.649579 -0.428677 153 0 76
-0.425190 0.231577 -0.066838 153 0 76
-0.369257 0.441513 -0.352901 153 0 76
0.435131 0.256541 0.386179 153 0 76
-0.461427 -0.624576 0.410702 127 0 127
-0.497172 -0.238167 -0.448367 153 0 76
-0.307563 0.301354 0.214742 153 0 76
-0.497172 -0.310950 -0.245270 153 0 76
0.064423 0.417249 -0.392631 153 0 76
-0.486383 0.033343 0.292532 153 0 76
0.473331 -0.142151 0.066060 153 0 76
-0.023272 0.596993 0.247103 153 0 76
-0.032525 0.033343 0.267986 153 0 76
0.199821 -0.058534 0.214822 153 0 76
0.025513 0.737446 0.415297 153 0 76
-0.262045 0.300099 0.055172 153 0 76
-0.293764 0.441513 0.317539 153 0 76
-0.497172 0.142387 -0.353084 153 0 76
0.014647 -0.312653 0.133478 153 76 0
-0.010785 -0.418645 -0.269389 76 0 153
0.002753 0.131923 -0.289976 153 0 76
0.401349 0.264469 0.309900 153 0 76
0.335991 0.033343 -0.134009 153 0 76
0.040470 0.033343 0.075787 153 0 76
-0.497172 -0.459228 -0.338959 153 0 76
0.046577 0.596993 -0.248310 153 0 76
-0.060078 0.643682 0.303345 153 0 76
0.296792 0.059942 0.214885 153 0 76
-0.405294 -0.069862 -0.174931 153 0 76
-0.416077 -0.325530 0.415297 0 127 127
0.167069 -0.409319 0.410745 0 127 127
0.385413 0.033343 -0.419329 153 0 76
0.356970 0.643682 0.178713 153 0 76
-0.211372 -0.654527 -0.456957 153 0 76
0.174442 0.643682 0.273208 153 0 76
-0.302785 -0.058534 -0.018793 153 0 76
-0.039926 0.378508 0.410745 0 255 0
-0.230561 0.033343 -0.099633 153 0 76
-0.379919 0.131923 -0.260640 153 0 76
-0.120723 0.146169 -0.392631 153 0 76
-0.179672 0.059942 0.057934 153 0 76
0.475617 0.324930 0.415297 255 0 0
0.155007 0.441513 -0.100514 153 0 76
-0.225017 0.411204 0.415297 255 0 0
-0.497172 0.152470 -0.257077 153 0 76
-0.407545 0.059942 -0.225894 153 0 76
-0.497172 0.419122 0.273086 153 0 76
-0.497172 -0.129391 0.265442 153 0 76
-0.488515 0.059942 -0.344171 153 0 76
-0.327226 0.596993 0.089211 153 0 76
0.186821 -0.093125 0.413042 127 0 127
0.384353 0.643682 -0.173803 153 0 76
-0.425190 0.411024 -0.242703 153 0 76
0.433319 0.525012 -0.063622 153 0 76
0.078967 0.033343 -0.249639 153 0 76
0.445460 -0.447910 0.312086 76 0 153
-0.412425 0.059942 -0.091986 153 0 76
-0.122164 0.286882 0.264684 153 0 76
-0.425190 0.346549 0.215683 153 0 76
-0.501640 -0.020197 0.373447 153 0 76
0.473331 -0.467109 0.073493 153 0 76
-0.405294 -0.295899 -0.370184 153 0 76
-0.151444 -0.803972 -0.006219 153 0 76
0.279949 -0.058534 0.098218 153 0 76
-0.164522 0.302138 -0.452525 153 0 76
-0.209801 -0.723245 0.415297 127 0 127
-0.497172 -0.610988 0.176023 153 0 76
0.324231 0.525012 0.271222 153 0 76
0.395595 0.059942 -0.129927 153 0 76
-0.107326 -0.712094 -0.340044 153 0 76
-0.497172 0.282016 -0.440328 153 0 76
0.381453 -0.590726 -0.426095 153 0 76
-0.405294 -0.617715 -0.307856 153 0 76
0.473331 0.316927 0.242430 153 0 76
0.059480 0.525012 -0.124920 153 0 76
-0.341312 0.643682 0.080567 153 0 76
-0.221803 0.513494 -0.373681 153 0 76
-0.032326 -0.438641 0.413042 0 127 127
0.216541 0.596993 -0.389957 153 0 76
-0.286077 0.059942 0.319214 153 0 76
-0.293347 -0.796725 0.415297 127 0 127
-0.045606 -0.803972 0.098284 153 0 76
0.473331 -0.570530 0.097221 153 0 76
-0.335293 0.131923 0.069291 153 0 76
0.088824 0.441513 -0.314363 153 0 76
0.346699 -0.299370 -0.452525 153 0 76
0.473331 0.254963 0.268744 153 0 76
0.473331 0.327852 0.091260 153 0 76
0.098411 0.715663 -0.163891 153 0 76
-0.475932 0.033343 -0.115066 153 0 76
0.165014 0.423873 -0.452525 153 0 76
0.464141 0.572449 -0.280630 153 0 76
0.176878 0.513494 0.000450 153 0 76
-0.329060 0.608496 -0.452525 153 0 76
-0.188629 0.513494 0.255839 153 0 76
0.391070 -0.301102 0.386179 153 0 76
0.473331 -0.418769 0.180042 153 0 76
0.159587 -0.803972 0.207468 153 0 76
0.464141 0.551145 -0.412680 153 0 76
-0.497172 0.476598 -0.409604 153 0 76
-0.094292 0.525012 -0.166869 153 0 76
0.473331 -0.230282 0.318396 153 0 76
-0.062783 -0.565495 0.413042 0 127 127
-0.178431 0.045788 0.386065 153 0 76
0.084016 0.660199 -0.452525 153 0 76
0.137633 0.131923 0.158594 153 0 76
-0.200159 -0.294978 -0.261794 153 76 0
-0.497172 -0.492616 -0.193921 153 0 76
-0.031036 0.525012 -0.266999 153 0 76
-0.143785 0.131923 0.207268 153 0 76
-0.497172 0.382089 -0.290076 153 0 76
-0.322826 0.715663 -0.150197 153 0 76
0.418439 0.715663 -0.181387 153 0 76
