0.677419 -0.113147 0.571958 0.600000 0.000000 0.300000
0.096964 -0.181760 0.313981 0.600000 0.000000 0.300000
-0.521615 -0.110029 0.081619 0.000000 0.500000 0.500000
0.463164 -0.192690 0.092985 0.600000 0.000000 0.300000
-0.260379 0.161815 -0.304508 0.600000 0.000000 0.300000
-0.637846 -0.192622 -0.218613 0.800000 0.200000 0.500000
-0.004244 0.168339 -0.338102 0.800000 0.200000 0.500000
-0.628305 -0.188491 0.156749 0.600000 0.000000 0.300000
-0.387413 -0.181760 0.273821 0.600000 0.000000 0.300000
0.666519 -0.113055 0.667293 0.600000 0.000000 0.300000
-0.192084 -0.109862 0.279097 0.000000 0.500000 0.500000
0.271466 0.100222 -0.290517 0.600000 0.000000 0.300000
0.152893 -0.192641 -0.009993 0.600000 0.000000 0.300000
-0.634155 -0.169818 0.600186 0.600000 0.000000 0.300000
-0.015720 -0.134326 0.683446 0.600000 0.000000 0.300000
0.139907 0.130064 -0.296940 0.600000 0.000000 0.300000
-0.464915 0.516981 -0.389177 0.600000 0.000000 0.300000
0.728114 -0.137885 -0.117380 0.500000 0.000000 0.500000
-0.401545 -0.188567 0.156820 0.600000 0.000000 0.300000
-0.184320 0.376503 -0.387696 0.800000 0.200000 0.500000
-0.198267 -0.126612 -0.223817 0.800000 0.200000 0.500000
-0.085997 -0.175210 0.456778 0.600000 0.000000 0.300000
0.494272 0.654007 -0.420308 0.800000 0.200000 0.500000
-0.621194 0.173457 -0.307271 0.600000 0.000000 0.300000
-0.394560 0.348396 -0.380920 0.800000 0.200000 0.500000
-0.511064 0.382373 -0.358069 0.600000 0.000000 0.300000
0.571232 -0.182326 0.234662 0.600000 0.000000 0.300000
0.028884 0.628429 -0.428001 0.800000 0.200000 0.500000
-0.674422 0.372549 -0.383411 0.800000 0.200000 0.500000
0.583327 -0.086627 -0.277363 0.800000 0.200000 0.500000
-0.145167 -0.110532 0.007947 0.000000 0.500000 0.500000
0.335577 -0.194145 -0.208554 0.800000 0.200000 0.500000
-0.500106 0.121875 -0.294979 0.600000 0.000000 0.300000
0.687137 -0.075717 -0.276789 0.800000 0.200000 0.500000
-0.158641 -0.119557 0.683995 0.600000 0.000000 0.300000
-0.437335 0.171840 -0.338938 0.800000 0.200000 0.500000
-0.047925 -0.110010 0.187387 0.000000 0.500000 0.500000
0.201796 0.191126 -0.312509 0.600000 0.000000 0.300000
-0.522746 0.585710 -0.437536 0.800000 0.200000 0.500000
0.258282 -0.115715 -0.012946 0.000000 0.500000 0.500000
0.525700 -0.119080 -0.236133 0.800000 0.200000 0.500000
0.351822 -0.113506 0.577133 0.600000 0.000000 0.300000
0.401783 -0.109992 0.196184 0.000000 0.500000 0.500000
-0.237999 0.627072 -0.428454 0.800000 0.200000 0.500000
0.658926 -0.189222 0.051523 0.600000 0.000000 0.300000
0.056859 -0.063650 -0.249922 0.800000 0.200000 0.500000
0.404792 -0.164545 0.663110 0.600000 0.000000 0.300000
0.121985 0.523934 -0.390766 0.600000 0.000000 0.300000
-0.649990 -0.188303 0.142185 0.600000 0.000000 0.300000
0.431804 0.264509 -0.328960 0.600000 0.000000 0.300000
0.541340 -0.110089 0.290603 0.000000 0.500000 0.500000
-0.294188 -0.193355 -0.205667 0.800000 0.200000 0.500000
0.053833 0.146226 -0.332817 0.800000 0.200000 0.500000
0.016631 -0.139428 -0.231285 0.800000 0.200000 0.500000
-0.590597 -0.112753 0.582710 0.600000 0.000000 0.300000
0.445889 0.459674 -0.375455 0.600000 0.000000 0.300000
0.033454 0.662918 -0.412163 0.800000 0.200000 0.500000
-0.179075 0.535517 -0.393524 0.600000 0.000000 0.300000
0.125629 -0.114317 0.434890 0.600000 0.000000 0.300000
0.670504 0.097826 -0.290207 0.800000 0.200000 0.500000
0.508616 -0.169966 0.532568 0.600000 0.000000 0.300000
0.373575 -0.116809 0.416678 0.600000 0.000000 0.300000
0.151451 0.411026 -0.395831 0.800000 0.200000 0.500000
0.258510 -0.109902 0.097598 0.000000 0.500000 0.500000
-0.133207 -0.115833 0.426352 0.600000 0.000000 0.300000
-0.281421 0.613990 -0.410775 0.800000 0.200000 0.500000
-0.267973 -0.114481 -0.009582 0.000000 0.500000 0.500000
-0.697350 -0.134511 -0.093807 0.500000 0.000000 0.500000
-0.536859 0.318554 -0.342866 0.600000 0.000000 0.300000
-0.200777 0.614277 -0.410843 0.800000 0.200000 0.500000
0.010369 0.036061 -0.306591 0.800000 0.200000 0.500000
-0.212145 0.582470 -0.436764 0.800000 0.200000 0.500000
0.098889 -0.109963 0.263013 0.000000 0.500000 0.500000
-0.000793 -0.115371 0.404404 0.600000 0.000000 0.300000
0.459753 0.145835 -0.301796 0.600000 0.000000 0.300000
0.526449 0.120279 -0.326647 0.800000 0.200000 0.500000
0.040926 0.600152 -0.407478 0.800000 0.200000 0.500000
0.401207 -0.174671 0.462864 0.600000 0.000000 0.300000
-0.075602 0.114412 -0.325254 0.800000 0.200000 0.500000
-0.115091 0.063062 -0.312948 0.800000 0.200000 0.500000
0.339708 0.612534 -0.440246 0.800000 0.200000 0.500000
0.408202 0.220454 -0.350426 0.800000 0.200000 0.500000
-0.617773 0.002710 -0.266657 0.600000 0.000000 0.300000
0.735434 -0.141197 0.015888 0.600000 0.000000 0.300000
0.368817 -0.065975 -0.282192 0.800000 0.200000 0.500000
0.582699 0.668925 -0.420609 0.800000 0.200000 0.500000
-0.585369 0.644673 -0.418084 0.800000 0.200000 0.500000
0.185968 0.630702 -0.414756 0.800000 0.200000 0.500000
0.388302 -0.109923 0.284724 0.000000 0.500000 0.500000
0.640605 0.144488 -0.301475 0.600000 0.000000 0.300000
-0.319903 0.494122 -0.415691 0.800000 0.200000 0.500000
0.735793 -0.143818 0.161426 0.600000 0.000000 0.300000
0.409779 -0.177309 0.433079 0.600000 0.000000 0.300000
-0.214574 0.553309 -0.397843 0.600000 0.000000 0.300000
-0.628032 0.219975 -0.350312 0.800000 0.200000 0.500000
0.147347 -0.113555 0.483696 0.600000 0.000000 0.300000
0.354381 0.031770 -0.273867 0.600000 0.000000 0.300000
-0.719681 -0.181247 -0.201233 0.800000 0.200000 0.500000
0.086107 -0.172371 0.488833 0.600000 0.000000 0.300000
-0.035388 0.163962 -0.337056 0.800000 0.200000 0.500000
-0.191370 -0.191073 0.125551 0.600000 0.000000 0.300000
0.362180 -0.181760 0.280662 0.600000 0.000000 0.300000
0.557620 0.577383 -0.435542 0.800000 0.200000 0.500000
0.665332 -0.168905 0.644262 0.600000 0.000000 0.300000
-0.484500 -0.029251 -0.291033 0.800000 0.200000 0.500000
-0.183875 0.654712 -0.420476 0.800000 0.200000 0.500000
-0.582971 0.301689 -0.338922 0.600000 0.000000 0.300000
-0.364553 0.521983 -0.390302 0.600000 0.000000 0.300000
0.044580 0.283065 -0.365346 0.800000 0.200000 0.500000
-0.095094 0.417572 -0.397390 0.800000 0.200000 0.500000
-0.659528 0.319061 -0.373248 0.800000 0.200000 0.500000
-0.166834 -0.174713 0.462398 0.600000 0.000000 0.300000
0.637940 -0.187217 0.173660 0.600000 0.000000 0.300000
-0.383042 -0.177904 0.426357 0.600000 0.000000 0.300000
-0.509378 -0.191350 0.122086 0.600000 0.000000 0.300000
-0.597894 -0.116957 0.088099 0.600000 0.000000 0.300000
-0.332901 0.595065 -0.396702 0.800000 0.200000 0.500000
-0.265390 0.061519 -0.280628 0.600000 0.000000 0.300000
0.700445 0.312102 -0.333584 0.800000 0.200000 0.500000
-0.409767 -0.169818 0.554785 0.600000 0.000000 0.300000
0.126675 0.398391 -0.360872 0.600000 0.000000 0.300000
-0.600107 -0.118434 0.301849 0.600000 0.000000 0.300000
0.456674 -0.113182 0.521243 0.600000 0.000000 0.300000
0.435687 0.600668 -0.429420 0.800000 0.200000 0.500000
0.413241 0.601258 -0.427474 0.800000 0.200000 0.500000
-0.699146 -0.174303 0.464918 0.600000 0.000000 0.300000
-0.604901 0.167684 -0.305900 0.600000 0.000000 0.300000
-0.070760 0.125389 -0.295820 0.600000 0.000000 0.300000
-0.241581 0.167719 -0.337954 0.800000 0.200000 0.500000
0.301582 -0.192789 0.088999 0.600000 0.000000 0.300000
0.372795 0.004024 -0.266979 0.600000 0.000000 0.300000
-0.358186 0.634508 -0.434980 0.800000 0.200000 0.500000
0.152371 -0.113334 -0.006126 0.000000 0.500000 0.500000
-0.701630 0.230294 -0.319366 0.800000 0.200000 0.500000
0.637604 -0.118826 0.131072 0.600000 0.000000 0.300000
-0.544255 -0.177301 0.433164 0.600000 0.000000 0.300000
-0.365689 0.504342 -0.386107 0.600000 0.000000 0.300000
-0.588304 -0.178797 -0.221907 0.800000 0.200000 0.500000
-0.247980 -0.107926 -0.090747 0.500000 0.000000 0.500000
0.651673 0.354008 -0.350370 0.600000 0.000000 0.300000
-0.721060 0.062549 -0.272522 0.800000 0.200000 0.500000
-0.577353 0.192372 -0.311902 0.600000 0.000000 0.300000
0.066074 0.630023 -0.427469 0.800000 0.200000 0.500000
-0.389406 -0.110044 0.066715 0.000000 0.500000 0.500000
0.593787 -0.113150 0.650925 0.600000 0.000000 0.300000
-0.183364 0.611506 -0.410183 0.800000 0.200000 0.500000
-0.241371 0.457779 -0.375004 0.600000 0.000000 0.300000
-0.239803 0.028332 -0.272769 0.600000 0.000000 0.300000
-0.293255 0.353464 -0.351270 0.600000 0.000000 0.300000
0.734953 -0.117466 0.561599 0.600000 0.000000 0.300000
-0.372302 -0.096151 -0.241595 0.800000 0.200000 0.500000
0.724274 0.219418 -0.316774 0.800000 0.200000 0.500000
-0.449372 -0.110033 0.259344 0.000000 0.500000 0.500000
-0.306952 -0.112753 0.475442 0.600000 0.000000 0.300000
-0.002617 0.180847 -0.309031 0.600000 0.000000 0.300000
0.607773 -0.113753 0.542842 0.600000 0.000000 0.300000
0.601778 0.271941 -0.362696 0.800000 0.200000 0.500000
0.021180 0.594637 -0.413199 0.800000 0.200000 0.500000
0.445950 -0.113754 0.561555 0.600000 0.000000 0.300000
0.602650 -0.109295 -0.094598 0.500000 0.000000 0.500000
0.482366 -0.109875 0.329189 0.000000 0.500000 0.500000
0.368557 -0.110157 0.063068 0.000000 0.500000 0.500000
0.585109 -0.153636 0.676011 0.600000 0.000000 0.300000
-0.536908 0.603997 -0.408394 0.800000 0.200000 0.500000
0.272021 0.582362 -0.424687 0.800000 0.200000 0.500000
0.443353 -0.192571 -0.041734 0.600000 0.000000 0.300000
-0.052680 -0.091894 -0.234515 0.800000 0.200000 0.500000
-0.627407 0.083285 -0.285867 0.600000 0.000000 0.300000
0.183620 -0.163276 -0.212084 0.800000 0.200000 0.500000
-0.106307 -0.134440 -0.210500 0.500000 0.000000 0.500000
-0.370448 -0.192782 0.054361 0.600000 0.000000 0.300000
-0.433155 -0.192493 -0.077174 0.600000 0.000000 0.300000
-0.273336 0.235783 -0.323237 0.600000 0.000000 0.300000
-0.018637 0.201367 -0.314195 0.600000 0.000000 0.300000
0.324420 0.613723 -0.410711 0.800000 0.200000 0.500000
0.271901 -0.181760 0.268930 0.600000 0.000000 0.300000
-0.130679 -0.182692 0.228636 0.600000 0.000000 0.300000
0.094736 -0.192192 -0.223966 0.800000 0.200000 0.500000
0.554227 0.618052 -0.401288 0.800000 0.200000 0.500000
-0.714277 -0.119238 0.094333 0.600000 0.000000 0.300000
-0.161091 -0.177700 0.428664 0.600000 0.000000 0.300000
-0.095960 -0.115220 0.485468 0.300000 0.000000 0.600000
-0.697871 0.335816 -0.344504 0.800000 0.200000 0.500000
-0.315716 0.518537 -0.421535 0.800000 0.200000 0.500000
0.292713 0.083229 -0.317753 0.800000 0.200000 0.500000
-0.411595 0.444310 -0.403850 0.800000 0.200000 0.500000
-0.178986 0.585250 -0.437427 0.800000 0.200000 0.500000
0.604660 0.092843 -0.289166 0.600000 0.000000 0.300000
0.282805 0.013424 -0.301103 0.800000 0.200000 0.500000
0.343966 -0.110029 0.042303 0.000000 0.500000 0.500000
0.066227 -0.022208 -0.260657 0.600000 0.000000 0.300000
0.192865 0.177378 -0.340259 0.800000 0.200000 0.500000
-0.253471 -0.112920 0.454679 0.600000 0.000000 0.300000
0.518655 -0.156979 -0.212807 0.500000 0.000000 0.500000
-0.486828 0.494886 -0.384455 0.600000 0.000000 0.300000
-0.184766 0.228002 -0.321381 0.600000 0.000000 0.300000
-0.049946 -0.118234 -0.236334 0.800000 0.200000 0.500000
0.661474 -0.118871 0.122846 0.600000 0.000000 0.300000
-0.036620 -0.112488 0.658293 0.600000 0.000000 0.300000
0.417983 -0.171344 0.501910 0.600000 0.000000 0.300000
-0.190197 -0.176439 0.442904 0.600000 0.000000 0.300000
-0.560364 -0.106045 -0.229212 0.800000 0.200000 0.500000
0.539531 -0.192491 -0.077807 0.600000 0.000000 0.300000
0.131352 0.154252 -0.334733 0.800000 0.200000 0.500000
0.070890 -0.177992 -0.222098 0.800000 0.200000 0.500000
-0.605300 -0.182865 0.226732 0.600000 0.000000 0.300000
-0.440107 -0.113027 0.576539 0.600000 0.000000 0.300000
0.447408 -0.109862 0.298596 0.000000 0.500000 0.500000
-0.671669 -0.182219 -0.123133 0.600000 0.000000 0.300000
-0.711742 0.247161 -0.312790 0.800000 0.200000 0.500000
-0.226824 -0.107926 -0.078343 0.500000 0.000000 0.500000
0.190866 0.566045 -0.432756 0.800000 0.200000 0.500000
0.721645 -0.119660 -0.032802 0.600000 0.000000 0.300000
-0.355445 -0.108033 -0.049403 0.500000 0.000000 0.500000
-0.050962 -0.113068 0.394522 0.600000 0.000000 0.300000
0.263600 -0.116345 0.420218 0.600000 0.000000 0.300000
-0.194247 -0.001310 -0.265672 0.600000 0.000000 0.300000
-0.025217 -0.115810 0.555660 0.300000 0.000000 0.600000
-0.110014 -0.169774 0.625357 0.600000 0.000000 0.300000
-0.673610 -0.187896 -0.089639 0.600000 0.000000 0.300000
-0.647705 -0.120613 -0.046968 0.600000 0.000000 0.300000
-0.368777 -0.191190 0.124085 0.600000 0.000000 0.300000
-0.295493 -0.177881 -0.222125 0.800000 0.200000 0.500000
0.707802 0.429065 -0.389006 0.800000 0.200000 0.500000
-0.201884 -0.192490 -0.078149 0.600000 0.000000 0.300000
-0.632354 -0.181760 0.296281 0.600000 0.000000 0.300000
0.719992 0.021176 -0.269546 0.800000 0.200000 0.500000
0.730069 0.474938 -0.377648 0.800000 0.200000 0.500000
-0.072104 -0.162864 -0.212210 0.800000 0.200000 0.500000
0.633104 -0.191896 -0.042280 0.600000 0.000000 0.300000
0.290093 -0.192333 -0.094135 0.600000 0.000000 0.300000
-0.132733 0.600560 -0.407575 0.800000 0.200000 0.500000
0.357490 0.593552 -0.397681 0.800000 0.200000 0.500000
0.032601 0.275533 -0.331646 0.600000 0.000000 0.300000
-0.220520 -0.130641 -0.233379 0.800000 0.200000 0.500000
0.538289 0.081428 -0.317323 0.800000 0.200000 0.500000
-0.436513 -0.190405 -0.178756 0.500000 0.000000 0.500000
0.422414 -0.172852 -0.223323 0.800000 0.200000 0.500000
-0.588310 -0.117222 0.337228 0.600000 0.000000 0.300000
0.409591 -0.192672 0.004156 0.600000 0.000000 0.300000
0.380789 -0.119799 -0.235962 0.800000 0.200000 0.500000
0.246751 -0.182344 0.234358 0.600000 0.000000 0.300000
0.355723 0.556255 -0.430425 0.800000 0.200000 0.500000
-0.500336 0.232712 -0.353381 0.800000 0.200000 0.500000
-0.718243 -0.112951 0.619917 0.600000 0.000000 0.300000
-0.185995 -0.076809 -0.279663 0.800000 0.200000 0.500000
-0.264984 0.190776 -0.343450 0.800000 0.200000 0.500000
-0.171418 -0.161019 -0.254369 0.800000 0.200000 0.500000
0.123708 -0.108988 -0.038117 0.500000 0.000000 0.500000
-0.656731 0.422847 -0.367814 0.600000 0.000000 0.300000
-0.588767 -0.122997 0.684676 0.600000 0.000000 0.300000
-0.042286 -0.037582 -0.289020 0.800000 0.200000 0.500000
-0.358621 0.638327 -0.416572 0.800000 0.200000 0.500000
0.579578 0.335123 -0.377758 0.800000 0.200000 0.500000
-0.548922 0.052957 -0.310582 0.800000 0.200000 0.500000
0.443766 -0.169818 0.616716 0.600000 0.000000 0.300000
-0.102783 -0.192623 0.095214 0.600000 0.000000 0.300000
-0.627210 -0.181373 -0.236798 0.800000 0.200000 0.500000
0.234892 -0.116590 0.419774 0.600000 0.000000 0.300000
-0.434088 0.567773 -0.433174 0.800000 0.200000 0.500000
-0.722642 0.464066 -0.370319 0.800000 0.200000 0.500000
-0.054258 -0.114820 0.460640 0.300000 0.000000 0.600000
0.288198 0.527730 -0.423724 0.800000 0.200000 0.500000
-0.724073 0.599638 -0.400208 0.800000 0.200000 0.500000
-0.208812 0.047973 -0.277375 0.600000 0.000000 0.300000
0.704331 0.354728 -0.343559 0.800000 0.200000 0.500000
0.407932 -0.181760 0.349822 0.600000 0.000000 0.300000
0.709450 -0.168909 0.644873 0.600000 0.000000 0.300000
0.506904 -0.191820 -0.224737 0.800000 0.200000 0.500000
-0.200458 0.485442 -0.381611 0.600000 0.000000 0.300000
-0.275177 0.572299 -0.399644 0.800000 0.200000 0.500000
0.253486 -0.069093 -0.281454 0.800000 0.200000 0.500000
-0.328083 0.620246 -0.412265 0.800000 0.200000 0.500000
0.423620 -0.109886 0.278150 0.000000 0.500000 0.500000
-0.046389 0.224286 -0.320438 0.600000 0.000000 0.300000
-0.119133 0.663551 -0.428019 0.800000 0.200000 0.500000
-0.095025 -0.192550 -0.051155 0.600000 0.000000 0.300000
0.164613 -0.106829 -0.045916 0.500000 0.000000 0.500000
0.626780 -0.083211 -0.278177 0.800000 0.200000 0.500000
0.574639 -0.016374 -0.263074 0.600000 0.000000 0.300000
-0.265779 -0.191977 0.111419 0.600000 0.000000 0.300000
0.049698 0.127548 -0.328373 0.800000 0.200000 0.500000
0.723811 -0.179848 -0.138178 0.500000 0.000000 0.500000
0.241433 -0.181760 0.320484 0.600000 0.000000 0.300000
0.619544 0.062879 -0.312905 0.800000 0.200000 0.500000
0.547994 0.669576 -0.417877 0.800000 0.200000 0.500000
0.303677 -0.110087 0.065831 0.000000 0.500000 0.500000
0.510501 -0.109982 0.048002 0.000000 0.500000 0.500000
-0.481602 -0.192488 -0.079052 0.600000 0.000000 0.300000
0.497684 -0.116746 0.405257 0.600000 0.000000 0.300000
0.115552 0.179640 -0.309282 0.600000 0.000000 0.300000
0.580926 -0.194147 -0.210467 0.800000 0.200000 0.500000
0.545319 -0.178114 0.423989 0.600000 0.000000 0.300000
-0.492554 -0.130632 0.684162 0.600000 0.000000 0.300000
0.667266 -0.187431 -0.101187 0.600000 0.000000 0.300000
-0.479087 -0.185411 -0.149597 0.500000 0.000000 0.500000
0.620530 -0.169818 0.616398 0.600000 0.000000 0.300000
-0.009732 -0.074804 -0.244231 0.800000 0.200000 0.500000
-0.096506 0.182417 -0.309405 0.600000 0.000000 0.300000
-0.400508 -0.180905 0.388614 0.600000 0.000000 0.300000
-0.712211 -0.164452 0.658068 0.600000 0.000000 0.300000
0.458027 -0.106774 -0.058592 0.500000 0.000000 0.500000
-0.140977 -0.113149 -0.025282 0.500000 0.000000 0.500000
0.371419 0.222537 -0.350922 0.800000 0.200000 0.500000
0.510927 -0.112753 0.461898 0.600000 0.000000 0.300000
0.576862 -0.134937 -0.222088 0.800000 0.200000 0.500000
-0.245510 -0.112650 0.654533 0.600000 0.000000 0.300000
0.316868 -0.109862 0.134646 0.000000 0.500000 0.500000
-0.711016 0.398632 -0.359469 0.800000 0.200000 0.500000
-0.519206 0.421276 -0.367414 0.600000 0.000000 0.300000
-0.128415 0.649770 -0.431322 0.800000 0.200000 0.500000
-0.429031 -0.112753 0.477200 0.600000 0.000000 0.300000
-0.228733 -0.011661 -0.295179 0.800000 0.200000 0.500000
0.360664 -0.106704 -0.056578 0.500000 0.000000 0.500000
0.559483 0.637060 -0.425117 0.800000 0.200000 0.500000
-0.330045 -0.084862 -0.238634 0.800000 0.200000 0.500000
-0.552984 -0.126305 -0.234412 0.800000 0.200000 0.500000
0.092503 0.614108 -0.410803 0.800000 0.200000 0.500000
0.141347 -0.110035 0.053185 0.000000 0.500000 0.500000
0.206015 0.523587 -0.390683 0.600000 0.000000 0.300000
-0.203933 -0.192778 0.052443 0.600000 0.000000 0.300000
0.288742 -0.078421 -0.242224 0.800000 0.200000 0.500000
0.332810 0.155738 -0.335089 0.800000 0.200000 0.500000
0.363088 0.299442 -0.337364 0.600000 0.000000 0.300000
0.633098 -0.119220 -0.200680 0.500000 0.000000 0.500000
-0.198738 -0.115227 0.474327 0.300000 0.000000 0.600000
0.030136 -0.110029 0.166096 0.000000 0.500000 0.500000
-0.254126 -0.192621 -0.018846 0.600000 0.000000 0.300000
-0.135048 0.079356 -0.284930 0.600000 0.000000 0.300000
-0.591383 -0.174636 0.463264 0.600000 0.000000 0.300000
0.035585 -0.169818 0.609018 0.600000 0.000000 0.300000
-0.110119 0.075846 -0.284093 0.600000 0.000000 0.300000
0.247242 -0.176728 0.439637 0.600000 0.000000 0.300000
-0.479211 0.034707 -0.306269 0.800000 0.200000 0.500000
-0.229317 0.275583 -0.332687 0.600000 0.000000 0.300000
-0.295368 -0.170687 0.512142 0.600000 0.000000 0.300000
0.366338 0.536581 -0.393777 0.600000 0.000000 0.300000
0.299397 -0.138553 -0.221226 0.800000 0.200000 0.500000
0.259515 0.459718 -0.407513 0.800000 0.200000 0.500000
0.158248 -0.113753 0.555890 0.600000 0.000000 0.300000
-0.083597 -0.109862 0.236905 0.000000 0.500000 0.500000
0.025070 0.132844 -0.329632 0.800000 0.200000 0.500000
0.611308 -0.161657 0.668536 0.600000 0.000000 0.300000
0.364484 0.413702 -0.396468 0.800000 0.200000 0.500000
0.440494 -0.117028 -0.226038 0.800000 0.200000 0.500000
-0.630620 -0.173551 0.475512 0.600000 0.000000 0.300000
0.723325 0.256840 -0.315264 0.800000 0.200000 0.500000
-0.137513 -0.192750 0.039831 0.600000 0.000000 0.300000
0.407471 0.472515 -0.410545 0.800000 0.200000 0.500000
0.003927 0.601318 -0.426748 0.800000 0.200000 0.500000
0.406605 -0.169818 0.602357 0.600000 0.000000 0.300000
0.184407 -0.110169 0.106543 0.000000 0.500000 0.500000
0.046638 0.213323 -0.348728 0.800000 0.200000 0.500000
-0.693773 -0.180184 0.385594 0.600000 0.000000 0.300000
0.052880 -0.176748 0.439416 0.600000 0.000000 0.300000
0.398624 -0.108489 -0.121633 0.500000 0.000000 0.500000
-0.241862 -0.102905 -0.230125 0.800000 0.200000 0.500000
0.373316 -0.114917 -0.016526 0.000000 0.500000 0.500000
0.741675 0.530669 -0.389982 0.800000 0.200000 0.500000
0.139790 0.382233 -0.357008 0.600000 0.000000 0.300000
-0.140994 0.635690 -0.434696 0.800000 0.200000 0.500000
0.496755 -0.114485 0.433914 0.600000 0.000000 0.300000
-0.111880 0.002575 -0.298519 0.800000 0.200000 0.500000
-0.375415 -0.110147 0.236770 0.000000 0.500000 0.500000
-0.517227 -0.110029 0.184000 0.000000 0.500000 0.500000
0.434545 -0.109953 0.244097 0.000000 0.500000 0.500000
-0.694007 0.318529 -0.340386 0.800000 0.200000 0.500000
0.097422 0.299560 -0.369319 0.800000 0.200000 0.500000
0.119563 -0.192711 0.021685 0.600000 0.000000 0.300000
-0.162521 0.145444 -0.300609 0.600000 0.000000 0.300000
0.289151 0.613111 -0.400259 0.800000 0.200000 0.500000
-0.490374 -0.191585 -0.206216 0.800000 0.200000 0.500000
-0.484423 0.367425 -0.385518 0.800000 0.200000 0.500000
0.522318 -0.109269 -0.174452 0.500000 0.000000 0.500000
-0.139608 0.566493 -0.400092 0.800000 0.200000 0.500000
0.261263 -0.113753 0.525606 0.600000 0.000000 0.300000
-0.093940 0.601306 -0.426898 0.800000 0.200000 0.500000
-0.298090 -0.109944 0.127853 0.000000 0.500000 0.500000
-0.658136 0.377403 -0.356699 0.800000 0.200000 0.500000
0.576267 -0.167176 -0.224675 0.800000 0.200000 0.500000
-0.659687 -0.169662 0.635682 0.600000 0.000000 0.300000
-0.610391 -0.189536 0.144517 0.600000 0.000000 0.300000
0.673294 -0.136018 -0.122144 0.500000 0.000000 0.500000
0.317613 -0.110049 0.256387 0.000000 0.500000 0.500000
0.176120 -0.109966 0.371445 0.000000 0.500000 0.500000
-0.720078 -0.119723 0.364129 0.600000 0.000000 0.300000
0.439482 0.006850 -0.299536 0.800000 0.200000 0.500000
-0.325370 0.569654 -0.399848 0.800000 0.200000 0.500000
0.393327 0.091602 -0.319799 0.800000 0.200000 0.500000
0.627600 -0.118566 0.241137 0.600000 0.000000 0.300000
-0.702240 -0.048055 -0.270029 0.800000 0.200000 0.500000
0.194225 0.034029 -0.274096 0.600000 0.000000 0.300000
0.087431 -0.192716 0.024282 0.600000 0.000000 0.300000
0.210490 -0.175715 0.451076 0.600000 0.000000 0.300000
-0.582361 -0.115478 0.227586 0.600000 0.000000 0.300000
0.030704 -0.181495 0.374818 0.600000 0.000000 0.300000
-0.316871 0.138945 -0.299061 0.600000 0.000000 0.300000
-0.441927 -0.130516 0.684170 0.600000 0.000000 0.300000
0.299126 -0.181760 0.272802 0.600000 0.000000 0.300000
-0.255800 0.458636 -0.407256 0.800000 0.200000 0.500000
0.327193 0.094799 -0.289577 0.600000 0.000000 0.300000
-0.162475 -0.110029 0.029736 0.000000 0.500000 0.500000
0.515512 -0.113743 0.573513 0.600000 0.000000 0.300000
-0.644621 -0.118565 0.291144 0.600000 0.000000 0.300000
-0.690141 0.031562 -0.272021 0.800000 0.200000 0.500000
0.262598 -0.188517 0.157445 0.600000 0.000000 0.300000
-0.726186 -0.163816 -0.023192 0.600000 0.000000 0.300000
-0.200537 -0.188785 0.154094 0.600000 0.000000 0.300000
-0.126937 0.238760 -0.354870 0.800000 0.200000 0.500000
-0.702387 0.054593 -0.267288 0.800000 0.200000 0.500000
0.465679 0.181956 -0.341350 0.800000 0.200000 0.500000
-0.201337 -0.108328 -0.167072 0.500000 0.000000 0.500000
-0.550982 -0.109946 0.133735 0.000000 0.500000 0.500000
0.089692 -0.131959 -0.222798 0.800000 0.200000 0.500000
0.139384 0.522761 -0.390486 0.600000 0.000000 0.300000
-0.217273 -0.056806 -0.252500 0.800000 0.200000 0.500000
0.426384 -0.192772 0.049764 0.600000 0.000000 0.300000
-0.248151 0.348021 -0.349803 0.600000 0.000000 0.300000
0.104859 0.623943 -0.413146 0.800000 0.200000 0.500000
-0.697584 0.120183 -0.312428 0.800000 0.200000 0.500000
-0.001082 0.613038 -0.401205 0.800000 0.200000 0.500000
-0.211441 -0.107926 -0.141298 0.500000 0.000000 0.500000
-0.728106 -0.131818 -0.203253 0.500000 0.000000 0.500000
-0.680622 -0.113229 0.447413 0.600000 0.000000 0.300000
0.003100 -0.082422 -0.240002 0.800000 0.200000 0.500000
0.295498 -0.157392 0.672945 0.600000 0.000000 0.300000
0.517247 0.375983 -0.355547 0.600000 0.000000 0.300000
0.108567 0.494147 -0.415697 0.800000 0.200000 0.500000
0.203048 0.599442 -0.440692 0.800000 0.200000 0.500000
-0.559721 0.538449 -0.394782 0.600000 0.000000 0.300000
0.544143 -0.114005 0.679196 0.600000 0.000000 0.300000
-0.466757 -0.112753 0.507218 0.600000 0.000000 0.300000
0.738244 0.399360 -0.366964 0.800000 0.200000 0.500000
-0.049142 0.446661 -0.372358 0.600000 0.000000 0.300000
0.629501 0.003423 -0.298721 0.800000 0.200000 0.500000
0.061167 -0.190405 -0.178761 0.500000 0.000000 0.500000
0.432119 0.147258 -0.302135 0.600000 0.000000 0.300000
-0.174969 -0.107926 -0.100622 0.500000 0.000000 0.500000
0.521263 -0.110017 0.345480 0.000000 0.500000 0.500000
0.613169 -0.113368 0.498022 0.600000 0.000000 0.300000
0.188678 -0.136072 0.683016 0.600000 0.000000 0.300000
0.491640 -0.173957 0.470922 0.600000 0.000000 0.300000
0.505845 0.514905 -0.388616 0.600000 0.000000 0.300000
0.107990 0.212328 -0.317317 0.600000 0.000000 0.300000
0.217412 -0.115752 -0.236926 0.800000 0.200000 0.500000
-0.722475 -0.138802 -0.116595 0.500000 0.000000 0.500000
0.033806 -0.115724 0.559307 0.300000 0.000000 0.600000
-0.155273 -0.190401 -0.178858 0.500000 0.000000 0.500000
0.302422 -0.113753 0.505957 0.600000 0.000000 0.300000
0.640616 -0.170661 0.512703 0.600000 0.000000 0.300000
0.196644 -0.170012 0.530035 0.600000 0.000000 0.300000
0.487664 0.270166 -0.330330 0.600000 0.000000 0.300000
-0.350107 -0.114586 -0.019549 0.000000 0.500000 0.500000
0.521351 0.602920 -0.408137 0.800000 0.200000 0.500000
0.156842 0.601733 -0.421758 0.800000 0.200000 0.500000
-0.496646 -0.181760 0.293616 0.600000 0.000000 0.300000
-0.163986 -0.192569 -0.042406 0.600000 0.000000 0.300000
0.453397 -0.192792 0.058973 0.600000 0.000000 0.300000
-0.461687 -0.108744 -0.272011 0.800000 0.200000 0.500000
-0.503717 -0.135811 -0.232147 0.800000 0.200000 0.500000
-0.660647 -0.181760 0.346668 0.600000 0.000000 0.300000
0.523411 0.476204 -0.411421 0.800000 0.200000 0.500000
0.418758 0.040156 -0.307567 0.800000 0.200000 0.500000
0.445966 -0.169818 0.586662 0.600000 0.000000 0.300000
0.144005 0.325324 -0.375474 0.800000 0.200000 0.500000
0.520127 -0.112185 0.385556 0.000000 0.500000 0.500000
0.078780 -0.109862 0.150379 0.000000 0.500000 0.500000
0.584919 -0.108031 -0.073980 0.500000 0.000000 0.500000
0.436226 0.392519 -0.359457 0.600000 0.000000 0.300000
-0.479334 -0.123887 -0.268393 0.800000 0.200000 0.500000
-0.326141 -0.192586 -0.034659 0.600000 0.000000 0.300000
-0.304999 0.452668 -0.373787 0.600000 0.000000 0.300000
-0.729162 -0.138925 0.106659 0.600000 0.000000 0.300000
0.413522 -0.192565 -0.044259 0.600000 0.000000 0.300000
-0.044484 0.370178 -0.386188 0.800000 0.200000 0.500000
-0.483276 0.654211 -0.425970 0.800000 0.200000 0.500000
-0.517099 -0.185484 -0.196918 0.800000 0.200000 0.500000
0.039291 0.559915 -0.399432 0.600000 0.000000 0.300000
0.595058 -0.192683 0.009538 0.600000 0.000000 0.300000
-0.350484 -0.110029 0.031710 0.000000 0.500000 0.500000
0.231577 -0.128043 -0.223681 0.800000 0.200000 0.500000
-0.553113 0.587007 -0.430127 0.800000 0.200000 0.500000
0.173861 0.169947 -0.338486 0.800000 0.200000 0.500000
-0.146023 0.610722 -0.440680 0.800000 0.200000 0.500000
0.044747 -0.175133 -0.242365 0.800000 0.200000 0.500000
-0.388080 -0.112892 -0.271012 0.800000 0.200000 0.500000
0.643752 -0.189482 0.144216 0.600000 0.000000 0.300000
-0.606222 -0.046161 -0.286913 0.800000 0.200000 0.500000
0.529143 0.360221 -0.351851 0.600000 0.000000 0.300000
-0.641897 -0.071001 -0.246248 0.800000 0.200000 0.500000
-0.009604 -0.120937 -0.225214 0.800000 0.200000 0.500000
-0.208413 0.167115 -0.305765 0.600000 0.000000 0.300000
-0.556597 -0.112753 0.556073 0.600000 0.000000 0.300000
-0.134416 -0.110014 0.376650 0.000000 0.500000 0.500000
0.469781 -0.115698 0.427064 0.600000 0.000000 0.300000
0.221825 -0.110051 0.183107 0.000000 0.500000 0.500000
0.506129 -0.181760 0.278509 0.600000 0.000000 0.300000
-0.262717 -0.001905 -0.265526 0.600000 0.000000 0.300000
-0.114103 0.607716 -0.398673 0.800000 0.200000 0.500000
-0.729665 -0.133559 0.419373 0.600000 0.000000 0.300000
0.735477 0.389146 -0.347442 0.800000 0.200000 0.500000
-0.212293 0.602588 -0.408059 0.800000 0.200000 0.500000
-0.650901 -0.191802 -0.207127 0.800000 0.200000 0.500000
-0.047988 0.537950 -0.394103 0.600000 0.000000 0.300000
0.450307 -0.109970 0.323273 0.000000 0.500000 0.500000
-0.707469 -0.115485 0.428735 0.600000 0.000000 0.300000
0.434323 -0.182155 0.237624 0.600000 0.000000 0.300000
-0.592349 -0.117990 0.376873 0.600000 0.000000 0.300000
-0.711764 0.423483 -0.365390 0.800000 0.200000 0.500000
0.391490 -0.169818 0.549662 0.600000 0.000000 0.300000
0.066033 -0.181760 0.336349 0.600000 0.000000 0.300000
-0.043161 0.616510 -0.439293 0.800000 0.200000 0.500000
-0.421138 -0.107928 -0.061864 0.500000 0.000000 0.500000
0.121626 -0.166232 0.658752 0.600000 0.000000 0.300000
0.205628 0.420117 -0.366112 0.600000 0.000000 0.300000
0.650024 -0.125761 0.684442 0.600000 0.000000 0.300000
0.643659 -0.039595 -0.257631 0.800000 0.200000 0.500000
-0.146807 -0.182900 0.226345 0.600000 0.000000 0.300000
-0.308800 -0.179402 0.409296 0.600000 0.000000 0.300000
0.064143 0.017539 -0.270202 0.600000 0.000000 0.300000
-0.694219 0.646164 -0.428714 0.800000 0.200000 0.500000
-0.710620 0.205526 -0.313465 0.800000 0.200000 0.500000
0.464995 -0.175915 0.448821 0.600000 0.000000 0.300000
-0.674015 -0.180285 0.398614 0.600000 0.000000 0.300000
0.253385 -0.113380 0.591000 0.600000 0.000000 0.300000
-0.557683 0.604532 -0.397926 0.800000 0.200000 0.500000
0.355165 0.104205 -0.291813 0.600000 0.000000 0.300000
-0.411450 0.343481 -0.348891 0.600000 0.000000 0.300000
0.426073 -0.114954 -0.237116 0.800000 0.200000 0.500000
0.306284 -0.113465 0.540058 0.600000 0.000000 0.300000
-0.059932 -0.193728 -0.220782 0.800000 0.200000 0.500000
-0.583046 -0.112753 0.616727 0.600000 0.000000 0.300000
0.544511 0.459298 -0.375366 0.600000 0.000000 0.300000
0.507595 -0.189245 0.148353 0.600000 0.000000 0.300000
0.299938 -0.164968 -0.225201 0.800000 0.200000 0.500000
0.265020 -0.192824 0.073433 0.600000 0.000000 0.300000
0.583847 0.522365 -0.390392 0.600000 0.000000 0.300000
0.716104 -0.112841 0.535515 0.600000 0.000000 0.300000
-0.692585 -0.169817 0.567496 0.600000 0.000000 0.300000
0.177211 0.352181 -0.349935 0.600000 0.000000 0.300000
-0.357610 -0.169531 -0.224114 0.800000 0.200000 0.500000
-0.467833 -0.183884 -0.125254 0.600000 0.000000 0.300000
0.564722 -0.048200 -0.286427 0.800000 0.200000 0.500000
0.216698 -0.109869 0.075121 0.000000 0.500000 0.500000
0.068684 0.165967 -0.337535 0.800000 0.200000 0.500000
-0.040630 0.584009 -0.426616 0.800000 0.200000 0.500000
0.085173 -0.112857 -0.190350 0.500000 0.000000 0.500000
-0.693775 0.152076 -0.300731 0.800000 0.200000 0.500000
-0.122709 0.540052 -0.394604 0.600000 0.000000 0.300000
0.371654 0.669258 -0.419210 0.800000 0.200000 0.500000
0.446904 0.276101 -0.331785 0.600000 0.000000 0.300000
0.351906 -0.052888 -0.253434 0.800000 0.200000 0.500000
0.481797 -0.175601 -0.222668 0.800000 0.200000 0.500000
-0.608943 0.575593 -0.400075 0.800000 0.200000 0.500000
-0.634252 -0.112753 0.643893 0.600000 0.000000 0.300000
0.454966 -0.085220 -0.277699 0.800000 0.200000 0.500000
-0.289481 0.386073 -0.358316 0.600000 0.000000 0.300000
0.269945 -0.113754 0.499733 0.600000 0.000000 0.300000
0.492316 -0.111309 -0.227515 0.800000 0.200000 0.500000
-0.323333 0.582252 -0.423623 0.800000 0.200000 0.500000
-0.469391 0.538163 -0.394154 0.600000 0.000000 0.300000
-0.284532 0.582239 -0.423783 0.800000 0.200000 0.500000
-0.119713 -0.184449 -0.233927 0.800000 0.200000 0.500000
-0.243414 -0.191888 0.112954 0.600000 0.000000 0.300000
0.543669 0.255364 -0.358837 0.800000 0.200000 0.500000
-0.504893 0.614195 -0.439848 0.800000 0.200000 0.500000
-0.325978 -0.190391 0.134055 0.600000 0.000000 0.300000
-0.169067 -0.110093 0.236926 0.000000 0.500000 0.500000
-0.664691 -0.112753 0.599044 0.600000 0.000000 0.300000
0.269570 -0.169818 0.561632 0.600000 0.000000 0.300000
-0.052229 -0.161106 -0.226121 0.800000 0.200000 0.500000
0.430027 -0.097877 -0.241184 0.800000 0.200000 0.500000
0.271285 0.501884 -0.385524 0.600000 0.000000 0.300000
0.328378 0.143663 -0.301279 0.600000 0.000000 0.300000
-0.508750 -0.056315 -0.252617 0.800000 0.200000 0.500000
-0.516807 -0.005777 -0.264578 0.600000 0.000000 0.300000
0.614604 -0.179237 0.411275 0.600000 0.000000 0.300000
-0.088859 -0.132436 -0.266355 0.800000 0.200000 0.500000
0.738705 0.248899 -0.323798 0.800000 0.200000 0.500000
-0.317504 0.597143 -0.406761 0.800000 0.200000 0.500000
-0.678715 0.589282 -0.427047 0.800000 0.200000 0.500000
-0.171242 -0.192673 0.004817 0.600000 0.000000 0.300000
-0.620665 -0.131363 -0.208936 0.500000 0.000000 0.500000
-0.579393 -0.181760 0.276657 0.600000 0.000000 0.300000
-0.026020 0.212019 -0.348418 0.800000 0.200000 0.500000
0.740990 -0.042557 -0.248363 0.800000 0.200000 0.500000
-0.517476 0.604169 -0.408435 0.800000 0.200000 0.500000
-0.251004 -0.109877 0.224647 0.000000 0.500000 0.500000
-0.335578 -0.193910 -0.207473 0.800000 0.200000 0.500000
0.269541 0.069256 -0.282524 0.600000 0.000000 0.300000
0.082684 0.334063 -0.377509 0.800000 0.200000 0.500000
-0.531865 -0.181760 0.274447 0.600000 0.000000 0.300000
-0.019754 -0.115231 0.429707 0.600000 0.000000 0.300000
0.277380 -0.109924 0.305074 0.000000 0.500000 0.500000
-0.179661 0.539529 -0.426470 0.800000 0.200000 0.500000
0.347835 -0.102665 -0.229858 0.800000 0.200000 0.500000
-0.661402 0.506901 -0.417978 0.800000 0.200000 0.500000
-0.631673 0.572146 -0.434251 0.800000 0.200000 0.500000
-0.551527 0.495415 -0.385075 0.600000 0.000000 0.300000
0.341846 -0.174353 0.466462 0.600000 0.000000 0.300000
0.280030 -0.169818 0.615266 0.600000 0.000000 0.300000
-0.520438 -0.126916 -0.223776 0.800000 0.200000 0.500000
-0.623512 -0.118945 0.198282 0.600000 0.000000 0.300000
-0.444649 -0.181760 0.294626 0.600000 0.000000 0.300000
-0.661860 -0.004911 -0.263030 0.800000 0.200000 0.500000
-0.561720 0.096461 -0.288984 0.600000 0.000000 0.300000
0.637138 -0.181868 0.247622 0.600000 0.000000 0.300000
-0.697378 0.463056 -0.374817 0.800000 0.200000 0.500000
0.159310 -0.192821 0.075487 0.600000 0.000000 0.300000
-0.673159 -0.109936 -0.238311 0.800000 0.200000 0.500000
0.118356 0.466824 -0.409198 0.800000 0.200000 0.500000
-0.515517 -0.157736 -0.256796 0.800000 0.200000 0.500000
-0.566144 0.273978 -0.363181 0.800000 0.200000 0.500000
0.736647 0.622047 -0.419105 0.800000 0.200000 0.500000
-0.654885 0.150522 -0.301832 0.600000 0.000000 0.300000
0.428183 -0.181760 0.296396 0.600000 0.000000 0.300000
0.405308 -0.192780 0.089990 0.600000 0.000000 0.300000
0.508026 0.209256 -0.316669 0.600000 0.000000 0.300000
-0.546787 -0.110051 0.166873 0.000000 0.500000 0.500000
0.147479 -0.004046 -0.296946 0.800000 0.200000 0.500000
-0.084846 -0.192744 0.037211 0.600000 0.000000 0.300000
-0.157359 -0.169818 0.595990 0.600000 0.000000 0.300000
-0.622923 -0.164026 -0.225426 0.800000 0.200000 0.500000
-0.296672 -0.114305 0.398566 0.600000 0.000000 0.300000
0.184152 0.645523 -0.418287 0.800000 0.200000 0.500000
-0.213041 -0.153606 -0.259101 0.800000 0.200000 0.500000
0.345612 -0.026430 -0.259675 0.600000 0.000000 0.300000
-0.476513 0.484899 -0.413489 0.800000 0.200000 0.500000
0.206371 -0.181760 0.268863 0.600000 0.000000 0.300000
-0.315992 0.050289 -0.309960 0.800000 0.200000 0.500000
-0.420466 -0.172219 -0.223474 0.800000 0.200000 0.500000
0.663376 0.285883 -0.334133 0.800000 0.200000 0.500000
-0.107020 0.351632 -0.381690 0.800000 0.200000 0.500000
0.465828 0.660118 -0.428842 0.800000 0.200000 0.500000
-0.319619 0.311999 -0.372330 0.800000 0.200000 0.500000
-0.070436 0.364729 -0.352926 0.600000 0.000000 0.300000
0.577427 -0.176849 0.438273 0.600000 0.000000 0.300000
0.331424 -0.183878 -0.125281 0.600000 0.000000 0.300000
0.226948 -0.161218 -0.213051 0.800000 0.200000 0.500000
0.007984 0.560971 -0.399686 0.600000 0.000000 0.300000
-0.291709 0.647872 -0.418847 0.800000 0.200000 0.500000
0.557496 0.572455 -0.399632 0.800000 0.200000 0.500000
0.740916 0.174196 -0.297811 0.800000 0.200000 0.500000
0.546526 0.484441 -0.381372 0.600000 0.000000 0.300000
0.128451 0.357217 -0.383021 0.800000 0.200000 0.500000
-0.229976 -0.155204 -0.227527 0.800000 0.200000 0.500000
-0.146919 0.282712 -0.365262 0.800000 0.200000 0.500000
-0.010654 0.449208 -0.405018 0.800000 0.200000 0.500000
0.309738 0.647075 -0.407960 0.800000 0.200000 0.500000
0.268060 -0.111496 -0.271344 0.800000 0.200000 0.500000
-0.353215 -0.110110 0.057414 0.000000 0.500000 0.500000
-0.473881 -0.192609 -0.024099 0.600000 0.000000 0.300000
0.582245 -0.119969 -0.235921 0.800000 0.200000 0.500000
0.109793 -0.108286 -0.156839 0.500000 0.000000 0.500000
0.189791 -0.188784 -0.160715 0.500000 0.000000 0.500000
-0.074949 -0.109872 0.257348 0.000000 0.500000 0.500000
-0.414857 -0.110029 0.362499 0.000000 0.500000 0.500000
-0.112674 -0.116395 -0.196862 0.500000 0.000000 0.500000
0.245538 0.153128 -0.303535 0.600000 0.000000 0.300000
0.495586 -0.169858 -0.209073 0.500000 0.000000 0.500000
0.442333 -0.108000 -0.154558 0.500000 0.000000 0.500000
-0.439629 -0.113384 0.443831 0.600000 0.000000 0.300000
-0.493513 -0.181760 0.315389 0.600000 0.000000 0.300000
-0.134049 -0.025624 -0.291897 0.800000 0.200000 0.500000
0.235234 -0.192651 -0.005327 0.600000 0.000000 0.300000
0.117391 -0.110078 0.329575 0.000000 0.500000 0.500000
-0.169713 0.028412 -0.272788 0.600000 0.000000 0.300000
0.573585 -0.110555 0.313034 0.000000 0.500000 0.500000
0.266088 0.611318 -0.440537 0.800000 0.200000 0.500000
-0.036173 -0.109984 0.146724 0.000000 0.500000 0.500000
0.335875 -0.190341 -0.180518 0.500000 0.000000 0.500000
-0.428322 0.431032 -0.369727 0.600000 0.000000 0.300000
-0.328512 -0.025211 -0.291995 0.800000 0.200000 0.500000
0.048927 -0.107285 -0.057000 0.500000 0.000000 0.500000
-0.307924 0.567395 -0.400022 0.800000 0.200000 0.500000
-0.174219 -0.189522 0.144901 0.600000 0.000000 0.300000
-0.513391 0.486088 -0.382790 0.600000 0.000000 0.300000
-0.424398 -0.110214 0.279582 0.000000 0.500000 0.500000
0.124271 0.118249 -0.326165 0.800000 0.200000 0.500000
-0.611334 0.435093 -0.401655 0.800000 0.200000 0.500000
0.003710 0.227306 -0.352059 0.800000 0.200000 0.500000
-0.659544 -0.093626 -0.274996 0.800000 0.200000 0.500000
-0.472557 -0.112937 0.656681 0.600000 0.000000 0.300000
-0.133492 -0.194434 -0.218181 0.800000 0.200000 0.500000
-0.309539 0.562293 -0.431863 0.800000 0.200000 0.500000
0.708581 0.639066 -0.431781 0.800000 0.200000 0.500000
-0.456361 -0.112823 0.566371 0.600000 0.000000 0.300000
-0.051789 0.197264 -0.313177 0.600000 0.000000 0.300000
0.451430 -0.109878 0.186384 0.000000 0.500000 0.500000
0.238342 -0.169843 0.539422 0.600000 0.000000 0.300000
-0.161924 -0.118194 -0.199692 0.500000 0.000000 0.500000
0.513332 -0.182291 -0.137593 0.500000 0.000000 0.500000
-0.324179 -0.108797 -0.238583 0.800000 0.200000 0.500000
0.380212 -0.181784 0.255265 0.600000 0.000000 0.300000
-0.627422 0.343892 -0.379847 0.800000 0.200000 0.500000
-0.163958 0.595726 -0.406424 0.800000 0.200000 0.500000
-0.499210 0.159805 -0.304031 0.600000 0.000000 0.300000
0.325286 -0.138206 -0.211658 0.500000 0.000000 0.500000
0.633148 -0.134540 -0.109250 0.500000 0.000000 0.500000
0.604620 -0.097966 -0.241163 0.800000 0.200000 0.500000
0.606956 0.328712 -0.376264 0.800000 0.200000 0.500000
0.023059 0.104054 -0.322790 0.800000 0.200000 0.500000
-0.171438 0.326498 -0.344156 0.600000 0.000000 0.300000
0.163500 -0.110040 0.215150 0.000000 0.500000 0.500000
0.311836 0.482679 -0.412959 0.800000 0.200000 0.500000
-0.396671 -0.182770 -0.139758 0.500000 0.000000 0.500000
-0.114963 0.396565 -0.360424 0.600000 0.000000 0.300000
-0.018566 -0.109998 0.241195 0.000000 0.500000 0.500000
-0.507812 -0.165497 0.661029 0.600000 0.000000 0.300000
-0.495930 0.383593 -0.358359 0.600000 0.000000 0.300000
-0.226819 -0.191458 -0.218890 0.800000 0.200000 0.500000
0.312508 -0.172141 0.491430 0.600000 0.000000 0.300000
-0.345771 -0.183806 0.216200 0.600000 0.000000 0.300000
0.222262 -0.095847 -0.241667 0.800000 0.200000 0.500000
0.554455 -0.110353 -0.238212 0.800000 0.200000 0.500000
-0.399972 -0.110184 0.276432 0.000000 0.500000 0.500000
-0.466714 -0.189059 -0.195611 0.800000 0.200000 0.500000
-0.339796 -0.169786 0.624252 0.600000 0.000000 0.300000
-0.007998 -0.112820 0.670402 0.600000 0.000000 0.300000
0.099671 -0.192557 -0.047751 0.600000 0.000000 0.300000
0.239793 -0.109925 0.362955 0.000000 0.500000 0.500000
0.345838 -0.181868 0.247357 0.600000 0.000000 0.300000
0.667679 -0.185433 -0.149665 0.500000 0.000000 0.500000
-0.513171 0.641416 -0.423662 0.800000 0.200000 0.500000
-0.587231 -0.113023 0.450950 0.600000 0.000000 0.300000
0.403246 0.191538 -0.343626 0.800000 0.200000 0.500000
-0.702293 0.131291 -0.295779 0.800000 0.200000 0.500000
-0.267860 0.020158 -0.270826 0.600000 0.000000 0.300000
0.679957 0.374908 -0.385788 0.800000 0.200000 0.500000
-0.626644 0.460414 -0.407678 0.800000 0.200000 0.500000
0.731959 0.094845 -0.287097 0.800000 0.200000 0.500000
-0.093041 -0.176708 -0.204770 0.500000 0.000000 0.500000
-0.390690 0.594371 -0.412888 0.800000 0.200000 0.500000
-0.146693 -0.192196 0.107626 0.600000 0.000000 0.300000
0.187073 -0.151114 0.677533 0.600000 0.000000 0.300000
-0.639703 -0.144611 -0.263033 0.800000 0.200000 0.500000
0.600592 0.094166 -0.320426 0.800000 0.200000 0.500000
-0.555218 -0.110149 0.348722 0.000000 0.500000 0.500000
0.299628 -0.065563 -0.248965 0.800000 0.200000 0.500000
0.055474 -0.192514 -0.067485 0.600000 0.000000 0.300000
0.698018 0.040635 -0.269930 0.800000 0.200000 0.500000
-0.456737 0.624781 -0.413346 0.800000 0.200000 0.500000
-0.580020 0.649034 -0.431498 0.800000 0.200000 0.500000
-0.630786 0.637899 -0.416470 0.800000 0.200000 0.500000
0.196414 -0.139121 -0.231359 0.800000 0.200000 0.500000
-0.385189 -0.108288 -0.106295 0.500000 0.000000 0.500000
-0.216902 0.664198 -0.413018 0.800000 0.200000 0.500000
-0.436336 -0.168973 0.643541 0.600000 0.000000 0.300000
-0.611947 -0.192304 -0.077875 0.600000 0.000000 0.300000
-0.406656 0.599437 -0.440691 0.800000 0.200000 0.500000
-0.138369 -0.110111 0.315010 0.000000 0.500000 0.500000
0.330264 -0.192656 -0.003099 0.600000 0.000000 0.300000
-0.360548 0.468402 -0.377544 0.600000 0.000000 0.300000
0.287550 -0.113753 0.514672 0.600000 0.000000 0.300000
0.615526 0.170979 -0.338732 0.800000 0.200000 0.500000
0.421719 -0.188498 0.157674 0.600000 0.000000 0.300000
-0.566907 0.646770 -0.407888 0.800000 0.200000 0.500000
0.514446 -0.099577 -0.240779 0.800000 0.200000 0.500000
0.317502 -0.192349 0.104314 0.600000 0.000000 0.300000
0.317510 -0.192636 -0.012173 0.600000 0.000000 0.300000
0.291961 -0.110059 0.239722 0.000000 0.500000 0.500000
0.570747 -0.181423 0.377832 0.600000 0.000000 0.300000
0.027334 -0.012711 -0.262917 0.600000 0.000000 0.300000
0.570542 0.661896 -0.411877 0.800000 0.200000 0.500000
0.409674 0.548123 -0.396576 0.600000 0.000000 0.300000
-0.540410 -0.187356 0.171930 0.600000 0.000000 0.300000
-0.636015 -0.181709 0.365823 0.600000 0.000000 0.300000
-0.422851 -0.192734 0.032375 0.600000 0.000000 0.300000
0.627121 0.379568 -0.388427 0.800000 0.200000 0.500000
-0.593018 -0.109505 -0.074206 0.500000 0.000000 0.500000
0.193782 -0.169818 0.600138 0.600000 0.000000 0.300000
0.017031 0.656678 -0.426202 0.800000 0.200000 0.500000
0.222092 0.471144 -0.410221 0.800000 0.200000 0.500000
-0.226043 -0.181240 0.382330 0.600000 0.000000 0.300000
-0.618603 -0.112928 0.669854 0.600000 0.000000 0.300000
0.735891 -0.134381 -0.052292 0.600000 0.000000 0.300000
0.238879 -0.186046 0.188276 0.600000 0.000000 0.300000
0.435078 0.423507 -0.398812 0.800000 0.200000 0.500000
-0.455808 -0.192487 -0.079727 0.600000 0.000000 0.300000
-0.221724 -0.113216 -0.025105 0.500000 0.000000 0.500000
-0.115559 -0.180647 0.393455 0.600000 0.000000 0.300000
-0.461337 -0.112253 -0.030321 0.500000 0.000000 0.500000
0.232055 -0.192612 -0.022709 0.600000 0.000000 0.300000
0.092981 -0.158376 -0.214397 0.800000 0.200000 0.500000
0.145416 -0.113200 -0.025111 0.500000 0.000000 0.500000
0.548092 0.530135 -0.424291 0.800000 0.200000 0.500000
-0.233351 -0.192544 0.097823 0.600000 0.000000 0.300000
-0.705173 0.254043 -0.325023 0.800000 0.200000 0.500000
-0.165334 0.617295 -0.400942 0.800000 0.200000 0.500000
0.339721 -0.181760 0.305065 0.600000 0.000000 0.300000
0.269869 0.521308 -0.390140 0.600000 0.000000 0.300000
0.363545 0.437598 -0.370241 0.600000 0.000000 0.300000
0.572320 -0.113074 0.605799 0.600000 0.000000 0.300000
-0.729087 -0.144595 -0.144028 0.500000 0.000000 0.500000
-0.447529 -0.151551 -0.213385 0.500000 0.000000 0.500000
-0.203229 0.588872 -0.413526 0.800000 0.200000 0.500000
0.182256 -0.113754 0.493166 0.600000 0.000000 0.300000
0.445439 -0.186078 0.187868 0.600000 0.000000 0.300000
-0.568349 -0.160665 -0.254631 0.800000 0.200000 0.500000
0.487003 -0.110115 0.012762 0.000000 0.500000 0.500000
-0.153147 -0.177537 -0.204112 0.500000 0.000000 0.500000
0.157055 0.083395 -0.317792 0.800000 0.200000 0.500000
-0.293842 0.240055 -0.355189 0.800000 0.200000 0.500000
0.509698 0.119902 -0.295538 0.600000 0.000000 0.300000
0.328443 -0.176442 -0.204980 0.500000 0.000000 0.500000
0.391409 0.281177 -0.333010 0.600000 0.000000 0.300000
0.189541 0.665669 -0.427512 0.800000 0.200000 0.500000
0.227919 -0.191519 0.119351 0.600000 0.000000 0.300000
0.286702 0.506533 -0.386626 0.600000 0.000000 0.300000
-0.546809 -0.109909 0.058873 0.000000 0.500000 0.500000
-0.265964 -0.110029 0.199469 0.000000 0.500000 0.500000
0.657240 0.663508 -0.428030 0.800000 0.200000 0.500000
0.050564 -0.186208 0.186252 0.600000 0.000000 0.300000
-0.343435 -0.114945 0.431326 0.600000 0.000000 0.300000
0.684726 -0.149029 -0.228998 0.800000 0.200000 0.500000
-0.310113 0.667705 -0.425730 0.800000 0.200000 0.500000
-0.665981 0.289422 -0.334918 0.800000 0.200000 0.500000
0.610923 0.107938 -0.323715 0.800000 0.200000 0.500000
0.734017 0.366766 -0.341984 0.800000 0.200000 0.500000
-0.317852 -0.120291 -0.014860 0.600000 0.000000 0.300000
-0.489987 0.559213 -0.399263 0.600000 0.000000 0.300000
-0.425812 -0.110102 0.015473 0.000000 0.500000 0.500000
-0.113575 -0.181760 0.308945 0.600000 0.000000 0.300000
-0.021013 -0.125280 -0.268060 0.800000 0.200000 0.500000
-0.420825 0.196069 -0.344678 0.800000 0.200000 0.500000
0.491412 0.400307 -0.361341 0.600000 0.000000 0.300000
-0.559667 -0.184819 -0.233578 0.800000 0.200000 0.500000
0.422101 0.644452 -0.407336 0.800000 0.200000 0.500000
-0.298793 -0.131771 -0.266513 0.800000 0.200000 0.500000
0.406912 -0.006071 -0.296476 0.800000 0.200000 0.500000
0.000854 0.592817 -0.397603 0.800000 0.200000 0.500000
-0.463340 -0.103085 -0.230067 0.800000 0.200000 0.500000
-0.430673 -0.090169 -0.235526 0.800000 0.200000 0.500000
-0.222545 0.465928 -0.408986 0.800000 0.200000 0.500000
0.031666 -0.167344 -0.209787 0.800000 0.200000 0.500000
-0.256341 0.668037 -0.424336 0.800000 0.200000 0.500000
0.048432 -0.119890 -0.269344 0.800000 0.200000 0.500000
0.570022 0.516156 -0.420968 0.800000 0.200000 0.500000
-0.311573 -0.110155 0.139530 0.000000 0.500000 0.500000
-0.327199 -0.045797 -0.255125 0.800000 0.200000 0.500000
0.005941 0.280072 -0.332747 0.600000 0.000000 0.300000
-0.344578 0.126618 -0.296114 0.600000 0.000000 0.300000
-0.409247 0.453958 -0.374585 0.600000 0.000000 0.300000
-0.326665 0.393743 -0.360449 0.600000 0.000000 0.300000
-0.712359 0.458623 -0.385683 0.800000 0.200000 0.500000
-0.385646 0.573178 -0.399576 0.800000 0.200000 0.500000
-0.266703 -0.192522 -0.063713 0.600000 0.000000 0.300000
-0.347363 -0.192659 -0.001585 0.600000 0.000000 0.300000
-0.618041 -0.118566 0.251561 0.600000 0.000000 0.300000
-0.496324 -0.085426 -0.277650 0.800000 0.200000 0.500000
0.715767 0.266848 -0.328074 0.800000 0.200000 0.500000
-0.109362 -0.169818 0.602417 0.600000 0.000000 0.300000
-0.422877 -0.113580 -0.024982 0.500000 0.000000 0.500000
0.500916 -0.110015 0.351929 0.000000 0.500000 0.500000
-0.361097 -0.169818 0.576801 0.600000 0.000000 0.300000
0.000156 0.073881 -0.315524 0.800000 0.200000 0.500000
0.718474 -0.176309 -0.101642 0.600000 0.000000 0.300000
-0.334225 0.446598 -0.372344 0.600000 0.000000 0.300000
-0.264909 0.381574 -0.388905 0.800000 0.200000 0.500000
0.410956 0.351100 -0.349677 0.600000 0.000000 0.300000
