-0.247555 -0.003153 -0.237049 0.000000 1.000000 0.000000
-0.870242 -0.110388 0.158486 0.300000 0.000000 0.600000
-0.870242 0.231698 -0.085919 0.300000 0.000000 0.600000
-0.353258 0.328523 0.079164 1.000000 0.000000 0.000000
0.433772 0.182199 -0.164569 0.000000 1.000000 0.000000
0.216566 -0.289912 -0.199603 0.000000 0.500000 0.500000
0.283643 -0.073022 0.240943 0.600000 0.000000 0.300000
0.311387 0.346145 -0.073848 1.000000 0.000000 0.000000
0.043889 0.295430 -0.047266 0.800000 0.200000 0.500000
0.134187 -0.373045 0.011102 0.300000 0.600000 0.000000
0.169564 0.165522 -0.101687 0.000000 0.500000 0.500000
-0.784195 0.328523 -0.096178 1.000000 0.000000 0.000000
0.484435 0.243035 -0.243973 0.600000 0.000000 0.300000
0.244613 0.346145 0.081579 1.000000 0.000000 0.000000
-0.703412 0.346145 0.264189 1.000000 0.000000 0.000000
0.043889 0.237555 0.045485 0.800000 0.200000 0.500000
0.191443 -0.014001 -0.075333 0.300000 0.000000 0.600000
0.401618 -0.017305 0.023157 0.300000 0.000000 0.600000
0.196023 -0.373045 0.151666 0.300000 0.600000 0.000000
0.166917 0.024905 0.258564 0.300000 0.600000 0.000000
-0.902210 0.348678 0.278936 1.000000 0.000000 0.000000
-0.870242 0.290604 -0.189654 0.300000 0.000000 0.600000
0.484435 0.229329 0.080869 0.600000 0.000000 0.300000
0.061511 -0.428064 -0.141131 0.800000 0.200000 0.500000
0.466813 0.130559 -0.213177 0.600000 0.000000 0.300000
0.431188 -0.017305 -0.015307 0.300000 0.000000 0.600000
-0.261073 0.328523 0.008691 1.000000 0.000000 0.000000
0.061511 0.151126 0.213859 0.800000 0.200000 0.500000
0.279561 -0.123335 -0.181981 1.000000 0.000000 0.000000
0.433772 -0.085170 -0.082384 0.000000 0.000000 1.000000
-0.745674 0.328523 0.101766 1.000000 0.000000 0.000000
0.453704 -0.065215 0.258564 0.600000 0.000000 0.300000
-0.652071 -0.178104 -0.247985 0.000000 1.000000 0.000000
0.061511 0.113435 -0.107654 0.800000 0.200000 0.500000
0.087886 -0.242275 0.258564 0.500000 0.500000 0.000000
0.043889 -0.326921 0.160335 0.800000 0.200000 0.500000
0.484435 -0.441870 -0.074484 0.600000 0.000000 0.300000
0.203358 -0.418086 0.233233 0.300000 0.000000 0.600000
0.466813 0.245567 -0.016898 0.600000 0.000000 0.300000
-0.817268 -0.053144 -0.237049 0.000000 1.000000 0.000000
0.174220 -0.014001 -0.158958 0.300000 0.000000 0.600000
0.175777 -0.193523 0.185076 0.000000 1.000000 0.000000
0.287885 -0.196827 -0.108308 0.000000 1.000000 0.000000
-0.728077 0.346145 -0.156999 1.000000 0.000000 0.000000
-0.852620 -0.232542 -0.218169 0.300000 0.000000 0.600000
0.043889 -0.444645 -0.250875 0.800000 0.200000 0.500000
0.076930 0.024159 0.216409 0.600000 0.000000 0.300000
0.466813 -0.398506 -0.212611 0.600000 0.000000 0.300000
0.405084 0.096136 -0.192172 0.600000 0.300000 0.000000
0.228230 -0.193523 0.110912 0.000000 1.000000 0.000000
0.061511 -0.056412 0.203800 0.800000 0.200000 0.500000
0.091304 -0.262909 0.054266 0.500000 0.500000 0.000000
0.325420 -0.315479 0.258564 0.500000 0.500000 0.000000
0.402619 0.346145 0.045442 1.000000 0.000000 0.000000
0.266108 0.058751 -0.199603 0.600000 0.300000 0.000000
0.094552 -0.347556 0.048959 0.500000 0.500000 0.000000
0.043889 0.018331 -0.119727 0.800000 0.200000 0.500000
0.247689 -0.273792 0.223321 0.500000 0.500000 0.000000
0.059085 -0.475472 -0.054133 0.800000 0.200000 0.500000
-0.607286 0.328523 0.050506 1.000000 0.000000 0.000000
-0.424142 0.328523 0.269336 1.000000 0.000000 0.000000
0.061511 -0.318825 -0.020817 0.800000 0.200000 0.500000
-0.870242 -0.362095 -0.059022 0.300000 0.000000 0.600000
0.486451 0.328523 0.043163 1.000000 0.000000 0.000000
0.475093 -0.154256 0.240943 0.600000 0.000000 0.300000
0.466813 -0.241775 -0.076516 0.600000 0.000000 0.300000
0.113691 0.060900 0.258564 0.300000 0.600000 0.000000
-0.019331 0.346145 -0.057055 1.000000 0.000000 0.000000
-0.852620 0.229074 0.079768 0.300000 0.000000 0.600000
0.050372 0.225743 0.258564 0.800000 0.200000 0.500000
-0.491675 -0.133008 -0.254671 0.000000 1.000000 0.000000
0.366462 0.075780 0.258564 0.300000 0.600000 0.000000
-0.870242 -0.105130 -0.204044 0.300000 0.000000 0.600000
-0.047992 0.328523 0.121048 1.000000 0.000000 0.000000
0.261492 -0.017305 -0.007194 0.300000 0.000000 0.600000
0.152080 0.165522 0.196263 0.000000 0.500000 0.500000
-0.860602 0.346145 -0.154746 1.000000 0.000000 0.000000
0.484435 0.181641 -0.180207 0.600000 0.000000 0.300000
0.309869 -0.218823 0.240943 0.500000 0.500000 0.000000
0.297398 -0.398869 -0.014502 1.000000 0.000000 0.000000
0.484435 0.306672 -0.252641 0.600000 0.000000 0.300000
-0.870242 0.020746 -0.145393 0.300000 0.000000 0.600000
0.216957 0.300267 0.240943 0.800000 0.200000 0.500000
-0.190554 0.328523 -0.167893 1.000000 0.000000 0.000000
0.484435 -0.291513 -0.146725 0.600000 0.000000 0.300000
-0.852620 -0.338965 -0.003144 0.300000 0.000000 0.600000
0.246798 0.037079 0.223321 0.300000 0.600000 0.000000
0.394169 0.328523 -0.134952 1.000000 0.000000 0.000000
0.428555 -0.398869 -0.047998 1.000000 0.000000 0.000000
0.484435 -0.052887 0.014571 0.600000 0.000000 0.300000
-0.166397 -0.132327 -0.237049 0.000000 1.000000 0.000000
0.466813 -0.147858 0.143149 0.600000 0.000000 0.300000
-0.087982 0.328523 0.227548 1.000000 0.000000 0.000000
0.165944 0.279930 -0.254671 0.000000 0.000000 1.000000
-0.870242 0.074412 -0.062983 0.300000 0.000000 0.600000
0.311958 0.017186 0.223321 0.300000 0.600000 0.000000
-0.852620 -0.146549 -0.052108 0.300000 0.000000 0.600000
0.043889 -0.363317 -0.249727 0.800000 0.200000 0.500000
-0.568351 -0.011124 -0.254671 0.000000 1.000000 0.000000
-0.129517 0.346145 0.008620 1.000000 0.000000 0.000000
0.445563 -0.099916 -0.254671 0.000000 0.000000 1.000000
-0.038433 0.346145 0.210992 1.000000 0.000000 0.000000
-0.852620 -0.154214 0.196385 0.300000 0.000000 0.600000
0.310949 0.314339 0.240943 0.800000 0.200000 0.500000
0.133742 0.328523 -0.036182 1.000000 0.000000 0.000000
0.301670 -0.270651 -0.256213 0.000000 0.000000 1.000000
0.466813 -0.023388 -0.198957 0.600000 0.000000 0.300000
0.043889 0.226792 -0.217508 0.800000 0.200000 0.500000
0.186592 0.328523 0.280096 1.000000 0.000000 0.000000
-0.544132 0.346145 -0.002990 1.000000 0.000000 0.000000
0.106956 -0.373045 -0.104316 0.300000 0.600000 0.000000
-0.852620 0.220541 -0.253605 0.300000 0.000000 0.600000
0.276967 0.181206 0.223321 0.800000 0.200000 0.500000
0.176408 0.048522 -0.181981 0.600000 0.300000 0.000000
0.199409 -0.149824 -0.199603 1.000000 0.000000 0.000000
0.094552 0.248784 0.112705 0.500000 0.500000 0.000000
0.433772 -0.148592 -0.156973 0.000000 0.000000 1.000000
0.363561 -0.085382 -0.181981 1.000000 0.000000 0.000000
0.484435 -0.245603 0.022123 0.600000 0.000000 0.300000
0.451365 -0.196827 0.224525 0.000000 1.000000 0.000000
0.369195 -0.398869 0.027760 1.000000 0.000000 0.000000
0.302527 -0.262909 0.229779 0.500000 0.500000 0.000000
0.423421 0.346145 0.127417 1.000000 0.000000 0.000000
0.152041 -0.475472 0.217454 0.300000 0.000000 0.600000
0.326157 -0.017305 -0.199066 0.300000 0.000000 0.600000
0.390656 0.151167 0.240943 0.800000 0.200000 0.500000
0.043889 -0.378390 -0.148665 0.800000 0.200000 0.500000
0.122825 -0.193523 0.103572 0.000000 1.000000 0.000000
-0.585439 0.346145 0.294294 1.000000 0.000000 0.000000
-0.422886 -0.157173 -0.254671 0.000000 1.000000 0.000000
0.094552 0.200566 0.143587 0.500000 0.500000 0.000000
-0.835349 -0.175541 -0.254671 0.000000 1.000000 0.000000
0.466813 0.162301 -0.051364 0.600000 0.000000 0.300000
0.466813 -0.059710 -0.046491 0.600000 0.000000 0.300000
0.172134 -0.398869 -0.163524 1.000000 0.000000 0.000000
-0.000675 0.328523 0.267824 1.000000 0.000000 0.000000
0.094552 0.207430 0.063924 0.500000 0.500000 0.000000
0.349007 0.347660 -0.286048 1.000000 0.000000 0.000000
0.142576 -0.307070 -0.199603 0.000000 0.500000 0.500000
0.484435 0.074055 0.173064 0.600000 0.000000 0.300000
-0.764513 -0.145109 -0.254671 0.000000 1.000000 0.000000
0.202449 0.022544 -0.256213 0.000000 0.000000 1.000000
0.419326 0.162217 -0.029846 0.000000 0.500000 0.500000
0.375818 -0.089098 0.258564 0.600000 0.000000 0.300000
0.129191 0.256432 0.258564 0.800000 0.200000 0.500000
-0.852620 0.201994 0.140763 0.300000 0.000000 0.600000
0.117868 0.233867 -0.256213 0.000000 0.000000 1.000000
-0.870242 -0.290469 0.138696 0.300000 0.000000 0.600000
0.451394 -0.290856 0.224503 0.500000 0.000000 0.500000
0.052827 -0.004093 -0.254671 0.800000 0.200000 0.500000
0.466813 -0.410184 -0.139461 0.600000 0.000000 0.300000
0.383659 0.241522 0.258564 0.800000 0.200000 0.500000
0.102425 -0.316729 0.223321 0.500000 0.500000 0.000000
0.146202 0.328523 0.092372 1.000000 0.000000 0.000000
0.442493 0.275658 0.198964 0.000000 1.000000 0.000000
0.170849 -0.199840 -0.256213 0.000000 0.000000 1.000000
0.393867 -0.279888 0.223321 0.500000 0.500000 0.000000
0.393483 0.040615 -0.256213 0.000000 0.000000 1.000000
-0.127952 0.345701 -0.286048 1.000000 0.000000 0.000000
0.092200 0.305864 0.240943 0.800000 0.200000 0.500000
0.202474 0.245416 0.223321 0.800000 0.200000 0.500000
0.032170 0.346145 0.184347 1.000000 0.000000 0.000000
0.148214 0.099573 -0.254671 0.000000 0.000000 1.000000
0.289499 0.162217 0.086260 0.000000 0.500000 0.500000
0.484435 0.098550 0.010984 0.600000 0.000000 0.300000
-0.870242 -0.304406 0.030228 0.300000 0.000000 0.600000
0.484435 0.224394 0.190125 0.600000 0.000000 0.300000
0.243614 0.019189 -0.199603 0.600000 0.300000 0.000000
0.484435 -0.001660 0.041728 0.600000 0.000000 0.300000
-0.870242 0.019653 -0.081236 0.300000 0.000000 0.600000
0.484435 0.226968 -0.192048 0.600000 0.000000 0.300000
0.161985 -0.140822 0.258564 0.600000 0.000000 0.300000
0.484435 -0.343716 0.069311 0.600000 0.000000 0.300000
-0.455672 0.338225 0.323545 1.000000 0.000000 0.000000
-0.852620 0.311823 -0.233320 0.300000 0.000000 0.600000
0.015992 0.346145 -0.149701 1.000000 0.000000 0.000000
0.484435 0.313058 -0.059726 0.600000 0.000000 0.300000
0.128295 -0.155407 0.223321 0.600000 0.000000 0.300000
0.230224 0.115164 0.284276 0.300000 0.000000 0.600000
0.312975 0.328523 0.021307 1.000000 0.000000 0.000000
0.483333 0.312229 0.250444 0.800000 0.200000 0.500000
0.376768 0.162217 0.052003 0.000000 0.500000 0.500000
0.043889 -0.116254 0.211538 0.800000 0.200000 0.500000
0.204822 0.093290 -0.199603 0.600000 0.300000 0.000000
0.061511 -0.025225 0.133895 0.800000 0.200000 0.500000
0.321183 -0.196827 -0.002635 0.000000 1.000000 0.000000
0.451394 0.007008 0.113605 0.300000 0.000000 0.600000
0.156881 0.328523 0.221404 1.000000 0.000000 0.000000
0.449130 -0.302613 -0.254671 0.000000 0.000000 1.000000
-0.089684 -0.025440 -0.237049 0.000000 1.000000 0.000000
0.043889 -0.222283 -0.161519 0.800000 0.200000 0.500000
-0.852620 0.131316 -0.044663 0.300000 0.000000 0.600000
-0.852620 -0.279708 0.199576 0.300000 0.000000 0.600000
0.484435 0.292731 0.160475 0.600000 0.000000 0.300000
0.418292 -0.398869 -0.164476 1.000000 0.000000 0.000000
0.178434 -0.196827 0.124950 0.000000 1.000000 0.000000
0.241814 -0.196827 -0.189538 0.000000 1.000000 0.000000
0.397207 0.294595 -0.256213 0.000000 0.000000 1.000000
-0.047072 0.035782 -0.237049 0.000000 1.000000 0.000000
0.484435 0.313473 0.114006 0.600000 0.000000 0.300000
0.074185 -0.186663 0.258564 0.600000 0.000000 0.300000
0.484435 0.093330 -0.078167 0.600000 0.000000 0.300000
0.184625 0.050683 0.223321 0.300000 0.600000 0.000000
0.076930 -0.119053 -0.169474 0.800000 0.200000 0.500000
0.109201 -0.017305 -0.100110 0.300000 0.000000 0.600000
0.061511 0.135724 0.073747 0.800000 0.200000 0.500000
0.466813 0.156746 -0.249508 0.600000 0.000000 0.300000
0.304910 0.328523 -0.239988 1.000000 0.000000 0.000000
0.228438 0.346145 -0.022311 1.000000 0.000000 0.000000
0.433772 0.239518 -0.068589 0.000000 1.000000 0.000000
-0.772677 0.348678 0.321755 1.000000 0.000000 0.000000
0.211710 -0.381247 0.012258 1.000000 0.000000 0.000000
0.397204 -0.296076 -0.254671 0.000000 0.000000 1.000000
-0.870242 -0.335951 0.104725 0.300000 0.000000 0.600000
-0.324382 0.346145 -0.058941 1.000000 0.000000 0.000000
0.386371 0.247874 -0.256213 0.000000 0.000000 1.000000
0.389559 0.215266 -0.199603 0.500000 0.000000 0.500000
0.374345 0.272566 0.223321 0.800000 0.200000 0.500000
0.006301 0.346145 0.050336 1.000000 0.000000 0.000000
0.049520 0.328523 -0.011337 0.800000 0.200000 0.500000
-0.176403 0.328523 -0.009818 1.000000 0.000000 0.000000
0.297947 0.238896 -0.181981 0.500000 0.000000 0.500000
0.043889 -0.105732 -0.055286 0.800000 0.200000 0.500000
0.466813 -0.348192 -0.075644 0.600000 0.000000 0.300000
0.141839 -0.373045 -0.038781 0.300000 0.600000 0.000000
0.372395 -0.157182 0.223321 0.600000 0.000000 0.300000
-0.870242 0.244590 -0.169300 0.300000 0.000000 0.600000
0.373207 -0.330332 0.223321 0.500000 0.500000 0.000000
0.094552 0.089655 -0.029550 0.600000 0.000000 0.300000
0.253461 -0.017305 -0.166561 0.300000 0.000000 0.600000
0.484435 -0.018070 0.193086 0.600000 0.000000 0.300000
-0.852620 -0.466111 0.029170 0.300000 0.000000 0.600000
0.049757 -0.475472 0.167460 0.800000 0.200000 0.500000
0.079182 -0.398869 -0.054749 1.000000 0.000000 0.000000
0.310160 -0.398869 -0.224044 1.000000 0.000000 0.000000
0.077443 -0.017305 -0.034262 0.300000 0.000000 0.600000
0.466813 -0.292687 0.068012 0.600000 0.000000 0.300000
0.157443 0.346145 0.158652 1.000000 0.000000 0.000000
0.043889 -0.358674 -0.105232 0.800000 0.200000 0.500000
0.134608 -0.398869 0.166175 1.000000 0.000000 0.000000
-0.554546 0.346145 0.111625 1.000000 0.000000 0.000000
0.129656 0.102260 0.258564 0.300000 0.600000 0.000000
0.283726 -0.320430 -0.199603 0.000000 0.500000 0.500000
0.484435 -0.349471 -0.001759 0.600000 0.000000 0.300000
0.466813 0.058485 -0.099014 0.600000 0.000000 0.300000
-0.222610 0.328523 0.189397 1.000000 0.000000 0.000000
-0.852620 -0.376945 0.076382 0.300000 0.000000 0.600000
0.043889 -0.173520 -0.035046 0.800000 0.200000 0.500000
0.174546 0.162217 -0.050157 0.000000 0.500000 0.500000
0.229359 -0.387572 0.252693 0.500000 0.500000 0.000000
0.061511 -0.297958 -0.218328 0.800000 0.200000 0.500000
-0.265508 -0.131174 -0.254671 0.000000 1.000000 0.000000
0.484435 -0.094548 0.031264 0.600000 0.000000 0.300000
0.092129 -0.084076 -0.254671 0.000000 0.000000 1.000000
0.243481 -0.053604 -0.254671 0.000000 0.000000 1.000000
-0.382417 0.328523 0.283710 1.000000 0.000000 0.000000
-0.132028 -0.162292 -0.237049 0.000000 1.000000 0.000000
0.440659 0.302101 -0.256213 0.000000 0.000000 1.000000
0.076930 -0.175810 0.023884 0.800000 0.200000 0.500000
0.484435 -0.416584 0.012420 0.600000 0.000000 0.300000
0.433772 0.045599 0.179355 0.300000 0.000000 0.600000
-0.870242 -0.268066 -0.139880 0.300000 0.000000 0.600000
-0.587984 0.328523 -0.246280 1.000000 0.000000 0.000000
0.484435 0.019494 -0.022365 0.600000 0.000000 0.300000
0.076930 0.009953 0.095111 0.600000 0.000000 0.300000
0.361513 -0.398869 0.227110 1.000000 0.000000 0.000000
0.466813 -0.277215 0.161857 0.600000 0.000000 0.300000
0.299904 0.328523 0.186553 1.000000 0.000000 0.000000
-0.852620 0.006846 -0.008480 0.300000 0.000000 0.600000
0.484435 -0.199071 -0.008574 0.600000 0.000000 0.300000
0.043889 -0.182059 -0.217832 0.800000 0.200000 0.500000
-0.870242 -0.270053 -0.032370 0.300000 0.000000 0.600000
0.261781 -0.376349 0.077563 0.300000 0.600000 0.000000
-0.852620 0.276532 0.105939 0.300000 0.000000 0.600000
0.466813 -0.379395 0.214242 0.600000 0.000000 0.300000
0.095701 -0.398869 0.055755 1.000000 0.000000 0.000000
0.227718 -0.110890 0.223321 0.600000 0.000000 0.300000
0.428356 -0.398869 0.044902 1.000000 0.000000 0.000000
-0.042057 0.346145 -0.102546 1.000000 0.000000 0.000000
0.442262 -0.193523 0.071173 0.000000 0.000000 1.000000
-0.036497 0.348678 -0.275057 1.000000 0.000000 0.000000
-0.852620 -0.195910 -0.061663 0.300000 0.000000 0.600000
-0.595271 -0.178104 -0.237802 0.000000 1.000000 0.000000
-0.507189 0.328523 -0.245495 1.000000 0.000000 0.000000
0.068227 0.328523 0.322320 1.000000 0.000000 0.000000
0.332554 -0.017305 0.030684 0.300000 0.000000 0.600000
0.384628 -0.232585 -0.254671 0.000000 0.000000 1.000000
0.441807 -0.474245 0.233233 0.300000 0.000000 0.600000
0.342266 0.237273 -0.181981 0.500000 0.000000 0.500000
0.187192 -0.014001 0.051049 0.300000 0.000000 0.600000
0.159942 -0.418762 0.215611 0.300000 0.000000 0.600000
0.484435 0.219813 -0.050122 0.600000 0.000000 0.300000
0.132205 -0.263472 -0.181981 0.000000 0.500000 0.500000
0.094552 -0.319313 -0.142999 0.500000 0.500000 0.000000
0.384347 -0.398869 -0.245569 1.000000 0.000000 0.000000
-0.852620 -0.173335 0.097468 0.300000 0.000000 0.600000
0.089642 0.328523 -0.151119 1.000000 0.000000 0.000000
0.176090 -0.294182 0.258564 0.500000 0.500000 0.000000
-0.423433 0.328523 0.091027 1.000000 0.000000 0.000000
-0.272438 0.346145 -0.110898 1.000000 0.000000 0.000000
0.043889 0.279324 0.135904 0.800000 0.200000 0.500000
0.130680 0.162217 0.086891 0.000000 0.500000 0.500000
-0.076251 0.328523 0.298034 1.000000 0.000000 0.000000
-0.870242 -0.054392 0.064861 0.300000 0.000000 0.600000
0.316746 -0.014001 0.179923 0.300000 0.000000 0.600000
0.061511 -0.207298 -0.087583 0.800000 0.200000 0.500000
0.484435 0.091513 -0.171104 0.600000 0.000000 0.300000
0.103543 -0.472171 0.215611 0.300000 0.000000 0.600000
0.378467 -0.014001 0.177659 0.300000 0.000000 0.600000
-0.205252 0.346145 -0.260704 1.000000 0.000000 0.000000
-0.852620 -0.340589 0.144558 0.300000 0.000000 0.600000
0.241667 0.165522 -0.132632 0.000000 0.500000 0.500000
-0.852620 -0.385047 0.026524 0.300000 0.000000 0.600000
0.061511 -0.108187 -0.213519 0.800000 0.200000 0.500000
-0.870242 -0.232366 -0.011591 0.300000 0.000000 0.600000
0.148700 0.328523 -0.183579 1.000000 0.000000 0.000000
-0.870242 -0.064876 0.166054 0.300000 0.000000 0.600000
0.342085 -0.398869 -0.129957 1.000000 0.000000 0.000000
0.494684 0.348678 0.280013 1.000000 0.000000 0.000000
0.261868 -0.193523 0.137687 0.000000 1.000000 0.000000
-0.751640 0.346145 0.184793 1.000000 0.000000 0.000000
0.466813 0.310785 -0.209530 0.600000 0.000000 0.300000
-0.852620 -0.203481 0.159254 0.300000 0.000000 0.600000
0.134197 -0.193523 0.195852 0.000000 1.000000 0.000000
-0.040319 -0.074930 -0.254671 0.000000 1.000000 0.000000
-0.852620 -0.206654 0.239385 0.300000 0.000000 0.600000
0.241173 -0.071460 0.283355 0.000000 0.500000 0.500000
0.054109 0.328523 0.075909 0.800000 0.200000 0.500000
0.283444 -0.376349 0.213427 0.300000 0.600000 0.000000
0.340502 -0.227289 -0.256213 0.000000 0.000000 1.000000
-0.852620 -0.412156 0.148044 0.300000 0.000000 0.600000
0.094552 0.225616 0.183013 0.500000 0.500000 0.000000
0.094552 -0.143108 -0.058044 0.800000 0.200000 0.500000
0.051263 0.108112 0.258564 0.300000 0.600000 0.000000
0.043889 0.052430 0.214956 0.800000 0.200000 0.500000
0.146339 0.273775 0.223321 0.800000 0.200000 0.500000
-0.706402 -0.028345 -0.254671 0.000000 1.000000 0.000000
-0.469143 0.346145 0.172039 1.000000 0.000000 0.000000
0.043889 0.165322 0.108178 0.800000 0.200000 0.500000
-0.632611 0.346145 0.014758 1.000000 0.000000 0.000000
0.380037 -0.373045 -0.172862 0.300000 0.600000 0.000000
-0.741790 0.346145 -0.067994 1.000000 0.000000 0.000000
-0.402179 -0.005448 -0.237049 0.000000 1.000000 0.000000
0.433772 0.271767 -0.010254 0.000000 1.000000 0.000000
0.125152 -0.017305 0.159159 0.300000 0.000000 0.600000
-0.506261 0.346145 -0.045163 1.000000 0.000000 0.000000
0.391618 -0.431975 0.233233 0.300000 0.000000 0.600000
0.484435 0.168529 -0.133902 0.600000 0.000000 0.300000
0.528489 0.333164 0.117711 1.000000 0.000000 0.000000
0.093268 -0.026103 -0.256213 0.000000 0.000000 1.000000
0.180157 0.275658 -0.198591 0.500000 0.000000 0.500000
0.061511 -0.280328 -0.165649 0.800000 0.200000 0.500000
-0.870242 -0.430879 -0.020453 0.300000 0.000000 0.600000
0.043889 0.133714 0.017516 0.800000 0.200000 0.500000
-0.046323 -0.158678 -0.254671 0.000000 1.000000 0.000000
0.136615 0.346145 0.009742 1.000000 0.000000 0.000000
-0.273520 0.328523 0.104897 1.000000 0.000000 0.000000
0.149197 0.201546 0.258564 0.800000 0.200000 0.500000
0.466813 -0.092141 -0.138246 0.600000 0.000000 0.300000
0.418174 -0.398869 -0.120062 1.000000 0.000000 0.000000
0.286155 0.165522 0.039475 0.000000 0.500000 0.500000
0.318112 -0.123246 0.223321 0.600000 0.000000 0.300000
0.144854 -0.351857 -0.256213 0.000000 0.000000 1.000000
-0.870242 0.140733 0.135618 0.300000 0.000000 0.600000
0.203461 0.324699 -0.254671 0.000000 0.000000 1.000000
0.430781 0.095790 0.258564 0.300000 0.600000 0.000000
0.441490 -0.196827 -0.198764 0.000000 1.000000 0.000000
0.077625 -0.331674 0.258564 0.500000 0.500000 0.000000
0.442871 -0.015872 0.240943 0.300000 0.000000 0.600000
0.061511 -0.294931 -0.104978 0.800000 0.200000 0.500000
-0.290169 0.343123 -0.286048 1.000000 0.000000 0.000000
-0.829094 0.018925 -0.237049 0.000000 1.000000 0.000000
0.226123 -0.193523 -0.135056 0.000000 1.000000 0.000000
0.094552 0.058555 0.103991 0.600000 0.000000 0.300000
0.094552 -0.084653 -0.152538 0.800000 0.200000 0.500000
0.190971 -0.318738 -0.181981 0.000000 0.500000 0.500000
0.103706 0.259816 -0.199603 0.500000 0.000000 0.500000
-0.852620 0.166837 -0.204906 0.300000 0.000000 0.600000
0.027402 0.346145 -0.246435 1.000000 0.000000 0.000000
0.484435 -0.378350 0.122294 0.600000 0.000000 0.300000
0.294584 -0.109680 0.258564 0.600000 0.000000 0.300000
-0.367980 -0.035950 -0.254671 0.000000 1.000000 0.000000
0.104587 -0.130025 -0.254671 0.000000 0.000000 1.000000
0.233573 -0.313295 0.240943 0.500000 0.500000 0.000000
-0.418872 0.037763 -0.250464 0.000000 1.000000 0.000000
0.254301 -0.014001 0.068034 0.300000 0.000000 0.600000
0.464103 -0.242186 0.258564 0.500000 0.500000 0.000000
0.076930 -0.335188 0.134404 0.500000 0.500000 0.000000
0.252477 -0.196827 -0.051418 0.000000 1.000000 0.000000
0.324413 0.154060 0.258564 0.800000 0.200000 0.500000
0.094552 0.180503 -0.028311 0.500000 0.500000 0.000000
0.451394 -0.114686 -0.174400 0.000000 0.000000 1.000000
0.094552 -0.093151 0.052944 0.800000 0.200000 0.500000
0.267357 0.105798 -0.256213 0.000000 0.000000 1.000000
0.094552 0.059095 0.018969 0.600000 0.000000 0.300000
-0.296156 0.328523 0.145237 1.000000 0.000000 0.000000
0.315664 0.275658 0.225655 0.800000 0.200000 0.500000
0.081472 -0.376349 0.105674 0.300000 0.600000 0.000000
-0.852620 0.212288 -0.008150 0.300000 0.000000 0.600000
0.431254 0.261353 -0.199603 0.500000 0.000000 0.500000
0.475420 0.328523 -0.146691 1.000000 0.000000 0.000000
0.080821 0.298505 -0.256213 0.000000 0.000000 1.000000
-0.852620 -0.286030 -0.075631 0.300000 0.000000 0.600000
0.205158 0.194645 -0.181981 0.500000 0.000000 0.500000
0.484435 0.122955 0.220216 0.600000 0.000000 0.300000
0.378469 -0.354316 -0.254671 0.000000 0.000000 1.000000
-0.175931 0.328523 0.075651 1.000000 0.000000 0.000000
0.354092 0.162217 -0.033579 0.000000 0.500000 0.500000
-0.413193 0.346145 -0.223762 1.000000 0.000000 0.000000
0.302242 -0.175455 0.223321 0.600000 0.000000 0.300000
-0.870242 -0.457560 -0.150617 0.300000 0.000000 0.600000
0.156311 -0.337373 0.223321 0.500000 0.500000 0.000000
0.390189 -0.017305 0.222686 0.300000 0.000000 0.600000
0.305294 -0.155933 -0.181981 1.000000 0.000000 0.000000
-0.870242 -0.353259 0.196050 0.300000 0.000000 0.600000
0.376683 0.132825 -0.254671 0.000000 0.000000 1.000000
-0.865491 0.346145 -0.195965 1.000000 0.000000 0.000000
-0.570330 -0.091701 -0.237049 0.000000 1.000000 0.000000
0.433772 -0.085850 -0.198475 1.000000 0.000000 0.000000
-0.852620 0.052706 0.194575 0.300000 0.000000 0.600000
0.433772 -0.122238 0.117050 0.000000 0.000000 1.000000
0.398566 0.346145 -0.094969 1.000000 0.000000 0.000000
0.445700 0.165522 -0.090899 0.000000 0.500000 0.500000
0.433772 0.220357 -0.028106 0.000000 1.000000 0.000000
-0.733027 0.336920 0.323545 1.000000 0.000000 0.000000
0.336965 -0.373045 0.042164 0.300000 0.600000 0.000000
0.136899 -0.119020 -0.199603 1.000000 0.000000 0.000000
0.086045 -0.381247 -0.195523 1.000000 0.000000 0.000000
-0.687297 0.346145 0.203931 1.000000 0.000000 0.000000
0.151264 0.165522 0.024993 0.000000 0.500000 0.500000
-0.207301 0.346145 -0.107154 1.000000 0.000000 0.000000
0.353267 -0.398869 -0.217755 1.000000 0.000000 0.000000
0.193867 -0.262909 0.225419 0.500000 0.500000 0.000000
-0.870242 0.009471 0.124957 0.300000 0.000000 0.600000
-0.852620 0.175524 0.212325 0.300000 0.000000 0.600000
0.328190 0.250060 -0.254671 0.000000 0.000000 1.000000
0.133737 -0.277805 0.258564 0.500000 0.500000 0.000000
0.061511 0.255027 -0.060551 0.800000 0.200000 0.500000
-0.477694 0.328523 0.249089 1.000000 0.000000 0.000000
-0.764835 0.346145 0.036761 1.000000 0.000000 0.000000
-0.718902 0.037763 -0.246029 0.000000 1.000000 0.000000
0.153114 -0.243166 0.240943 0.500000 0.500000 0.000000
0.239346 0.083409 0.258564 0.300000 0.600000 0.000000
0.143098 -0.196603 -0.199603 0.000000 1.000000 0.000000
-0.655204 0.346145 -0.174677 1.000000 0.000000 0.000000
-0.870242 0.004388 -0.223301 0.300000 0.000000 0.600000
0.043889 -0.066453 0.119299 0.800000 0.200000 0.500000
0.256865 0.165522 -0.085262 0.000000 0.500000 0.500000
0.250390 -0.475472 0.217076 0.300000 0.000000 0.600000
0.415577 0.328523 0.236667 1.000000 0.000000 0.000000
-0.160119 0.346145 0.244860 1.000000 0.000000 0.000000
0.089277 0.164686 0.240943 0.800000 0.200000 0.500000
0.172421 -0.398869 -0.048054 1.000000 0.000000 0.000000
0.377700 0.036022 0.223321 0.300000 0.600000 0.000000
0.178033 0.163216 -0.199603 0.000000 0.500000 0.500000
0.440341 -0.193523 -0.127307 0.000000 0.000000 1.000000
0.428694 -0.293419 0.258564 0.500000 0.500000 0.000000
0.131383 0.137785 -0.256213 0.000000 0.000000 1.000000
0.336887 0.342548 0.323545 1.000000 0.000000 0.000000
0.043889 0.225237 -0.168921 0.800000 0.200000 0.500000
-0.086260 0.346145 0.136217 1.000000 0.000000 0.000000
0.283134 -0.196827 -0.197670 0.000000 1.000000 0.000000
0.099821 0.328523 0.151359 1.000000 0.000000 0.000000
0.084736 0.162217 0.166575 0.000000 0.500000 0.500000
0.061511 0.170931 -0.052439 0.800000 0.200000 0.500000
-0.640257 0.328523 -0.053666 1.000000 0.000000 0.000000
0.272884 -0.398869 -0.155127 1.000000 0.000000 0.000000
0.345850 -0.257070 0.258564 0.500000 0.500000 0.000000
0.093818 -0.196827 0.133081 0.000000 1.000000 0.000000
0.357598 -0.193523 0.058796 0.000000 1.000000 0.000000
0.365642 -0.111226 0.223321 0.600000 0.000000 0.300000
0.204673 0.255734 -0.256213 0.000000 0.000000 1.000000
0.484435 0.262720 -0.164195 0.600000 0.000000 0.300000
0.444463 0.298423 0.258564 0.800000 0.200000 0.500000
-0.285042 0.328523 -0.024297 1.000000 0.000000 0.000000
-0.870242 -0.259057 0.097180 0.300000 0.000000 0.600000
-0.829946 0.328523 0.080053 1.000000 0.000000 0.000000
-0.310180 -0.061264 -0.254671 0.000000 1.000000 0.000000
0.385711 -0.355174 0.258564 0.500000 0.500000 0.000000
0.229339 -0.398869 0.146851 1.000000 0.000000 0.000000
-0.650091 0.348678 -0.276682 1.000000 0.000000 0.000000
0.083483 -0.262909 0.010306 0.500000 0.500000 0.000000
0.349039 0.165522 -0.189444 0.000000 0.500000 0.500000
0.466813 0.163177 0.174057 0.600000 0.000000 0.300000
0.433772 -0.160527 0.219066 0.000000 0.000000 1.000000
-0.562194 0.346145 0.217461 1.000000 0.000000 0.000000
0.096928 -0.412670 0.233233 0.300000 0.000000 0.600000
0.134004 0.024574 -0.254671 0.000000 0.000000 1.000000
0.276510 -0.398869 -0.250423 1.000000 0.000000 0.000000
0.326462 -0.381247 -0.048010 1.000000 0.000000 0.000000
-0.870242 -0.268429 -0.210822 0.300000 0.000000 0.600000
0.043889 0.152536 -0.201841 0.800000 0.200000 0.500000
0.466813 -0.017525 0.082211 0.600000 0.000000 0.300000
-0.489926 -0.075250 -0.254671 0.000000 1.000000 0.000000
0.426984 -0.135998 -0.256213 0.000000 0.000000 1.000000
0.433772 0.070412 0.097712 0.300000 0.000000 0.600000
0.082278 0.077864 0.229882 0.600000 0.000000 0.300000
-0.535112 -0.065308 -0.254671 0.000000 1.000000 0.000000
-0.389361 0.346145 -0.188987 1.000000 0.000000 0.000000
-0.240876 0.328523 -0.207557 1.000000 0.000000 0.000000
0.448685 -0.262909 -0.149511 0.500000 0.000000 0.500000
-0.870242 -0.132355 -0.109425 0.300000 0.000000 0.600000
-0.289457 0.346145 0.233217 1.000000 0.000000 0.000000
0.466813 0.135359 0.070819 0.600000 0.000000 0.300000
0.076930 0.164339 0.026090 0.000000 0.500000 0.500000
0.466813 0.317182 -0.098150 0.600000 0.000000 0.300000
0.090494 -0.083387 0.158713 0.800000 0.200000 0.500000
0.148302 -0.029467 0.249321 0.300000 0.600000 0.000000
-0.827385 0.346145 -0.016724 1.000000 0.000000 0.000000
-0.870242 -0.086857 0.234019 0.300000 0.000000 0.600000
0.433772 0.214097 -0.119539 0.000000 1.000000 0.000000
-0.364770 0.348595 -0.286048 1.000000 0.000000 0.000000
-0.280965 0.346145 0.052454 1.000000 0.000000 0.000000
-0.000732 -0.121547 -0.237049 0.000000 1.000000 0.000000
0.061511 0.293051 0.042320 0.800000 0.200000 0.500000
0.451394 0.053225 -0.010796 0.300000 0.000000 0.600000
0.471758 -0.257058 -0.254671 0.600000 0.000000 0.300000
-0.129289 0.328523 -0.249572 1.000000 0.000000 0.000000
0.043889 -0.025519 0.184799 0.800000 0.200000 0.500000
0.186286 -0.376349 0.081664 0.300000 0.600000 0.000000
-0.518445 0.328523 -0.191178 1.000000 0.000000 0.000000
0.279890 -0.193523 0.042090 0.000000 1.000000 0.000000
0.145949 -0.083387 -0.183187 1.000000 0.000000 0.000000
0.236779 0.328523 0.220244 1.000000 0.000000 0.000000
0.382774 -0.196827 0.228603 0.000000 1.000000 0.000000
-0.506988 0.328523 -0.093180 1.000000 0.000000 0.000000
-0.168322 0.328523 -0.209293 1.000000 0.000000 0.000000
0.043889 -0.444334 0.089353 0.800000 0.200000 0.500000
0.484435 -0.150763 -0.060933 0.600000 0.000000 0.300000
-0.870242 -0.444422 -0.091133 0.300000 0.000000 0.600000
0.043889 -0.260443 -0.083656 0.800000 0.200000 0.500000
-0.333588 -0.178104 -0.242997 0.000000 1.000000 0.000000
0.484435 0.112178 0.143515 0.600000 0.000000 0.300000
0.484435 0.263086 -0.097556 0.600000 0.000000 0.300000
0.433772 -0.310860 -0.128870 0.500000 0.000000 0.500000
0.466813 -0.437608 0.071019 0.600000 0.000000 0.300000
0.193568 0.346145 0.059176 1.000000 0.000000 0.000000
0.355265 -0.344959 -0.199603 0.000000 0.500000 0.500000
0.087162 -0.262909 -0.090555 0.500000 0.500000 0.000000
-0.870242 0.071531 0.070139 0.300000 0.000000 0.600000
-0.502118 0.348678 0.322434 1.000000 0.000000 0.000000
0.484435 -0.094199 0.174532 0.600000 0.000000 0.300000
0.466813 -0.229571 0.113073 0.600000 0.000000 0.300000
0.061511 -0.426647 -0.009186 0.800000 0.200000 0.500000
0.094552 0.052794 -0.162535 0.600000 0.000000 0.300000
-0.552552 0.346145 0.174992 1.000000 0.000000 0.000000
0.094552 -0.157272 -0.103251 0.800000 0.200000 0.500000
-0.094820 0.346145 -0.193257 1.000000 0.000000 0.000000
0.138984 0.165522 -0.072027 0.000000 0.500000 0.500000
0.277919 -0.187794 0.258564 0.600000 0.000000 0.300000
-0.367312 0.328523 0.006548 1.000000 0.000000 0.000000
0.466813 -0.216523 -0.160858 0.600000 0.000000 0.300000
-0.264037 -0.088492 -0.237049 0.000000 1.000000 0.000000
0.188879 0.328523 0.020576 1.000000 0.000000 0.000000
0.076930 -0.274673 0.139884 0.500000 0.500000 0.000000
0.036870 0.346145 -0.207688 1.000000 0.000000 0.000000
-0.870242 -0.331826 -0.084983 0.300000 0.000000 0.600000
-0.359049 0.346145 0.218261 1.000000 0.000000 0.000000
0.392866 -0.017305 -0.149108 0.300000 0.000000 0.600000
0.043889 -0.091548 -0.010779 0.800000 0.200000 0.500000
0.090089 -0.083387 -0.014290 0.800000 0.200000 0.500000
0.306799 -0.361415 0.258564 0.500000 0.500000 0.000000
0.180832 0.165522 -0.003269 0.000000 0.500000 0.500000
-0.332414 0.037763 -0.241364 0.000000 1.000000 0.000000
0.043889 0.290998 -0.160582 0.800000 0.200000 0.500000
0.191345 -0.373045 0.219102 0.300000 0.600000 0.000000
0.466813 0.026811 -0.165459 0.600000 0.000000 0.300000
0.433772 -0.181639 -0.061654 0.000000 0.000000 1.000000
0.100139 -0.014001 0.232200 0.300000 0.000000 0.600000
-0.191713 0.328523 0.136477 1.000000 0.000000 0.000000
0.433772 -0.360847 0.198478 0.500000 0.000000 0.500000
-0.852620 -0.003970 0.199277 0.300000 0.000000 0.600000
-0.582364 0.037763 -0.254245 0.000000 1.000000 0.000000
0.061511 -0.068399 0.081202 0.800000 0.200000 0.500000
0.310949 -0.193523 -0.140460 0.000000 1.000000 0.000000
0.451394 0.183208 0.090503 0.000000 1.000000 0.000000
-0.870242 0.055513 0.119063 0.300000 0.000000 0.600000
0.422702 0.346145 -0.027978 1.000000 0.000000 0.000000
0.273639 0.310268 -0.256213 0.000000 0.000000 1.000000
-0.425503 -0.082740 -0.237049 0.000000 1.000000 0.000000
0.427295 -0.193523 0.015222 0.000000 1.000000 0.000000
0.035828 -0.156317 -0.254671 0.000000 1.000000 0.000000
-0.631672 0.346145 0.206062 1.000000 0.000000 0.000000
0.153207 0.162217 -0.166736 0.000000 0.500000 0.500000
-0.770083 0.346145 0.249407 1.000000 0.000000 0.000000
0.258813 0.162217 -0.034241 0.000000 0.500000 0.500000
-0.014092 0.346145 0.110703 1.000000 0.000000 0.000000
0.412121 -0.017305 0.079170 0.300000 0.000000 0.600000
0.480172 0.328523 0.176759 1.000000 0.000000 0.000000
-0.755420 0.328523 -0.032801 1.000000 0.000000 0.000000
0.408746 0.165522 -0.071860 0.000000 0.500000 0.500000
-0.724279 0.334308 -0.286048 1.000000 0.000000 0.000000
-0.368749 0.328523 -0.111117 1.000000 0.000000 0.000000
-0.870242 -0.436582 0.194596 0.300000 0.000000 0.600000
-0.870242 -0.243330 0.201856 0.300000 0.000000 0.600000
0.209222 -0.339509 0.258564 0.500000 0.500000 0.000000
-0.870242 0.195043 -0.160071 0.300000 0.000000 0.600000
0.231764 -0.332236 -0.254671 0.000000 0.000000 1.000000
0.128462 -0.398869 -0.252598 1.000000 0.000000 0.000000
0.395862 0.115518 0.258564 0.300000 0.600000 0.000000
0.466813 -0.202725 -0.044955 0.600000 0.000000 0.300000
-0.870242 -0.067786 -0.046787 0.300000 0.000000 0.600000
-0.578387 0.328523 -0.135915 1.000000 0.000000 0.000000
0.253092 -0.014001 -0.045716 0.300000 0.000000 0.600000
0.133321 -0.196827 -0.023602 0.000000 1.000000 0.000000
0.134770 -0.014001 -0.140155 0.300000 0.000000 0.600000
0.484435 0.304351 0.075009 0.600000 0.000000 0.300000
0.456275 -0.341296 -0.256213 0.000000 0.000000 1.000000
0.219658 0.009987 0.240943 0.300000 0.600000 0.000000
0.157677 0.125465 0.240943 0.300000 0.600000 0.000000
0.317472 0.235023 0.258564 0.800000 0.200000 0.500000
0.484435 -0.268548 -0.052648 0.600000 0.000000 0.300000
0.154798 -0.373045 0.134392 0.300000 0.600000 0.000000
0.436244 -0.370124 0.240943 0.500000 0.000000 0.500000
-0.852620 -0.329593 -0.192809 0.300000 0.000000 0.600000
-0.870242 0.118302 0.023247 0.300000 0.000000 0.600000
-0.856135 -0.475472 0.167705 0.300000 0.000000 0.600000
0.061511 -0.000301 -0.186735 0.800000 0.200000 0.500000
0.484435 -0.189891 0.152376 0.600000 0.000000 0.300000
0.094552 0.209213 -0.151785 0.500000 0.500000 0.000000
0.246985 0.328523 -0.108418 1.000000 0.000000 0.000000
0.209276 0.328523 -0.056478 1.000000 0.000000 0.000000
0.399557 0.165522 0.142525 0.000000 0.500000 0.500000
0.076930 0.185402 -0.096064 0.500000 0.500000 0.000000
0.484435 -0.310580 0.148589 0.600000 0.000000 0.300000
0.362568 0.178535 0.258564 0.800000 0.200000 0.500000
0.043889 0.066469 0.156048 0.800000 0.200000 0.500000
-0.186962 0.344015 0.323545 1.000000 0.000000 0.000000
-0.870242 -0.087458 -0.112690 0.300000 0.000000 0.600000
0.380382 -0.196827 0.177461 0.000000 1.000000 0.000000
0.076930 0.252839 0.017199 0.500000 0.500000 0.000000
0.402198 -0.398869 0.103531 1.000000 0.000000 0.000000
0.254311 0.028033 -0.254671 0.000000 0.000000 1.000000
-0.870242 0.073677 -0.236209 0.300000 0.000000 0.600000
0.340931 -0.012966 -0.254671 0.000000 0.000000 1.000000
0.086106 0.017333 0.258564 0.300000 0.600000 0.000000
0.159673 0.346145 -0.104952 1.000000 0.000000 0.000000
-0.361799 0.328523 -0.069837 1.000000 0.000000 0.000000
0.269603 -0.373045 0.031704 0.300000 0.600000 0.000000
0.484435 -0.277492 -0.184347 0.600000 0.000000 0.300000
-0.852620 0.083108 0.025254 0.300000 0.000000 0.600000
-0.826685 0.328523 0.284971 1.000000 0.000000 0.000000
-0.295391 0.328523 0.293480 1.000000 0.000000 0.000000
-0.232249 0.346145 0.236625 1.000000 0.000000 0.000000
0.281041 -0.014001 0.240911 0.300000 0.000000 0.600000
0.414346 -0.295660 -0.199603 0.000000 0.500000 0.500000
-0.422360 0.346145 0.221964 1.000000 0.000000 0.000000
0.076930 -0.126700 0.236997 0.800000 0.200000 0.500000
0.061511 -0.256943 -0.230405 0.800000 0.200000 0.500000
0.373072 -0.398869 -0.101293 1.000000 0.000000 0.000000
-0.852620 0.131333 -0.118386 0.300000 0.000000 0.600000
0.302134 -0.434611 0.215611 0.300000 0.000000 0.600000
0.092956 -0.083387 -0.095865 0.800000 0.200000 0.500000
0.020733 0.328523 -0.076734 1.000000 0.000000 0.000000
-0.852620 0.135642 0.082063 0.300000 0.000000 0.600000
0.225490 0.328523 0.139728 1.000000 0.000000 0.000000
-0.870242 -0.416829 -0.185508 0.300000 0.000000 0.600000
-0.874867 0.348678 -0.254880 1.000000 0.000000 0.000000
0.250355 -0.167723 0.223321 0.600000 0.000000 0.300000
0.137485 -0.376349 -0.180097 0.300000 0.600000 0.000000
0.061511 0.242032 -0.102445 0.800000 0.200000 0.500000
-0.852620 -0.055115 -0.083937 0.300000 0.000000 0.600000
0.135470 0.023009 0.223321 0.300000 0.600000 0.000000
0.246324 0.162217 0.208975 0.000000 0.500000 0.500000
-0.870242 -0.134007 -0.019921 0.300000 0.000000 0.600000
0.043889 -0.434022 -0.085601 0.800000 0.200000 0.500000
0.388685 -0.376349 -0.038676 0.300000 0.600000 0.000000
0.230951 -0.117892 -0.199603 1.000000 0.000000 0.000000
0.061511 0.204639 0.182912 0.800000 0.200000 0.500000
-0.497940 -0.168650 -0.237049 0.000000 1.000000 0.000000
0.466813 -0.435671 0.168234 0.600000 0.000000 0.300000
0.043889 -0.270130 -0.043398 0.800000 0.200000 0.500000
0.207445 0.162217 0.159262 0.000000 0.500000 0.500000
-0.330381 0.328523 0.041207 1.000000 0.000000 0.000000
-0.605709 -0.021262 -0.254671 0.000000 1.000000 0.000000
0.323837 -0.055456 0.258564 0.600000 0.000000 0.300000
0.484435 -0.058387 0.159619 0.600000 0.000000 0.300000
0.421443 -0.215001 0.240943 0.500000 0.500000 0.000000
0.142749 -0.193523 0.061740 0.000000 1.000000 0.000000
0.199991 -0.054270 0.240943 0.600000 0.000000 0.300000
0.061511 0.055631 -0.027351 0.800000 0.200000 0.500000
0.204433 -0.350395 -0.199603 0.000000 0.500000 0.500000
0.448741 -0.381247 0.017198 1.000000 0.000000 0.000000
0.433772 0.083580 0.172342 0.300000 0.000000 0.600000
0.043889 0.082881 -0.174913 0.800000 0.200000 0.500000
0.450879 -0.124216 0.258564 0.600000 0.000000 0.300000
-0.213022 0.346145 0.065343 1.000000 0.000000 0.000000
0.466813 -0.227423 0.051463 0.600000 0.000000 0.300000
-0.705665 0.328523 -0.027827 1.000000 0.000000 0.000000
0.348596 0.303089 0.240943 0.800000 0.200000 0.500000
-0.249075 0.328523 -0.085872 1.000000 0.000000 0.000000
0.355882 0.096136 0.227656 0.300000 0.600000 0.000000
0.262996 0.186752 -0.256213 0.000000 0.000000 1.000000
0.085603 -0.196827 -0.056190 0.000000 1.000000 0.000000
0.088439 0.165522 0.076735 0.500000 0.500000 0.000000
-0.852620 -0.235211 0.127863 0.300000 0.000000 0.600000
0.170193 0.197202 0.223321 0.800000 0.200000 0.500000
0.325750 0.165522 -0.099342 0.000000 0.500000 0.500000
0.043889 -0.090156 0.183292 0.800000 0.200000 0.500000
0.238154 -0.398869 -0.224552 1.000000 0.000000 0.000000
0.317394 0.065232 -0.199603 0.600000 0.300000 0.000000
0.484435 -0.073897 0.224679 0.600000 0.000000 0.300000
0.484435 -0.455122 0.131523 0.600000 0.000000 0.300000
0.061511 -0.441059 0.212433 0.800000 0.200000 0.500000
0.061511 0.196840 0.121187 0.800000 0.200000 0.500000
0.150473 -0.193523 -0.101791 0.000000 1.000000 0.000000
0.076930 -0.146102 -0.000372 0.800000 0.200000 0.500000
0.350482 0.328523 -0.193573 1.000000 0.000000 0.000000
0.466813 0.058322 0.082518 0.600000 0.000000 0.300000
-0.870242 0.133672 0.203378 0.300000 0.000000 0.600000
0.466813 -0.221515 0.196250 0.600000 0.000000 0.300000
0.043889 0.143813 -0.135190 0.800000 0.200000 0.500000
0.344008 -0.373045 0.140390 0.300000 0.600000 0.000000
-0.870242 -0.017211 -0.150399 0.300000 0.000000 0.600000
-0.204626 -0.136994 -0.254671 0.000000 1.000000 0.000000
0.484435 -0.024182 -0.103377 0.600000 0.000000 0.300000
0.118508 -0.398869 -0.022964 1.000000 0.000000 0.000000
0.061511 -0.005615 0.040178 0.800000 0.200000 0.500000
0.061511 -0.061755 -0.206971 0.800000 0.200000 0.500000
0.433772 0.256066 0.119374 0.000000 1.000000 0.000000
0.484435 -0.176799 0.062035 0.600000 0.000000 0.300000
0.267023 -0.017305 0.162575 0.300000 0.000000 0.600000
0.269274 0.164149 0.258564 0.800000 0.200000 0.500000
0.164261 -0.081642 -0.254671 0.000000 0.000000 1.000000
0.344966 0.328523 -0.078107 1.000000 0.000000 0.000000
0.076930 -0.343458 0.212904 0.500000 0.500000 0.000000
0.043889 0.006340 0.076422 0.800000 0.200000 0.500000
0.076930 -0.354067 -0.060594 0.500000 0.500000 0.000000
-0.870242 -0.126393 0.231021 0.300000 0.000000 0.600000
-0.485490 -0.006066 -0.254671 0.000000 1.000000 0.000000
0.372595 0.324041 -0.254671 0.000000 0.000000 1.000000
0.348233 -0.196827 0.204355 0.000000 1.000000 0.000000
0.227735 -0.373045 -0.119559 0.300000 0.600000 0.000000
0.094615 0.161385 -0.254671 0.000000 0.000000 1.000000
0.043889 -0.406585 -0.251696 0.800000 0.200000 0.500000
0.088193 0.346145 0.284614 1.000000 0.000000 0.000000
0.061511 -0.101154 -0.139635 0.800000 0.200000 0.500000
0.476698 -0.475472 0.005722 0.600000 0.000000 0.300000
0.061511 -0.204745 0.075951 0.800000 0.200000 0.500000
0.397617 -0.373045 0.132410 0.300000 0.600000 0.000000
0.168884 0.062869 0.258564 0.300000 0.600000 0.000000
0.094552 0.078768 -0.109465 0.600000 0.000000 0.300000
0.466813 -0.341474 0.183570 0.600000 0.000000 0.300000
0.043889 0.063056 0.041930 0.800000 0.200000 0.500000
-0.870242 0.036213 -0.202529 0.300000 0.000000 0.600000
0.233438 -0.193523 0.016920 0.000000 1.000000 0.000000
-0.146712 0.346145 -0.172833 1.000000 0.000000 0.000000
-0.867441 0.348678 0.303133 1.000000 0.000000 0.000000
0.061511 -0.445705 -0.179884 0.800000 0.200000 0.500000
0.423757 0.346145 0.303974 1.000000 0.000000 0.000000
0.149619 0.328523 0.288731 1.000000 0.000000 0.000000
-0.141153 -0.059341 -0.254671 0.000000 1.000000 0.000000
0.484435 -0.207227 0.088041 0.600000 0.000000 0.300000
-0.862180 0.328523 0.168297 0.300000 0.000000 0.600000
0.433565 -0.210317 -0.254671 0.000000 0.000000 1.000000
0.202427 0.157277 0.258564 0.800000 0.200000 0.500000
0.451394 0.204527 0.038210 0.000000 1.000000 0.000000
0.339195 -0.376349 0.102057 0.300000 0.600000 0.000000
-0.679935 0.346145 -0.102301 1.000000 0.000000 0.000000
-0.686592 0.328523 -0.240411 1.000000 0.000000 0.000000
0.344958 -0.196827 -0.056467 0.000000 1.000000 0.000000
0.164200 0.346145 0.120549 1.000000 0.000000 0.000000
0.441419 -0.014001 -0.104870 0.300000 0.000000 0.600000
0.433772 0.014367 -0.150113 0.300000 0.000000 0.600000
0.356845 0.032639 -0.199603 0.600000 0.300000 0.000000
0.188314 0.093880 -0.256213 0.000000 0.000000 1.000000
0.311637 0.207113 0.223321 0.800000 0.200000 0.500000
-0.852620 -0.301878 -0.218450 0.300000 0.000000 0.600000
0.248046 -0.008349 0.223321 0.300000 0.600000 0.000000
0.043889 -0.388013 0.219977 0.800000 0.200000 0.500000
0.094552 0.223895 0.227799 0.500000 0.500000 0.000000
0.160938 -0.146850 -0.256213 0.000000 0.000000 1.000000
0.368277 0.346145 0.226421 1.000000 0.000000 0.000000
-0.851074 0.348678 -0.285810 1.000000 0.000000 0.000000
0.308276 0.168372 -0.199603 0.500000 0.000000 0.500000
0.108154 -0.196827 0.024327 0.000000 1.000000 0.000000
0.466813 -0.432587 -0.106420 0.600000 0.000000 0.300000
0.484435 0.255842 0.220407 0.600000 0.000000 0.300000
0.433772 -0.289842 0.085786 0.500000 0.000000 0.500000
0.155579 0.234090 -0.181981 0.500000 0.000000 0.500000
-0.168843 0.328523 0.203790 1.000000 0.000000 0.000000
0.430712 0.346145 -0.256514 1.000000 0.000000 0.000000
0.378594 -0.196827 -0.105419 0.000000 1.000000 0.000000
-0.870242 -0.255597 -0.175357 0.300000 0.000000 0.600000
0.255896 -0.017305 -0.118133 0.300000 0.000000 0.600000
-0.852620 0.190131 -0.124894 0.300000 0.000000 0.600000
0.383038 -0.174125 0.258564 0.600000 0.000000 0.300000
0.256086 0.247556 -0.256213 0.000000 0.000000 1.000000
0.348270 -0.014001 -0.122342 0.300000 0.000000 0.600000
-0.625336 0.328523 0.158030 1.000000 0.000000 0.000000
0.223340 0.328523 0.290120 1.000000 0.000000 0.000000
-0.870242 0.177412 0.015516 0.300000 0.000000 0.600000
0.320952 0.046651 0.258564 0.300000 0.600000 0.000000
-0.870242 0.294149 0.033174 0.300000 0.000000 0.600000
0.211364 0.346145 -0.219263 1.000000 0.000000 0.000000
0.160282 -0.014001 -0.054468 0.300000 0.000000 0.600000
0.043889 0.189772 0.016229 0.800000 0.200000 0.500000
0.076930 -0.116917 0.125978 0.800000 0.200000 0.500000
0.166697 0.305172 0.258564 0.800000 0.200000 0.500000
-0.439385 0.328523 -0.107445 1.000000 0.000000 0.000000
0.374951 -0.376349 0.085387 0.300000 0.600000 0.000000
-0.870242 -0.088516 -0.164754 0.300000 0.000000 0.600000
0.351888 0.346145 0.170663 1.000000 0.000000 0.000000
0.433772 -0.159207 0.098231 0.000000 0.000000 1.000000
0.466813 0.108100 0.042597 0.600000 0.000000 0.300000
0.094552 -0.305535 0.119897 0.500000 0.500000 0.000000
0.260030 -0.271375 0.258564 0.500000 0.500000 0.000000
0.282675 0.047682 0.223321 0.300000 0.600000 0.000000
-0.651659 0.346145 -0.132369 1.000000 0.000000 0.000000
0.094552 -0.313879 0.065244 0.500000 0.500000 0.000000
0.265936 -0.319707 0.223321 0.500000 0.500000 0.000000
0.185324 -0.017305 0.131805 0.300000 0.000000 0.600000
0.245786 -0.128716 -0.254671 0.000000 0.000000 1.000000
0.345015 0.009169 0.240943 0.300000 0.600000 0.000000
-0.434409 0.346145 0.186591 1.000000 0.000000 0.000000
-0.853912 0.313681 0.240943 0.300000 0.000000 0.600000
-0.870242 0.322050 -0.116900 0.300000 0.000000 0.600000
0.297675 -0.398869 0.184262 1.000000 0.000000 0.000000
0.061511 0.018409 -0.039267 0.800000 0.200000 0.500000
0.118224 0.076978 -0.181981 0.600000 0.300000 0.000000
0.230398 -0.398869 -0.025609 1.000000 0.000000 0.000000
-0.866202 0.346145 0.083854 1.000000 0.000000 0.000000
0.368846 0.346145 -0.027460 1.000000 0.000000 0.000000
-0.510199 0.346145 0.244492 1.000000 0.000000 0.000000
-0.633698 0.036968 -0.254671 0.000000 1.000000 0.000000
0.076930 -0.276851 0.223965 0.500000 0.500000 0.000000
0.466813 -0.142759 0.084279 0.600000 0.000000 0.300000
0.076897 0.346145 0.029225 1.000000 0.000000 0.000000
0.061511 0.079768 -0.090243 0.800000 0.200000 0.500000
0.466813 -0.474898 -0.093871 0.600000 0.000000 0.300000
-0.065751 0.328523 0.082549 1.000000 0.000000 0.000000
0.466813 -0.066806 0.098186 0.600000 0.000000 0.300000
0.204119 0.060204 -0.256213 0.000000 0.000000 1.000000
0.451394 0.005221 0.188959 0.300000 0.000000 0.600000
0.466813 -0.369319 -0.112422 0.600000 0.000000 0.300000
0.086800 -0.262909 -0.193590 0.500000 0.500000 0.000000
0.430865 0.328523 -0.149262 1.000000 0.000000 0.000000
-0.450844 0.328523 -0.142774 1.000000 0.000000 0.000000
0.466813 -0.095823 -0.055155 0.600000 0.000000 0.300000
0.098322 -0.196827 -0.126960 0.000000 1.000000 0.000000
0.418624 0.225558 0.240943 0.800000 0.200000 0.500000
-0.852620 0.269109 0.175392 0.300000 0.000000 0.600000
0.094552 -0.311488 -0.054356 0.500000 0.500000 0.000000
0.523324 0.328523 0.160038 1.000000 0.000000 0.000000
0.076930 -0.093458 0.218714 0.800000 0.200000 0.500000
0.043889 -0.187546 0.125725 0.800000 0.200000 0.500000
-0.877080 0.346145 -0.076723 1.000000 0.000000 0.000000
0.364653 -0.143672 -0.254671 0.000000 0.000000 1.000000
-0.714198 0.346145 -0.213606 1.000000 0.000000 0.000000
-0.852620 -0.325293 0.212835 0.300000 0.000000 0.600000
0.308811 0.116655 0.277110 0.300000 0.000000 0.600000
-0.472826 0.328523 0.126086 1.000000 0.000000 0.000000
0.466813 0.256631 0.063050 0.600000 0.000000 0.300000
-0.355163 0.346145 0.265829 1.000000 0.000000 0.000000
-0.863920 -0.475472 0.112780 0.300000 0.000000 0.600000
-0.852620 0.008454 -0.047470 0.300000 0.000000 0.600000
0.309122 0.346145 0.107246 1.000000 0.000000 0.000000
0.451394 0.030524 0.219752 0.300000 0.000000 0.600000
0.360560 0.170143 -0.254671 0.000000 0.000000 1.000000
0.061511 -0.383663 0.139072 1.000000 0.000000 0.000000
0.203044 -0.193523 -0.072328 0.000000 1.000000 0.000000
-0.380117 -0.086288 -0.254671 0.000000 1.000000 0.000000
0.111394 0.162217 0.003553 0.000000 0.500000 0.500000
0.107331 0.328523 -0.112641 1.000000 0.000000 0.000000
0.084424 0.213975 -0.254671 0.000000 0.000000 1.000000
0.483588 -0.138909 -0.254671 0.600000 0.000000 0.300000
-0.797727 0.346145 0.109388 1.000000 0.000000 0.000000
0.061511 -0.059600 -0.004055 0.800000 0.200000 0.500000
