-0.102030 -0.036010 -0.082728 0.000000 0.500000 0.500000
0.019732 0.572430 0.097234 0.000000 1.000000 0.000000
-0.090558 -0.414370 -0.345672 0.600000 0.000000 0.300000
-0.180101 0.383036 -0.188215 0.000000 1.000000 0.000000
0.112130 0.032333 0.974470 0.000000 0.500000 0.500000
0.079541 -0.122972 0.525923 0.000000 0.500000 0.500000
-0.062715 -0.643453 -0.014341 0.600000 0.000000 0.300000
0.013317 0.027703 0.206468 0.000000 0.500000 0.500000
-0.087276 -0.109302 0.541063 0.000000 0.500000 0.500000
-0.038494 -0.106714 0.829846 0.000000 0.500000 0.500000
0.199072 0.481573 -0.184296 0.000000 1.000000 0.000000
-0.148009 -0.520585 -0.294461 0.600000 0.000000 0.300000
-0.013228 0.572430 0.381710 0.000000 1.000000 0.000000
-0.164297 0.500540 -0.269689 0.000000 1.000000 0.000000
0.124204 -0.621013 -0.330470 0.600000 0.000000 0.300000
0.088006 -0.354525 -0.002797 0.600000 0.000000 0.300000
-0.040474 0.056708 0.748109 0.000000 0.500000 0.500000
0.061890 0.497461 -0.307496 0.000000 1.000000 0.000000
-0.065492 0.015216 -0.026653 0.000000 0.500000 0.500000
-0.109335 0.482664 -0.075430 0.000000 1.000000 0.000000
0.109037 0.375644 -0.189303 0.600000 0.000000 0.300000
0.002889 0.634827 -0.119629 0.000000 1.000000 0.000000
-0.136336 0.493816 -0.199543 0.000000 1.000000 0.000000
-0.001293 -0.118231 0.614914 0.000000 0.500000 0.500000
0.151311 0.375644 -0.130609 0.600000 0.000000 0.300000
0.120899 0.375644 -0.115468 0.600000 0.000000 0.300000
0.162674 0.481431 -0.064533 0.000000 1.000000 0.000000
0.087058 0.455349 -0.027528 0.000000 1.000000 0.000000
-0.095735 -0.082503 0.704393 0.000000 0.500000 0.500000
-0.009605 -0.423610 -0.370066 0.600000 0.000000 0.300000
-0.154021 0.006579 -0.069277 0.600000 0.000000 0.300000
-0.086976 0.035383 0.577397 0.000000 0.500000 0.500000
0.004241 0.494978 0.418488 0.000000 1.000000 0.000000
0.000653 0.017611 0.018066 0.000000 0.500000 0.500000
-0.086633 0.634827 -0.218405 0.000000 1.000000 0.000000
0.114362 -0.037172 0.984751 0.000000 0.500000 0.500000
-0.185667 -0.353656 -0.203757 0.600000 0.000000 0.300000
0.168296 -0.639132 -0.054113 0.300000 0.000000 0.600000
0.076068 0.047899 0.584029 0.000000 0.500000 0.500000
0.020190 0.634827 -0.223338 0.000000 1.000000 0.000000
0.200037 -0.679633 -0.209769 0.300000 0.000000 0.600000
-0.070465 -0.080717 -0.355042 0.600000 0.000000 0.300000
-0.219280 -0.665360 -0.255742 0.300000 0.000000 0.600000
0.120465 -0.515162 -0.333088 0.600000 0.000000 0.300000
0.103696 -0.512140 -0.344830 0.600000 0.000000 0.300000
-0.170659 0.634827 -0.232488 0.000000 1.000000 0.000000
0.168584 0.068121 -0.281893 0.600000 0.000000 0.300000
0.036559 -0.639132 -0.261441 0.300000 0.000000 0.600000
-0.187332 0.544240 -0.184870 0.000000 1.000000 0.000000
0.057414 0.516636 -0.013733 0.000000 1.000000 0.000000
-0.034185 -0.400940 0.011606 0.600000 0.000000 0.300000
-0.084771 0.036941 0.526491 0.000000 0.500000 0.500000
0.140201 -0.639132 -0.158846 0.300000 0.000000 0.600000
-0.185385 0.072521 -0.206981 0.600000 0.000000 0.300000
-0.049412 0.076270 -0.362678 0.600000 0.000000 0.300000
0.103107 -0.212076 -0.009909 0.600000 0.000000 0.300000
0.197771 -0.586469 -0.199996 0.600000 0.000000 0.300000
0.062524 -0.679633 -0.200300 0.300000 0.000000 0.600000
-0.153929 -0.080845 -0.286007 0.600000 0.000000 0.300000
-0.079405 -0.124985 0.479195 0.000000 0.500000 0.500000
-0.075141 0.634827 -0.129955 0.000000 1.000000 0.000000
0.147110 -0.639132 0.005524 0.300000 0.000000 0.600000
0.050849 0.268195 0.010296 0.600000 0.000000 0.300000
0.026334 -0.018019 0.014480 0.600000 0.000000 0.300000
0.132355 0.366035 -0.030949 0.600000 0.000000 0.300000
0.195967 0.601362 -0.216363 0.000000 1.000000 0.000000
0.119664 -0.041785 0.086484 0.000000 0.500000 0.500000
0.197046 0.431785 -0.208245 0.000000 1.000000 0.000000
0.044850 0.495026 0.314227 0.000000 1.000000 0.000000
0.178467 0.392976 -0.139937 0.000000 1.000000 0.000000
-0.024097 0.494978 0.470455 0.000000 1.000000 0.000000
-0.083202 -0.210497 -0.006048 0.600000 0.000000 0.300000
-0.105895 -0.060067 0.473474 0.000000 0.500000 0.500000
0.036073 -0.235303 0.013628 0.600000 0.000000 0.300000
0.098163 -0.108129 0.675017 0.000000 0.500000 0.500000
-0.074852 -0.064492 -0.352996 0.600000 0.000000 0.300000
0.189497 0.166295 -0.238444 0.600000 0.000000 0.300000
-0.104700 -0.040114 0.969569 0.000000 0.500000 0.500000
0.173914 -0.444824 -0.274171 0.600000 0.000000 0.300000
0.010575 0.572430 -0.050229 0.000000 1.000000 0.000000
-0.022474 0.430120 0.013475 0.000000 1.000000 0.000000
-0.186644 -0.041504 -0.192586 0.600000 0.000000 0.300000
0.097035 0.394320 -0.038891 0.000000 1.000000 0.000000
0.108085 0.036614 0.876103 0.000000 0.500000 0.500000
-0.060257 0.189201 -0.359771 0.600000 0.000000 0.300000
0.003422 0.485321 -0.024386 0.000000 1.000000 0.000000
0.060721 0.375644 -0.262233 0.600000 0.000000 0.300000
0.081815 0.066319 -0.355240 0.600000 0.000000 0.300000
-0.079903 -0.639132 -0.248478 0.300000 0.000000 0.600000
-0.001430 0.564787 0.015548 0.000000 1.000000 0.000000
-0.021834 0.409350 -0.358944 0.000000 1.000000 0.000000
-0.079834 -0.528125 -0.350673 0.600000 0.000000 0.300000
0.009129 0.507716 -0.042679 0.000000 1.000000 0.000000
-0.069574 0.063488 0.874756 0.000000 0.500000 0.500000
-0.104993 -0.000988 0.792886 0.000000 0.500000 0.500000
0.108333 -0.107422 0.300401 0.000000 0.500000 0.500000
0.119475 -0.679633 -0.381182 0.300000 0.000000 0.600000
-0.093549 -0.123288 0.039966 0.000000 0.500000 0.500000
0.120916 -0.063007 -0.022344 0.000000 0.500000 0.500000
-0.166876 0.424893 -0.225079 0.000000 1.000000 0.000000
-0.187457 0.116809 -0.171849 0.600000 0.000000 0.300000
-0.079254 0.040960 0.461171 0.000000 0.500000 0.500000
0.054144 0.508016 0.103052 0.000000 1.000000 0.000000
0.039553 0.045844 0.546201 0.000000 0.500000 0.500000
0.108793 -0.096231 0.488898 0.000000 0.500000 0.500000
-0.169125 -0.173737 -0.095961 0.600000 0.000000 0.300000
-0.012899 0.375644 -0.063344 0.600000 0.000000 0.300000
0.178355 -0.639132 -0.174347 0.300000 0.000000 0.600000
0.183611 -0.639132 -0.081283 0.300000 0.000000 0.600000
0.099392 -0.118286 0.441033 0.000000 0.500000 0.500000
0.049631 0.538691 0.567431 0.000000 1.000000 0.000000
0.046980 0.572249 0.262626 0.000000 1.000000 0.000000
0.117899 -0.082257 0.242597 0.000000 0.500000 0.500000
0.104546 0.073835 -0.010917 0.600000 0.000000 0.300000
-0.137929 0.273664 -0.306854 0.600000 0.000000 0.300000
-0.102606 0.634827 -0.146997 0.000000 1.000000 0.000000
0.135786 0.460017 -0.070942 0.000000 1.000000 0.000000
0.079555 -0.639132 -0.043516 0.300000 0.000000 0.600000
-0.051840 -0.327341 -0.362027 0.600000 0.000000 0.300000
-0.089892 0.131059 -0.009168 0.600000 0.000000 0.300000
-0.028139 -0.639132 -0.323808 0.300000 0.000000 0.600000
-0.128529 0.375644 -0.302672 0.600000 0.000000 0.300000
0.079052 0.033527 0.315531 0.000000 0.500000 0.500000
0.044237 0.634827 -0.287120 0.000000 1.000000 0.000000
0.185383 -0.264489 -0.105575 0.600000 0.000000 0.300000
-0.091089 -0.102887 -0.345412 0.600000 0.000000 0.300000
-0.178793 -0.259036 -0.234447 0.600000 0.000000 0.300000
0.112278 -0.679633 -0.356921 0.300000 0.000000 0.600000
0.083688 -0.239193 -0.354367 0.600000 0.000000 0.300000
0.132277 0.049046 -0.324282 0.600000 0.000000 0.300000
-0.180012 0.448540 -0.125845 0.000000 1.000000 0.000000
-0.017831 -0.115656 0.662787 0.000000 0.500000 0.500000
0.002552 -0.643453 -0.309549 0.600000 0.000000 0.300000
0.191632 -0.589789 -0.230478 0.600000 0.000000 0.300000
-0.184913 -0.138306 -0.143545 0.600000 0.000000 0.300000
-0.169257 -0.160074 -0.258908 0.600000 0.000000 0.300000
0.114838 -0.084264 0.435409 0.000000 0.500000 0.500000
-0.152626 0.311087 -0.067285 0.600000 0.000000 0.300000
0.119712 -0.059098 0.528617 0.000000 0.500000 0.500000
-0.173015 0.469540 -0.254765 0.000000 1.000000 0.000000
-0.097979 -0.109744 0.097582 0.000000 0.500000 0.500000
0.018375 -0.643453 -0.258625 0.600000 0.000000 0.300000
-0.063138 -0.136674 0.270131 0.000000 0.500000 0.500000
-0.099915 -0.086462 0.446487 0.000000 0.500000 0.500000
0.100983 -0.121835 0.317149 0.000000 0.500000 0.500000
-0.187215 0.179645 -0.169087 0.600000 0.000000 0.300000
0.059469 0.526736 0.297457 0.000000 1.000000 0.000000
-0.069305 0.054326 0.703520 0.000000 0.500000 0.500000
0.196946 -0.333402 -0.209422 0.600000 0.000000 0.300000
-0.106271 -0.057827 -0.078449 0.000000 0.500000 0.500000
-0.020167 0.536399 -0.084556 0.000000 1.000000 0.000000
0.107404 -0.413367 -0.342233 0.600000 0.000000 0.300000
-0.023139 -0.159810 0.013729 0.600000 0.000000 0.300000
-0.031243 0.491022 0.012612 0.000000 1.000000 0.000000
-0.092398 0.009689 0.298713 0.000000 0.500000 0.500000
-0.185355 -0.679633 -0.193306 0.300000 0.000000 0.600000
-0.181886 0.328461 -0.222906 0.600000 0.000000 0.300000
0.026905 0.494978 0.437102 0.000000 1.000000 0.000000
-0.111273 -0.679633 -0.238211 0.300000 0.000000 0.600000
0.111543 -0.643453 -0.180786 0.600000 0.000000 0.300000
-0.169362 -0.679633 -0.113988 0.300000 0.000000 0.600000
0.198241 0.076181 -0.160530 0.600000 0.000000 0.300000
0.020142 0.564306 -0.370714 0.000000 1.000000 0.000000
0.027546 -0.679633 0.017343 0.300000 0.000000 0.600000
0.142357 0.425817 -0.057947 0.000000 1.000000 0.000000
0.186835 -0.565672 -0.246463 0.600000 0.000000 0.300000
0.119761 -0.075429 0.212856 0.000000 0.500000 0.500000
0.198511 -0.401375 -0.191532 0.600000 0.000000 0.300000
-0.081106 -0.639132 -0.070612 0.300000 0.000000 0.600000
0.023134 -0.643453 -0.132168 0.600000 0.000000 0.300000
-0.080278 -0.639132 -0.175242 0.300000 0.000000 0.600000
-0.166333 -0.237603 -0.089973 0.600000 0.000000 0.300000
-0.160089 -0.592983 -0.077944 0.600000 0.000000 0.300000
-0.184384 -0.460639 -0.141572 0.600000 0.000000 0.300000
-0.055775 0.391241 -0.352064 0.000000 1.000000 0.000000
-0.078685 -0.005258 -0.003942 0.600000 0.000000 0.300000
-0.071451 0.042623 0.484964 0.000000 0.500000 0.500000
0.183916 0.123068 -0.252722 0.600000 0.000000 0.300000
-0.005170 -0.103794 0.885212 0.000000 0.500000 0.500000
0.088245 0.375644 -0.251888 0.600000 0.000000 0.300000
0.085137 -0.350568 -0.353691 0.600000 0.000000 0.300000
0.116338 -0.068719 0.612368 0.000000 0.500000 0.500000
0.114667 -0.639132 -0.216465 0.300000 0.000000 0.600000
0.052231 -0.142539 0.160593 0.000000 0.500000 0.500000
0.066144 -0.099928 0.006198 0.600000 0.000000 0.300000
-0.185418 0.598713 -0.204235 0.000000 1.000000 0.000000
0.169286 0.479983 -0.282443 0.000000 1.000000 0.000000
0.118620 -0.580339 -0.020771 0.600000 0.000000 0.300000
-0.172416 -0.058774 -0.103019 0.600000 0.000000 0.300000
0.065074 0.536097 -0.252950 0.000000 1.000000 0.000000
-0.123285 0.634827 -0.215490 0.000000 1.000000 0.000000
-0.091085 -0.088247 0.795810 0.000000 0.500000 0.500000
0.115873 -0.013694 0.323084 0.000000 0.500000 0.500000
-0.144670 -0.639133 -0.119406 0.300000 0.000000 0.600000
0.058923 0.522713 0.516639 0.000000 1.000000 0.000000
-0.183206 0.509746 -0.221737 0.000000 1.000000 0.000000
-0.023285 -0.094310 -0.368869 0.600000 0.000000 0.300000
-0.205252 -0.679633 -0.130367 0.300000 0.000000 0.600000
-0.038942 0.505969 0.483547 0.000000 1.000000 0.000000
-0.183693 -0.476371 -0.138991 0.600000 0.000000 0.300000
0.131659 0.422083 -0.031236 0.000000 1.000000 0.000000
-0.010334 0.028748 0.014850 0.600000 0.000000 0.300000
-0.082774 -0.089626 -0.005849 0.600000 0.000000 0.300000
-0.150571 0.375644 -0.259875 0.600000 0.000000 0.300000
-0.049959 0.434647 -0.344465 0.000000 1.000000 0.000000
0.191580 -0.279376 -0.230671 0.600000 0.000000 0.300000
-0.151497 -0.201870 -0.065672 0.600000 0.000000 0.300000
-0.103766 0.009508 0.896333 0.000000 0.500000 0.500000
-0.172055 0.081308 -0.102245 0.600000 0.000000 0.300000
0.020421 -0.546983 0.014997 0.600000 0.000000 0.300000
-0.021948 0.375644 -0.131132 0.600000 0.000000 0.300000
0.094285 -0.639132 -0.028906 0.300000 0.000000 0.600000
-0.030944 0.049406 0.611647 0.000000 0.500000 0.500000
-0.033424 0.495334 0.256466 0.000000 1.000000 0.000000
0.145195 0.169749 -0.043789 0.600000 0.000000 0.300000
-0.000646 -0.679633 0.050560 0.300000 0.000000 0.600000
-0.106279 -0.031814 0.912578 0.000000 0.500000 0.500000
-0.105127 -0.020071 0.447182 0.000000 0.500000 0.500000
0.004211 -0.374108 -0.371274 0.600000 0.000000 0.300000
0.195272 0.104201 -0.138258 0.600000 0.000000 0.300000
-0.134692 -0.575065 -0.045061 0.600000 0.000000 0.300000
0.167316 -0.236874 -0.071449 0.600000 0.000000 0.300000
-0.034437 -0.679633 -0.272388 0.300000 0.000000 0.600000
-0.104810 -0.085720 0.111146 0.000000 0.500000 0.500000
-0.101431 0.392926 -0.037430 0.000000 1.000000 0.000000
-0.129720 -0.614947 -0.040089 0.600000 0.000000 0.300000
0.100004 0.012280 0.112029 0.000000 0.500000 0.500000
0.098258 -0.140151 0.074363 0.000000 0.500000 0.500000
0.156777 -0.384819 -0.056397 0.600000 0.000000 0.300000
0.196844 0.551751 -0.207616 0.000000 1.000000 0.000000
0.179116 0.411697 -0.242721 0.000000 1.000000 0.000000
0.148069 0.406276 -0.295426 0.000000 1.000000 0.000000
0.130620 -0.259036 -0.325939 0.600000 0.000000 0.300000
0.192713 -0.269132 -0.128709 0.600000 0.000000 0.300000
-0.075667 0.089699 -0.352616 0.600000 0.000000 0.300000
-0.075294 0.351637 -0.352790 0.600000 0.000000 0.300000
0.111333 -0.120306 -0.071851 0.000000 0.500000 0.500000
0.058184 0.025179 0.159718 0.000000 0.500000 0.500000
0.198289 0.159248 -0.161081 0.600000 0.000000 0.300000
0.164200 0.060776 -0.066998 0.600000 0.000000 0.300000
-0.029083 0.494986 0.195479 0.000000 1.000000 0.000000
0.183978 0.068996 -0.252590 0.600000 0.000000 0.300000
0.021201 -0.421372 0.014929 0.600000 0.000000 0.300000
-0.105387 -0.173743 -0.019750 0.600000 0.000000 0.300000
0.054842 0.509662 0.082971 0.000000 1.000000 0.000000
0.057725 0.021877 0.008454 0.600000 0.000000 0.300000
0.052694 0.634827 -0.183748 0.000000 1.000000 0.000000
0.019288 0.494978 0.231827 0.000000 1.000000 0.000000
0.131153 0.634827 -0.196013 0.000000 1.000000 0.000000
0.176149 0.253145 -0.085774 0.600000 0.000000 0.300000
0.053641 0.375644 -0.088814 0.600000 0.000000 0.300000
-0.144968 -0.360054 -0.298804 0.600000 0.000000 0.300000
0.030833 0.536616 -0.268592 0.000000 1.000000 0.000000
0.007243 0.375644 -0.095899 0.600000 0.000000 0.300000
-0.077982 -0.439367 -0.003614 0.600000 0.000000 0.300000
-0.021019 0.357173 -0.369067 0.600000 0.000000 0.300000
0.079757 -0.095439 -0.356199 0.600000 0.000000 0.300000
0.020844 0.494978 0.559520 0.000000 1.000000 0.000000
-0.127641 -0.203849 -0.038010 0.600000 0.000000 0.300000
0.053309 0.506049 0.448207 0.000000 1.000000 0.000000
-0.048427 0.063838 0.881621 0.000000 0.500000 0.500000
0.055051 0.339666 0.009170 0.600000 0.000000 0.300000
0.027134 0.201235 0.014410 0.600000 0.000000 0.300000
-0.040593 -0.131661 0.363775 0.000000 0.500000 0.500000
-0.014649 0.495314 0.571908 0.000000 1.000000 0.000000
-0.034865 -0.643453 -0.033326 0.600000 0.000000 0.300000
0.096610 -0.260109 -0.348341 0.600000 0.000000 0.300000
-0.058165 -0.524224 -0.360332 0.600000 0.000000 0.300000
0.121329 -0.050921 0.311028 0.000000 0.500000 0.500000
0.074719 -0.320241 -0.358549 0.600000 0.000000 0.300000
0.042984 0.517640 -0.292279 0.000000 1.000000 0.000000
-0.177728 -0.110016 -0.116730 0.600000 0.000000 0.300000
-0.176603 -0.028564 -0.242620 0.600000 0.000000 0.300000
0.047708 0.375644 0.005813 0.600000 0.000000 0.300000
-0.086484 0.049306 0.819276 0.000000 0.500000 0.500000
0.040201 -0.114695 0.681430 0.000000 0.500000 0.500000
0.177992 0.198332 -0.089724 0.600000 0.000000 0.300000
-0.119806 0.634827 -0.157070 0.000000 1.000000 0.000000
0.017450 -0.091401 0.990858 0.300000 0.600000 0.000000
-0.106776 -0.050383 0.175924 0.000000 0.500000 0.500000
-0.018846 0.034148 0.326785 0.000000 0.500000 0.500000
-0.091421 0.133886 -0.345180 0.600000 0.000000 0.300000
0.115154 0.586538 -0.017691 0.000000 1.000000 0.000000
-0.153366 0.389855 -0.272315 0.000000 1.000000 0.000000
-0.162222 -0.078660 -0.273995 0.600000 0.000000 0.300000
0.076326 0.053520 0.689003 0.000000 0.500000 0.500000
0.041633 -0.107300 0.819611 0.000000 0.500000 0.500000
0.050250 0.375644 -0.053336 0.600000 0.000000 0.300000
-0.133582 -0.639133 -0.346878 0.300000 0.000000 0.600000
-0.093925 -0.080501 0.821564 0.000000 0.500000 0.500000
-0.058245 0.496251 0.004561 0.000000 1.000000 0.000000
-0.176957 -0.500477 -0.241298 0.600000 0.000000 0.300000
0.197507 -0.415897 -0.152135 0.600000 0.000000 0.300000
-0.037464 0.564472 0.437096 0.000000 1.000000 0.000000
0.059849 -0.639132 -0.378100 0.300000 0.000000 0.600000
0.009253 0.204755 -0.371127 0.600000 0.000000 0.300000
0.148007 -0.549723 -0.308552 0.600000 0.000000 0.300000
0.192916 -0.639132 -0.058014 0.300000 0.000000 0.600000
-0.030014 0.394602 -0.018116 0.000000 1.000000 0.000000
-0.102111 -0.011197 0.385891 0.000000 0.500000 0.500000
0.165700 0.614232 -0.287080 0.000000 1.000000 0.000000
-0.098726 0.010623 0.594389 0.000000 0.500000 0.500000
0.044891 0.417737 0.002678 0.000000 1.000000 0.000000
-0.168284 -0.460797 -0.094157 0.600000 0.000000 0.300000
-0.083740 0.177068 -0.348852 0.600000 0.000000 0.300000
-0.084053 0.013722 0.067412 0.000000 0.500000 0.500000
-0.055114 0.069012 0.978525 0.000000 0.500000 0.500000
-0.163896 -0.045719 -0.084747 0.600000 0.000000 0.300000
0.145410 -0.385218 -0.044004 0.600000 0.000000 0.300000
-0.007849 -0.643453 -0.074510 0.600000 0.000000 0.300000
-0.174771 -0.631261 -0.247083 0.600000 0.000000 0.300000
-0.135192 0.375644 -0.184202 0.600000 0.000000 0.300000
-0.186260 0.244287 -0.158172 0.600000 0.000000 0.300000
0.092277 -0.505226 -0.350361 0.600000 0.000000 0.300000
0.110791 0.012944 0.553508 0.000000 0.500000 0.500000
0.089811 0.393379 -0.009807 0.000000 1.000000 0.000000
0.075049 -0.166242 0.003244 0.600000 0.000000 0.300000
0.240117 -0.645977 -0.225868 0.300000 0.000000 0.600000
0.099625 0.004241 -0.051645 0.000000 0.500000 0.500000
-0.065918 0.634827 -0.203458 0.000000 1.000000 0.000000
0.198310 -0.356756 -0.193831 0.600000 0.000000 0.300000
0.003470 -0.091780 0.943105 0.300000 0.600000 0.000000
0.188838 -0.319740 -0.114249 0.600000 0.000000 0.300000
-0.056235 -0.134176 0.896912 0.300000 0.600000 0.000000
0.111954 -0.022672 -0.059421 0.000000 0.500000 0.500000
0.154552 0.359236 -0.301933 0.600000 0.000000 0.300000
-0.174708 0.321844 -0.247218 0.600000 0.000000 0.300000
0.193071 0.372289 -0.131246 0.600000 0.000000 0.300000
-0.107126 0.190715 -0.334183 0.600000 0.000000 0.300000
-0.035730 0.321379 -0.366344 0.600000 0.000000 0.300000
0.180171 -0.433833 -0.094398 0.600000 0.000000 0.300000
-0.035914 0.110223 0.011143 0.600000 0.000000 0.300000
0.130890 0.132240 -0.325668 0.600000 0.000000 0.300000
-0.084941 0.044068 0.665572 0.000000 0.500000 0.500000
0.120149 -0.008171 0.825559 0.000000 0.500000 0.500000
-0.013259 -0.458629 0.014594 0.600000 0.000000 0.300000
-0.093644 -0.002843 0.119718 0.000000 0.500000 0.500000
-0.091819 0.025073 0.560876 0.000000 0.500000 0.500000
-0.103841 -0.036076 0.052214 0.000000 0.500000 0.500000
0.047772 0.584516 0.011310 0.000000 1.000000 0.000000
0.087341 -0.679633 -0.092530 0.300000 0.000000 0.600000
0.054605 -0.247719 0.009290 0.600000 0.000000 0.300000
0.112755 -0.102277 0.201693 0.000000 0.500000 0.500000
-0.148424 0.404790 -0.074276 0.000000 1.000000 0.000000
-0.062619 0.209837 0.003550 0.600000 0.000000 0.300000
-0.104013 -0.001058 0.717919 0.000000 0.500000 0.500000
-0.083176 -0.679633 -0.121554 0.300000 0.000000 0.600000
-0.182169 0.266472 -0.133301 0.600000 0.000000 0.300000
0.061627 -0.397127 0.007408 0.600000 0.000000 0.300000
0.105058 0.313633 -0.011275 0.600000 0.000000 0.300000
0.116822 0.297000 -0.019513 0.600000 0.000000 0.300000
0.171581 0.392309 -0.079631 0.000000 1.000000 0.000000
0.041747 -0.097767 0.998884 0.000000 0.500000 0.500000
0.113961 -0.286237 -0.337643 0.600000 0.000000 0.300000
-0.079153 -0.107478 -0.004160 0.600000 0.000000 0.300000
0.084446 0.582452 -0.000827 0.000000 1.000000 0.000000
0.109735 -0.107111 0.244489 0.000000 0.500000 0.500000
0.031691 0.124612 -0.369163 0.600000 0.000000 0.300000
0.015997 0.332195 0.015385 0.600000 0.000000 0.300000
-0.024819 0.011278 -0.100174 0.000000 0.500000 0.500000
0.188454 0.418367 -0.114860 0.000000 1.000000 0.000000
-0.133128 -0.679633 -0.132858 0.300000 0.000000 0.600000
0.073923 -0.126907 0.452722 0.000000 0.500000 0.500000
0.062282 -0.542809 -0.362384 0.600000 0.000000 0.300000
0.092639 0.603109 -0.350538 0.000000 1.000000 0.000000
0.049113 0.634827 -0.038674 0.000000 1.000000 0.000000
0.141791 -0.639132 -0.353026 0.300000 0.000000 0.600000
-0.035655 0.314943 0.011212 0.600000 0.000000 0.300000
0.173338 -0.372090 -0.080049 0.600000 0.000000 0.300000
-0.008766 0.572430 0.106634 0.000000 1.000000 0.000000
-0.149152 0.475890 -0.207562 0.000000 1.000000 0.000000
0.120455 -0.048607 0.140541 0.000000 0.500000 0.500000
0.094264 -0.458044 -0.005716 0.600000 0.000000 0.300000
-0.125004 -0.679633 -0.342875 0.300000 0.000000 0.600000
-0.012556 0.387852 0.009243 0.000000 1.000000 0.000000
0.119887 -0.034184 0.279146 0.000000 0.500000 0.500000
-0.176364 0.040820 -0.111640 0.600000 0.000000 0.300000
-0.039788 -0.060345 1.001200 0.000000 0.500000 0.500000
-0.184927 -0.057308 -0.143597 0.600000 0.000000 0.300000
-0.187391 -0.229353 -0.171104 0.600000 0.000000 0.300000
-0.140156 -0.131816 -0.304627 0.600000 0.000000 0.300000
-0.107347 -0.069079 -0.041596 0.000000 0.500000 0.500000
-0.145863 0.634827 -0.087334 0.000000 1.000000 0.000000
0.197467 -0.612936 -0.151684 0.600000 0.000000 0.300000
0.107625 -0.104409 0.387831 0.000000 0.500000 0.500000
-0.103525 -0.095190 0.031214 0.000000 0.500000 0.500000
0.046605 -0.113523 0.703260 0.000000 0.500000 0.500000
-0.185278 0.124888 -0.208206 0.600000 0.000000 0.300000
-0.164889 0.375644 -0.258788 0.600000 0.000000 0.300000
-0.119310 -0.012773 -0.029679 0.600000 0.000000 0.300000
-0.151357 0.427937 -0.261075 0.000000 1.000000 0.000000
-0.037068 -0.127519 -0.365985 0.600000 0.000000 0.300000
-0.186115 -0.257060 -0.198635 0.600000 0.000000 0.300000
0.110736 0.027035 0.813929 0.000000 0.500000 0.500000
0.034925 0.494978 0.107466 0.000000 1.000000 0.000000
-0.006014 -0.627604 -0.370380 0.600000 0.000000 0.300000
-0.094107 -0.066013 -0.011852 0.600000 0.000000 0.300000
0.197068 -0.388285 -0.147121 0.600000 0.000000 0.300000
-0.021964 0.444596 -0.348694 0.000000 1.000000 0.000000
-0.075815 -0.639132 -0.291049 0.300000 0.000000 0.600000
0.027772 -0.432220 -0.369506 0.600000 0.000000 0.300000
-0.025529 -0.147039 0.076473 0.000000 0.500000 0.500000
-0.062084 -0.140937 0.930774 0.300000 0.600000 0.000000
-0.059514 -0.146793 0.081071 0.000000 0.500000 0.500000
0.013402 -0.360772 0.015612 0.600000 0.000000 0.300000
-0.018776 -0.630128 0.014111 0.600000 0.000000 0.300000
0.052423 0.563257 0.223287 0.000000 1.000000 0.000000
-0.061153 -0.472190 0.004233 0.600000 0.000000 0.300000
-0.026815 -0.128405 0.424610 0.000000 0.500000 0.500000
-0.091590 -0.092808 0.692410 0.000000 0.500000 0.500000
0.198272 0.584272 -0.192434 0.000000 1.000000 0.000000
0.081730 0.526847 -0.095258 0.000000 1.000000 0.000000
0.132097 -0.156869 -0.030690 0.600000 0.000000 0.300000
-0.000103 0.042258 0.478317 0.000000 0.500000 0.500000
-0.052255 0.042814 -0.361916 0.600000 0.000000 0.300000
-0.087309 0.005089 0.024489 0.000000 0.500000 0.500000
-0.120995 -0.550911 -0.323788 0.600000 0.000000 0.300000
-0.076154 -0.151967 -0.018488 0.000000 0.500000 0.500000
-0.156920 0.001152 -0.281734 0.600000 0.000000 0.300000
0.056925 0.094813 0.008668 0.600000 0.000000 0.300000
-0.119377 -0.580899 -0.325406 0.600000 0.000000 0.300000
0.005127 0.634827 -0.150164 0.000000 1.000000 0.000000
-0.098860 -0.679633 0.015864 0.300000 0.000000 0.600000
0.005043 -0.398843 0.016195 0.600000 0.000000 0.300000
-0.179121 -0.234988 -0.121926 0.600000 0.000000 0.300000
0.192029 0.403332 -0.183143 0.000000 1.000000 0.000000
-0.100829 0.405368 -0.327287 0.000000 1.000000 0.000000
0.187151 -0.313970 -0.245786 0.600000 0.000000 0.300000
0.049459 -0.136990 0.010669 0.600000 0.000000 0.300000
-0.089961 -0.020526 -0.345951 0.600000 0.000000 0.300000
-0.004828 0.128629 -0.370484 0.600000 0.000000 0.300000
-0.128299 -0.491735 -0.038668 0.600000 0.000000 0.300000
0.025199 0.572430 0.222705 0.000000 1.000000 0.000000
-0.167006 -0.479396 -0.091418 0.600000 0.000000 0.300000
-0.172498 -0.679633 -0.313204 0.300000 0.000000 0.600000
-0.038778 0.410605 0.002505 0.000000 1.000000 0.000000
-0.127181 -0.643453 -0.281310 0.600000 0.000000 0.300000
0.029298 -0.679633 -0.125894 0.300000 0.000000 0.600000
0.034934 0.572430 0.436111 0.000000 1.000000 0.000000
-0.027722 -0.122966 0.526223 0.000000 0.500000 0.500000
-0.000192 0.237803 -0.370889 0.600000 0.000000 0.300000
0.145456 -0.196217 -0.311103 0.600000 0.000000 0.300000
0.089962 -0.145859 -0.351441 0.600000 0.000000 0.300000
-0.058265 -0.524878 0.005154 0.600000 0.000000 0.300000
0.110977 0.288809 -0.339732 0.600000 0.000000 0.300000
0.101069 -0.128268 0.194054 0.000000 0.500000 0.500000
-0.024553 -0.139216 0.222636 0.000000 0.500000 0.500000
0.086093 0.634827 -0.269141 0.000000 1.000000 0.000000
-0.027543 0.459125 -0.352049 0.000000 1.000000 0.000000
-0.132873 0.495979 -0.144366 0.000000 1.000000 0.000000
-0.097362 0.634827 -0.183613 0.000000 1.000000 0.000000
-0.230796 -0.642070 -0.196861 0.300000 0.000000 0.600000
0.039592 -0.639132 0.034602 0.300000 0.000000 0.600000
-0.007977 0.043277 0.497218 0.000000 0.500000 0.500000
-0.207133 -0.639133 -0.245196 0.300000 0.000000 0.600000
0.029947 0.011810 -0.090241 0.000000 0.500000 0.500000
0.196992 0.413523 -0.209332 0.000000 1.000000 0.000000
0.090101 -0.641230 -0.351376 0.600000 0.000000 0.300000
0.192301 -0.652203 -0.029304 0.300000 0.000000 0.600000
0.017982 -0.633614 0.015211 0.600000 0.000000 0.300000
-0.176028 -0.639133 -0.047014 0.300000 0.000000 0.600000
0.118606 -0.045473 -0.063863 0.000000 0.500000 0.500000
-0.145384 -0.679633 -0.007636 0.300000 0.000000 0.600000
0.090057 -0.474071 -0.003754 0.600000 0.000000 0.300000
0.116630 -0.021976 0.225603 0.000000 0.500000 0.500000
0.006651 -0.090630 0.969499 0.300000 0.600000 0.000000
0.168199 -0.639132 -0.013238 0.300000 0.000000 0.600000
-0.033261 -0.100818 0.940484 0.000000 0.500000 0.500000
0.017832 0.572430 0.126734 0.000000 1.000000 0.000000
0.052431 0.471118 -0.366835 0.000000 1.000000 0.000000
0.060846 -0.679633 -0.054697 0.300000 0.000000 0.600000
0.117748 -0.639132 -0.053994 0.300000 0.000000 0.600000
-0.187285 0.449992 -0.170745 0.000000 1.000000 0.000000
0.183851 0.420874 -0.217566 0.000000 1.000000 0.000000
0.034068 -0.110045 0.013803 0.600000 0.000000 0.300000
-0.157048 -0.639133 -0.253087 0.300000 0.000000 0.600000
0.112001 0.017842 0.698091 0.000000 0.500000 0.500000
0.144717 -0.370902 -0.311841 0.600000 0.000000 0.300000
0.060576 0.054891 0.715025 0.000000 0.500000 0.500000
-0.186353 -0.367112 -0.195910 0.600000 0.000000 0.300000
0.001308 -0.639132 -0.124447 0.300000 0.000000 0.600000
0.193028 0.109062 -0.225267 0.600000 0.000000 0.300000
-0.137781 -0.016401 -0.307002 0.600000 0.000000 0.300000
0.015602 0.468097 -0.338633 0.000000 1.000000 0.000000
0.113135 -0.558794 -0.338221 0.600000 0.000000 0.300000
0.048639 0.634827 -0.345615 0.000000 1.000000 0.000000
0.021713 0.036929 0.999416 0.000000 0.500000 0.500000
-0.015033 0.375644 -0.219601 0.600000 0.000000 0.300000
-0.134384 0.634827 -0.077295 0.000000 1.000000 0.000000
0.109015 -0.279131 -0.014046 0.600000 0.000000 0.300000
-0.048419 -0.622296 0.007792 0.600000 0.000000 0.300000
-0.074055 -0.104210 0.874050 0.000000 0.500000 0.500000
-0.174139 -0.303559 -0.248438 0.600000 0.000000 0.300000
-0.106490 -0.004440 0.968334 0.000000 0.500000 0.500000
0.009035 -0.110155 0.766308 0.000000 0.500000 0.500000
-0.063297 0.151612 0.003233 0.600000 0.000000 0.300000
0.113074 -0.454321 -0.016888 0.600000 0.000000 0.300000
0.075341 0.434069 -0.011798 0.000000 1.000000 0.000000
0.119638 -0.011213 0.652359 0.000000 0.500000 0.500000
-0.182970 -0.470175 -0.218857 0.600000 0.000000 0.300000
-0.193641 -0.639133 -0.058859 0.300000 0.000000 0.600000
-0.009794 0.572430 0.367902 0.000000 1.000000 0.000000
0.048602 0.634827 -0.095601 0.000000 1.000000 0.000000
-0.085305 0.018347 0.199045 0.000000 0.500000 0.500000
0.043147 -0.048861 -0.367512 0.600000 0.000000 0.300000
-0.126004 0.431497 -0.057087 0.000000 1.000000 0.000000
-0.058125 -0.679633 -0.200477 0.300000 0.000000 0.600000
-0.185783 0.328675 -0.152720 0.600000 0.000000 0.300000
-0.043690 0.039092 0.419099 0.000000 0.500000 0.500000
0.087224 0.634827 -0.121501 0.000000 1.000000 0.000000
-0.083605 0.056832 0.855306 0.000000 0.500000 0.500000
0.170724 -0.611214 -0.076316 0.600000 0.000000 0.300000
-0.155336 -0.679633 -0.238779 0.300000 0.000000 0.600000
-0.061788 0.059571 0.801627 0.000000 0.500000 0.500000
-0.185878 0.290864 -0.153801 0.600000 0.000000 0.300000
0.075562 0.309716 -0.358156 0.600000 0.000000 0.300000
0.190388 -0.362986 -0.235118 0.600000 0.000000 0.300000
0.096194 -0.639132 -0.263366 0.300000 0.000000 0.600000
-0.101329 -0.002348 0.492130 0.000000 0.500000 0.500000
0.037306 0.057059 0.755872 0.000000 0.500000 0.500000
-0.186396 -0.519695 -0.159729 0.600000 0.000000 0.300000
0.046973 -0.679633 -0.178877 0.300000 0.000000 0.600000
-0.104366 -0.046826 0.869544 0.000000 0.500000 0.500000
-0.163846 -0.372308 -0.270512 0.600000 0.000000 0.300000
0.092147 -0.066365 -0.350422 0.600000 0.000000 0.300000
0.164330 0.509980 -0.289490 0.000000 1.000000 0.000000
-0.180139 0.159000 -0.229426 0.600000 0.000000 0.300000
0.049058 0.375644 -0.136925 0.600000 0.000000 0.300000
-0.107619 -0.643453 -0.199509 0.600000 0.000000 0.300000
-0.019368 0.033089 0.307014 0.000000 0.500000 0.500000
-0.059524 -0.161679 0.004817 0.600000 0.000000 0.300000
-0.205269 -0.679633 -0.204315 0.300000 0.000000 0.600000
-0.017268 0.634827 -0.129128 0.000000 1.000000 0.000000
0.077802 -0.409637 -0.357111 0.600000 0.000000 0.300000
0.003283 -0.105393 0.016041 0.600000 0.000000 0.300000
-0.002868 -0.117288 0.632547 0.000000 0.500000 0.500000
-0.042865 0.013498 -0.058723 0.000000 0.500000 0.500000
-0.089650 0.014233 0.986407 0.000000 0.500000 0.500000
-0.186430 -0.062670 -0.160114 0.600000 0.000000 0.300000
0.083888 -0.437979 -0.354273 0.600000 0.000000 0.300000
0.192343 -0.002853 -0.227822 0.600000 0.000000 0.300000
0.187114 0.159101 -0.109287 0.600000 0.000000 0.300000
-0.048989 0.554119 -0.174416 0.000000 1.000000 0.000000
-0.097526 -0.017436 0.018412 0.000000 0.500000 0.500000
0.061382 -0.007843 0.007474 0.600000 0.000000 0.300000
0.025828 -0.110203 0.765452 0.000000 0.500000 0.500000
-0.142445 -0.679633 -0.032326 0.300000 0.000000 0.600000
0.117503 -0.035641 0.036506 0.000000 0.500000 0.500000
-0.064351 -0.357106 -0.357893 0.600000 0.000000 0.300000
0.089074 0.051199 0.646803 0.000000 0.500000 0.500000
0.120641 -0.047324 0.207127 0.000000 0.500000 0.500000
-0.166422 -0.639133 -0.031890 0.300000 0.000000 0.600000
-0.090710 -0.118559 0.243931 0.000000 0.500000 0.500000
0.099231 0.375644 -0.225949 0.600000 0.000000 0.300000
-0.042027 -0.156228 -0.364656 0.600000 0.000000 0.300000
0.160895 0.336705 -0.292874 0.600000 0.000000 0.300000
0.202759 -0.679633 -0.248572 0.300000 0.000000 0.600000
-0.186700 0.537355 -0.164806 0.000000 1.000000 0.000000
0.049856 -0.643453 -0.271428 0.600000 0.000000 0.300000
-0.167425 -0.533714 -0.092316 0.600000 0.000000 0.300000
-0.035356 0.102624 -0.366444 0.600000 0.000000 0.300000
0.026085 0.012980 -0.068393 0.000000 0.500000 0.500000
0.031217 0.317432 -0.369205 0.600000 0.000000 0.300000
-0.090441 -0.582070 -0.345727 0.600000 0.000000 0.300000
-0.122763 0.591423 -0.322401 0.000000 1.000000 0.000000
-0.006772 0.494978 0.384868 0.000000 1.000000 0.000000
-0.123144 -0.317209 -0.321639 0.600000 0.000000 0.300000
0.118633 -0.070255 0.411144 0.000000 0.500000 0.500000
0.160210 -0.319157 -0.061299 0.600000 0.000000 0.300000
0.004671 -0.643453 -0.238605 0.600000 0.000000 0.300000
0.088068 -0.119521 -0.002827 0.600000 0.000000 0.300000
0.095366 -0.118199 -0.348921 0.600000 0.000000 0.300000
0.129110 0.109624 -0.327035 0.600000 0.000000 0.300000
-0.121375 0.458690 -0.326853 0.000000 1.000000 0.000000
0.051617 0.564822 0.033008 0.000000 1.000000 0.000000
-0.060104 0.096947 -0.359812 0.600000 0.000000 0.300000
-0.185699 0.097916 -0.151757 0.600000 0.000000 0.300000
-0.007771 -0.639132 0.039057 0.300000 0.000000 0.600000
-0.036115 0.634827 -0.247506 0.000000 1.000000 0.000000
0.146891 -0.053414 -0.309667 0.600000 0.000000 0.300000
-0.021132 -0.639132 -0.301148 0.300000 0.000000 0.600000
0.196842 -0.073420 -0.144537 0.600000 0.000000 0.300000
-0.029022 0.068351 0.966759 0.000000 0.500000 0.500000
-0.137370 0.437918 -0.278741 0.000000 1.000000 0.000000
0.081973 0.065083 0.904640 0.000000 0.500000 0.500000
0.153162 0.450440 -0.086012 0.000000 1.000000 0.000000
-0.129014 -0.679633 -0.212640 0.300000 0.000000 0.600000
0.196545 0.593976 -0.145224 0.000000 1.000000 0.000000
0.025118 0.011101 -0.103481 0.000000 0.500000 0.500000
-0.144807 0.394022 -0.103672 0.000000 1.000000 0.000000
-0.086136 -0.094930 0.850464 0.000000 0.500000 0.500000
-0.050678 0.356934 -0.362338 0.600000 0.000000 0.300000
0.001465 -0.098669 0.981130 0.000000 0.500000 0.500000
0.050868 0.501134 0.522147 0.000000 1.000000 0.000000
-0.062755 0.017025 0.007126 0.000000 0.500000 0.500000
-0.160620 -0.494637 -0.276450 0.600000 0.000000 0.300000
-0.110814 -0.639133 -0.005419 0.300000 0.000000 0.600000
0.191696 0.054367 -0.230238 0.600000 0.000000 0.300000
0.121678 0.634827 -0.308974 0.000000 1.000000 0.000000
-0.030980 -0.679633 -0.402461 0.300000 0.000000 0.600000
-0.123207 0.380095 -0.040606 0.000000 1.000000 0.000000
0.047840 -0.091739 -0.366254 0.600000 0.000000 0.300000
-0.107332 -0.036195 0.568635 0.000000 0.500000 0.500000
-0.097230 -0.071458 0.844496 0.000000 0.500000 0.500000
0.042214 0.048636 0.598395 0.000000 0.500000 0.500000
0.109787 -0.643453 -0.064853 0.600000 0.000000 0.300000
-0.182509 -0.222438 -0.134572 0.600000 0.000000 0.300000
0.088356 -0.222924 -0.352190 0.600000 0.000000 0.300000
0.096086 0.020783 0.128502 0.000000 0.500000 0.500000
-0.099287 0.016366 0.726181 0.000000 0.500000 0.500000
-0.105293 -0.639132 -0.048856 0.300000 0.000000 0.600000
-0.083142 0.033218 0.397916 0.000000 0.500000 0.500000
0.142207 0.493385 -0.229164 0.000000 1.000000 0.000000
0.067673 0.068750 0.973702 0.000000 0.500000 0.500000
0.002954 0.465668 -0.371832 0.000000 1.000000 0.000000
-0.069450 0.596675 -0.356567 0.000000 1.000000 0.000000
-0.127728 -0.474019 -0.038097 0.600000 0.000000 0.300000
0.117737 -0.060288 0.664311 0.000000 0.500000 0.500000
-0.166173 0.020847 -0.265522 0.600000 0.000000 0.300000
0.027059 0.494978 0.003434 0.000000 1.000000 0.000000
0.097573 -0.244055 -0.007259 0.600000 0.000000 0.300000
-0.037314 -0.573875 0.010768 0.600000 0.000000 0.300000
0.167866 0.392610 -0.100966 0.000000 1.000000 0.000000
0.147343 -0.174435 -0.309216 0.600000 0.000000 0.300000
-0.028513 0.634827 -0.339677 0.000000 1.000000 0.000000
0.056899 0.634827 -0.263034 0.000000 1.000000 0.000000
0.146580 -0.508501 -0.045174 0.600000 0.000000 0.300000
0.037086 -0.122320 0.538867 0.000000 0.500000 0.500000
0.118835 -0.398419 -0.020922 0.600000 0.000000 0.300000
-0.138670 0.261568 -0.049039 0.600000 0.000000 0.300000
-0.131033 0.120403 -0.313750 0.600000 0.000000 0.300000
0.084499 0.120430 -0.353988 0.600000 0.000000 0.300000
-0.165328 -0.679633 -0.138493 0.300000 0.000000 0.600000
0.060559 0.023524 0.128771 0.000000 0.500000 0.500000
-0.106776 -0.639132 -0.368592 0.300000 0.000000 0.600000
0.160668 0.560945 -0.062090 0.000000 1.000000 0.000000
-0.017252 0.035764 0.356966 0.000000 0.500000 0.500000
0.173103 -0.515432 -0.275440 0.600000 0.000000 0.300000
0.061970 -0.679633 -0.298638 0.300000 0.000000 0.600000
-0.163083 -0.509528 -0.083004 0.600000 0.000000 0.300000
0.129996 0.291517 -0.326414 0.600000 0.000000 0.300000
-0.103731 0.529517 -0.017978 0.000000 1.000000 0.000000
-0.042564 0.452649 -0.013065 0.000000 1.000000 0.000000
0.197270 -0.163030 -0.149434 0.600000 0.000000 0.300000
-0.045335 0.058373 0.779185 0.000000 0.500000 0.500000
-0.096480 -0.093960 0.457853 0.000000 0.500000 0.500000
-0.185390 -0.421417 -0.206917 0.600000 0.000000 0.300000
-0.143702 0.173881 -0.300611 0.600000 0.000000 0.300000
-0.040304 0.509177 0.396518 0.000000 1.000000 0.000000
0.116414 -0.003436 0.555011 0.000000 0.500000 0.500000
-0.004462 0.015079 -0.029217 0.000000 0.500000 0.500000
0.043710 -0.109626 0.776129 0.000000 0.500000 0.500000
0.055727 0.032166 0.290424 0.000000 0.500000 0.500000
0.189155 0.414857 -0.193951 0.000000 1.000000 0.000000
-0.043179 -0.124509 0.497396 0.000000 0.500000 0.500000
-0.040628 0.353593 0.009880 0.600000 0.000000 0.300000
-0.135815 -0.414937 -0.046184 0.600000 0.000000 0.300000
0.056394 -0.098546 0.982895 0.000000 0.500000 0.500000
0.104415 -0.163886 -0.344326 0.600000 0.000000 0.300000
0.103939 0.029529 0.576542 0.000000 0.500000 0.500000
0.140264 -0.197098 -0.038858 0.600000 0.000000 0.300000
-0.031899 -0.107165 0.012219 0.600000 0.000000 0.300000
0.025036 0.096708 -0.369746 0.600000 0.000000 0.300000
-0.075447 0.022735 0.990421 0.000000 0.500000 0.500000
-0.052343 -0.643453 -0.040228 0.600000 0.000000 0.300000
-0.172463 0.083997 -0.252033 0.600000 0.000000 0.300000
0.099970 -0.111486 0.546875 0.000000 0.500000 0.500000
0.120868 0.007547 -0.022346 0.600000 0.000000 0.300000
-0.088740 -0.538263 -0.008631 0.600000 0.000000 0.300000
0.122817 -0.670688 0.029973 0.300000 0.000000 0.600000
0.187028 -0.679633 -0.038113 0.300000 0.000000 0.600000
-0.005250 0.465236 0.015172 0.000000 1.000000 0.000000
0.120068 -0.001610 0.929264 0.000000 0.500000 0.500000
0.164965 0.476699 -0.173385 0.000000 1.000000 0.000000
-0.186997 -0.147389 -0.188555 0.600000 0.000000 0.300000
-0.039538 -0.150706 0.007973 0.000000 0.500000 0.500000
-0.166126 -0.364435 -0.089530 0.600000 0.000000 0.300000
-0.145986 -0.522954 -0.057803 0.600000 0.000000 0.300000
0.155625 -0.580341 -0.054751 0.600000 0.000000 0.300000
0.176948 0.567715 -0.088375 0.000000 1.000000 0.000000
0.030163 0.332885 -0.369297 0.600000 0.000000 0.300000
-0.170366 0.433705 -0.190335 0.000000 1.000000 0.000000
-0.048132 0.522694 -0.277813 0.000000 1.000000 0.000000
-0.100744 -0.130945 -0.016500 0.600000 0.000000 0.300000
0.099632 0.091013 -0.346932 0.600000 0.000000 0.300000
-0.107680 -0.639133 -0.131359 0.300000 0.000000 0.600000
0.021077 -0.679633 -0.047644 0.300000 0.000000 0.600000
0.040970 -0.653908 -0.413435 0.300000 0.000000 0.600000
-0.185722 -0.190466 -0.152020 0.600000 0.000000 0.300000
0.009122 0.375450 0.012126 0.000000 1.000000 0.000000
-0.041752 0.549180 -0.229513 0.000000 1.000000 0.000000
0.120888 -0.196450 -0.022359 0.600000 0.000000 0.300000
0.021194 -0.554945 -0.370082 0.600000 0.000000 0.300000
0.179666 -0.288371 -0.261837 0.600000 0.000000 0.300000
0.111645 0.000055 0.350759 0.000000 0.500000 0.500000
0.027080 -0.639132 -0.029596 0.300000 0.000000 0.600000
0.105764 -0.082031 0.886403 0.000000 0.500000 0.500000
0.189962 0.012079 -0.236709 0.600000 0.000000 0.300000
-0.187810 0.615123 -0.176071 0.000000 1.000000 0.000000
0.043623 -0.679633 -0.301830 0.300000 0.000000 0.600000
-0.054592 0.033954 0.323169 0.000000 0.500000 0.500000
0.083877 -0.478009 -0.354278 0.600000 0.000000 0.300000
0.176509 -0.492931 -0.086546 0.600000 0.000000 0.300000
0.055578 0.053051 0.680744 0.000000 0.500000 0.500000
0.032672 -0.006219 -0.369078 0.600000 0.000000 0.300000
-0.168763 0.127916 -0.095186 0.600000 0.000000 0.300000
0.080346 0.505672 -0.358280 0.000000 1.000000 0.000000
0.177427 -0.528348 -0.266639 0.600000 0.000000 0.300000
-0.021944 0.494978 0.325950 0.000000 1.000000 0.000000
0.157218 -0.270800 -0.057027 0.600000 0.000000 0.300000
-0.104761 0.462308 -0.018824 0.000000 1.000000 0.000000
0.133471 -0.237218 -0.032065 0.600000 0.000000 0.300000
0.171361 -0.136381 -0.077224 0.600000 0.000000 0.300000
0.060960 -0.346806 -0.362738 0.600000 0.000000 0.300000
0.145583 0.226543 -0.044177 0.600000 0.000000 0.300000
-0.123604 0.634827 -0.182810 0.000000 1.000000 0.000000
0.115798 -0.108004 -0.079428 0.000000 0.500000 0.500000
0.193903 0.413888 -0.132823 0.000000 1.000000 0.000000
0.188860 -0.297765 -0.240823 0.600000 0.000000 0.300000
-0.031655 0.061265 0.833887 0.000000 0.500000 0.500000
-0.123899 -0.153744 -0.320884 0.600000 0.000000 0.300000
0.033735 0.515098 0.571260 0.000000 1.000000 0.000000
-0.147275 0.526264 -0.060116 0.000000 1.000000 0.000000
0.159933 -0.342001 -0.060904 0.600000 0.000000 0.300000
0.110290 0.524538 -0.222486 0.000000 1.000000 0.000000
0.087515 0.504092 -0.002468 0.000000 1.000000 0.000000
-0.038037 0.035253 0.347418 0.000000 0.500000 0.500000
-0.106134 -0.069987 0.233881 0.000000 0.500000 0.500000
-0.101849 -0.679633 -0.184837 0.300000 0.000000 0.600000
-0.127135 0.375644 -0.196326 0.600000 0.000000 0.300000
0.036049 -0.080857 0.013630 0.600000 0.000000 0.300000
-0.136222 -0.063684 -0.046590 0.600000 0.000000 0.300000
-0.001072 -0.228290 -0.370812 0.600000 0.000000 0.300000
0.004932 -0.465903 0.016185 0.600000 0.000000 0.300000
-0.088036 0.614547 -0.346401 0.000000 1.000000 0.000000
0.147641 -0.679633 -0.167651 0.300000 0.000000 0.600000
0.158772 0.611484 -0.059779 0.000000 1.000000 0.000000
-0.080170 -0.404149 -0.350517 0.600000 0.000000 0.300000
0.128357 0.063423 -0.027590 0.600000 0.000000 0.300000
0.111452 0.497489 -0.015262 0.000000 1.000000 0.000000
0.115728 -0.004491 0.483790 0.000000 0.500000 0.500000
0.193271 0.078745 -0.130793 0.600000 0.000000 0.300000
-0.110583 -0.643453 -0.076607 0.600000 0.000000 0.300000
-0.098134 -0.017715 0.039972 0.000000 0.500000 0.500000
0.157907 -0.650868 0.005762 0.300000 0.000000 0.600000
0.122083 0.375644 -0.129376 0.600000 0.000000 0.300000
0.143935 -0.570353 -0.312623 0.600000 0.000000 0.300000
-0.175948 -0.586008 -0.110593 0.600000 0.000000 0.300000
-0.106079 -0.031673 0.365045 0.000000 0.500000 0.500000
-0.152401 0.634827 -0.155799 0.000000 1.000000 0.000000
-0.042408 -0.639132 -0.240374 0.300000 0.000000 0.600000
0.004580 0.044833 0.526781 0.000000 0.500000 0.500000
-0.085457 0.047122 0.741245 0.000000 0.500000 0.500000
0.149474 0.595163 -0.307033 0.000000 1.000000 0.000000
0.162905 0.498078 -0.064815 0.000000 1.000000 0.000000
-0.082643 -0.639132 -0.019851 0.300000 0.000000 0.600000
0.191978 -0.311886 -0.229185 0.600000 0.000000 0.300000
-0.083132 0.002020 0.989179 0.000000 0.500000 0.500000
-0.106592 -0.024185 0.623250 0.000000 0.500000 0.500000
0.114968 -0.643453 -0.132025 0.600000 0.000000 0.300000
0.019351 0.494978 0.066055 0.000000 1.000000 0.000000
-0.013599 -0.458496 -0.369716 0.600000 0.000000 0.300000
-0.045326 0.529052 0.160088 0.000000 1.000000 0.000000
0.035974 -0.127137 0.448753 0.000000 0.500000 0.500000
0.102539 -0.115859 0.372205 0.000000 0.500000 0.500000
0.195349 -0.587775 -0.138544 0.600000 0.000000 0.300000
0.172140 0.301809 -0.078338 0.600000 0.000000 0.300000
0.089856 -0.074805 -0.003660 0.600000 0.000000 0.300000
0.120717 -0.061832 -0.045862 0.000000 0.500000 0.500000
-0.176965 0.634827 -0.189887 0.000000 1.000000 0.000000
0.172142 0.034409 -0.276812 0.600000 0.000000 0.300000
-0.081646 0.049596 0.987479 0.000000 0.500000 0.500000
0.014312 0.056507 0.745570 0.000000 0.500000 0.500000
-0.129737 -0.512188 -0.315046 0.600000 0.000000 0.300000
-0.104807 -0.087155 0.084604 0.000000 0.500000 0.500000
0.162633 0.463401 -0.230276 0.000000 1.000000 0.000000
0.161617 -0.474054 -0.291843 0.600000 0.000000 0.300000
-0.041363 0.053613 0.690183 0.000000 0.500000 0.500000
-0.101710 -0.066851 0.696114 0.000000 0.500000 0.500000
-0.100464 -0.112901 -0.070631 0.000000 0.500000 0.500000
-0.034645 0.052141 0.662716 0.000000 0.500000 0.500000
0.116142 -0.087484 0.277269 0.000000 0.500000 0.500000
0.199376 0.595348 -0.173957 0.000000 1.000000 0.000000
-0.177643 0.189032 -0.238739 0.600000 0.000000 0.300000
0.066286 0.552274 -0.192471 0.000000 1.000000 0.000000
-0.137322 0.466022 -0.099083 0.000000 1.000000 0.000000
0.116590 0.481617 -0.066560 0.000000 1.000000 0.000000
0.154898 -0.679633 -0.147320 0.300000 0.000000 0.600000
0.159513 0.493699 -0.295550 0.000000 1.000000 0.000000
-0.185758 0.024028 -0.202718 0.600000 0.000000 0.300000
0.072189 -0.016166 -0.359729 0.600000 0.000000 0.300000
0.072157 0.326539 0.004587 0.600000 0.000000 0.300000
-0.019349 0.560820 -0.184765 0.000000 1.000000 0.000000
-0.076892 -0.111081 0.743856 0.000000 0.500000 0.500000
0.104389 0.172704 -0.010807 0.600000 0.000000 0.300000
-0.095560 0.375644 -0.152993 0.600000 0.000000 0.300000
0.145907 0.634827 -0.066235 0.000000 1.000000 0.000000
-0.022703 0.437122 -0.001844 0.000000 1.000000 0.000000
0.019896 0.375644 -0.104511 0.600000 0.000000 0.300000
0.069502 -0.119154 0.597659 0.000000 0.500000 0.500000
-0.051541 0.326777 -0.362107 0.600000 0.000000 0.300000
0.095579 0.375644 -0.115656 0.600000 0.000000 0.300000
0.176172 -0.190478 -0.085822 0.600000 0.000000 0.300000
0.015425 0.020710 0.075926 0.000000 0.500000 0.500000
-0.175127 -0.647119 -0.022726 0.300000 0.000000 0.600000
-0.135800 -0.187466 -0.308983 0.600000 0.000000 0.300000
-0.025404 0.014806 0.999378 0.000000 0.500000 0.500000
-0.082451 0.491752 -0.351280 0.000000 1.000000 0.000000
-0.160606 -0.639133 -0.153683 0.300000 0.000000 0.600000
0.028965 -0.093404 0.905840 0.300000 0.600000 0.000000
0.098125 0.509147 -0.080948 0.000000 1.000000 0.000000
0.174647 -0.376783 -0.272601 0.600000 0.000000 0.300000
-0.100997 0.016332 0.815507 0.000000 0.500000 0.500000
0.088069 0.354307 -0.352324 0.600000 0.000000 0.300000
-0.048447 -0.643453 -0.350451 0.600000 0.000000 0.300000
0.136144 -0.571319 -0.034737 0.600000 0.000000 0.300000
0.149111 0.282313 -0.047705 0.600000 0.000000 0.300000
0.058231 0.519927 -0.039794 0.000000 1.000000 0.000000
0.022749 0.556297 -0.222165 0.000000 1.000000 0.000000
-0.104590 -0.062997 0.551255 0.000000 0.500000 0.500000
-0.073965 0.280021 -0.353410 0.600000 0.000000 0.300000
0.120739 -0.046963 0.236261 0.000000 0.500000 0.500000
-0.173745 0.456220 -0.105183 0.000000 1.000000 0.000000
0.135908 -0.473444 -0.034501 0.600000 0.000000 0.300000
-0.184417 0.461231 -0.217873 0.000000 1.000000 0.000000
0.018788 -0.241635 -0.370292 0.600000 0.000000 0.300000
-0.091403 -0.077654 0.982551 0.000000 0.500000 0.500000
0.080898 -0.679633 -0.249676 0.300000 0.000000 0.600000
0.035554 0.025537 -0.368825 0.600000 0.000000 0.300000
-0.171838 0.351771 -0.101780 0.600000 0.000000 0.300000
-0.101993 0.375644 -0.114883 0.600000 0.000000 0.300000
0.041030 -0.154696 -0.066561 0.000000 0.500000 0.500000
0.126904 0.375644 -0.145152 0.600000 0.000000 0.300000
0.028564 -0.155987 0.014285 0.600000 0.000000 0.300000
0.063783 -0.092341 0.930222 0.300000 0.600000 0.000000
0.024513 0.634827 -0.050204 0.000000 1.000000 0.000000
0.098966 -0.108437 0.640179 0.000000 0.500000 0.500000
-0.150205 0.221699 -0.291324 0.600000 0.000000 0.300000
-0.151310 0.461916 -0.126677 0.000000 1.000000 0.000000
-0.099955 0.016038 0.749437 0.000000 0.500000 0.500000
0.008275 0.494978 0.501458 0.000000 1.000000 0.000000
0.199232 -0.254153 -0.171864 0.600000 0.000000 0.300000
-0.078710 -0.150257 0.010666 0.000000 0.500000 0.500000
0.073531 -0.078800 0.999013 0.000000 0.500000 0.500000
0.018677 0.572430 0.483889 0.000000 1.000000 0.000000
-0.044429 -0.111735 0.878215 0.300000 0.600000 0.000000
0.150875 0.057623 -0.049469 0.600000 0.000000 0.300000
0.225955 -0.679633 -0.225192 0.300000 0.000000 0.600000
0.030266 0.235125 -0.369288 0.600000 0.000000 0.300000
-0.187675 0.510949 -0.174703 0.000000 1.000000 0.000000
-0.086196 0.056677 0.946701 0.000000 0.500000 0.500000
-0.077830 0.060433 0.820491 0.000000 0.500000 0.500000
0.170457 0.393411 -0.264724 0.000000 1.000000 0.000000
0.011262 0.525504 -0.288374 0.000000 1.000000 0.000000
0.118232 -0.679633 0.020292 0.300000 0.000000 0.600000
-0.039941 -0.679633 -0.250260 0.300000 0.000000 0.600000
0.115971 -0.375478 -0.336235 0.600000 0.000000 0.300000
-0.186161 -0.560926 -0.198110 0.600000 0.000000 0.300000
0.096148 -0.230170 -0.006594 0.600000 0.000000 0.300000
0.140441 0.455764 -0.038444 0.000000 1.000000 0.000000
-0.103190 0.082248 -0.336940 0.600000 0.000000 0.300000
-0.084216 0.634827 -0.299212 0.000000 1.000000 0.000000
