ply
format ascii 1.0
element vertex 1264
property float x
property float y
property float z
property uchar red
property uchar green
property uchar blue
end_header
0.462834 -0.222943 -0.089215 153 0 76
-0.543517 -0.121849 0.325744 153 0 76
-0.470973 -0.121849 -0.116886 0 127 127
-0.270035 0.356846 -0.402657 76 0 153
-0.466858 -0.131959 -0.060336 0 127 127
-0.450462 -0.222943 0.568166 153 0 76
-0.154579 -0.007340 -0.259656 153 76 0
0.565687 -0.121849 0.663422 153 0 76
-0.467849 0.626788 -0.429867 76 0 153
-0.037083 -0.121849 0.326001 153 0 76
0.367002 -0.121849 0.371247 153 0 76
-0.540206 -0.057417 -0.291630 76 0 153
0.385255 -0.222943 0.139675 153 0 76
-0.293840 -0.222943 0.271926 153 0 76
0.581875 -0.207206 0.249600 153 0 76
0.581875 -0.151827 0.060396 153 0 76
0.483783 -0.121849 0.182177 0 127 127
0.549572 -0.157349 0.309809 153 0 76
-0.530152 -0.179498 0.005815 153 0 76
-0.013756 0.631656 -0.476334 76 0 153
0.282569 -0.222943 -0.194446 153 0 76
-0.145521 -0.222943 0.081528 153 0 76
-0.570590 -0.196939 0.342972 153 0 76
0.572337 0.029681 -0.303725 76 0 153
0.384465 -0.125962 -0.007555 0 127 127
-0.510686 -0.222943 0.363873 153 0 76
0.356469 -0.131959 0.186826 153 0 76
-0.538889 -0.222943 0.462790 153 0 76
-0.008249 0.678534 -0.443924 76 0 153
0.579709 -0.222943 0.424416 153 0 76
-0.032336 -0.222943 -0.187974 153 0 76
0.137206 0.409547 -0.371425 153 76 0
0.250214 -0.016308 -0.258294 153 76 0
0.021759 -0.155480 -0.219957 76 0 153
-0.582788 -0.107043 -0.261126 76 0 153
-0.391917 -0.222943 0.565190 153 0 76
0.103909 -0.222943 -0.132455 153 0 76
0.338414 -0.162817 -0.263409 76 0 153
0.374843 -0.222943 0.430240 153 0 76
-0.149103 -0.222943 0.219303 153 0 76
-0.349124 0.040113 -0.272370 153 76 0
-0.144141 0.687579 -0.491275 76 0 153
0.510843 0.486613 -0.437449 76 0 153
0.389629 0.131678 -0.297937 153 76 0
-0.164514 -0.136326 -0.186309 127 0 127
-0.052221 -0.222943 0.707638 153 0 76
0.297347 -0.131959 0.175364 153 0 76
-0.312052 -0.121849 -0.202439 153 0 76
0.242414 -0.222943 0.399930 153 0 76
-0.540204 -0.121849 0.609251 153 0 76
0.579971 -0.194314 -0.194131 153 0 76
-0.028532 -0.222943 0.336120 153 0 76
0.169771 -0.222943 0.340787 153 0 76
0.006975 -0.222943 0.418627 153 0 76
0.417729 -0.222943 0.416809 153 0 76
-0.449696 0.677168 -0.488511 76 0 153
0.319508 0.571949 -0.460293 76 0 153
-0.108704 0.289638 -0.384623 76 0 153
0.070736 -0.121849 0.568883 153 0 76
-0.019883 -0.222943 0.236291 153 0 76
0.486839 0.270114 -0.379403 76 0 153
-0.225367 0.205951 -0.317839 153 76 0
-0.165224 -0.222943 0.103133 153 0 76
0.198376 -0.131959 0.260989 0 127 127
0.452152 -0.222943 -0.191828 153 0 76
-0.040239 -0.121849 0.691627 153 0 76
-0.218302 -0.222943 -0.134903 153 0 76
0.217093 -0.222943 0.302292 153 0 76
0.075438 -0.222943 0.373159 153 0 76
0.173745 -0.222943 -0.033245 153 0 76
-0.312332 0.716107 -0.496621 76 0 153
-0.518386 -0.222943 0.615586 153 0 76
-0.451341 -0.168888 -0.216790 76 0 153
0.119491 0.134310 -0.343058 76 0 153
0.355098 -0.131959 0.105390 153 0 76
0.295281 -0.121849 -0.202072 153 0 76
-0.473829 0.202000 -0.315969 153 76 0
-0.228859 -0.222943 0.011462 153 0 76
-0.165576 0.091422 -0.286068 153 76 0
0.334497 0.206160 -0.362322 76 0 153
0.266749 -0.121849 0.384731 153 0 76
-0.053200 -0.131959 0.229721 153 0 76
0.105753 -0.131959 0.013441 0 127 127
0.069839 -0.121849 0.691292 153 0 76
0.109377 0.162495 -0.306188 153 76 0
-0.087181 -0.121849 -0.171189 153 0 76
0.018773 0.706498 -0.496278 76 0 153
0.070284 0.116051 -0.338174 76 0 153
0.524960 -0.222943 0.666946 153 0 76
-0.179106 -0.121849 0.682821 153 0 76
0.535351 -0.180477 -0.217195 153 0 76
0.420282 -0.222943 0.096585 153 0 76
-0.054676 -0.121849 0.074178 0 127 127
0.179203 -0.131959 -0.116729 153 0 76
-0.125686 -0.222943 0.120242 153 0 76
0.251359 0.691547 -0.446919 76 0 153
-0.307366 0.283309 -0.382927 76 0 153
-0.185564 -0.096047 -0.236584 76 0 153
0.581875 -0.130465 0.402977 153 0 76
-0.520694 0.176698 -0.308967 153 76 0
-0.345340 0.071394 -0.326205 76 0 153
0.581875 -0.135788 0.269481 153 0 76
0.465396 0.091932 -0.331648 76 0 153
-0.475179 0.721261 -0.481019 76 0 153
0.315558 -0.222943 -0.025682 153 0 76
0.579564 -0.167225 -0.053564 153 0 76
-0.031677 -0.131959 -0.028029 153 0 76
0.047600 0.441841 -0.380001 153 76 0
0.029523 -0.222943 -0.065083 153 0 76
-0.323460 0.320356 -0.392905 76 0 153
-0.204678 -0.222943 0.710782 153 0 76
-0.478340 -0.121849 0.314918 153 0 76
-0.447654 -0.222943 -0.145583 153 0 76
0.246723 -0.131767 0.058413 0 127 127
-0.017745 0.576434 -0.461522 76 0 153
0.264954 0.039056 -0.273121 153 76 0
0.120824 -0.222943 0.196510 153 0 76
0.558335 0.519591 -0.401166 76 0 153
0.461077 0.345681 -0.399704 76 0 153
0.409310 0.714172 -0.497109 76 0 153
0.111701 -0.089195 -0.238439 76 0 153
-0.570590 -0.151494 0.408339 153 0 76
-0.338188 -0.121849 -0.157946 153 0 76
0.407764 0.176764 -0.354391 76 0 153
0.170010 0.669539 -0.486418 76 0 153
0.424061 0.290640 -0.384897 76 0 153
-0.457815 -0.121849 0.473370 153 0 76
-0.279088 -0.131959 -0.047590 0 127 127
0.278145 -0.222943 0.109546 153 0 76
-0.512579 -0.121849 -0.158596 153 0 76
-0.043652 -0.222943 -0.212268 153 0 76
0.390734 -0.142087 -0.268943 76 0 153
0.342779 -0.191943 0.712864 153 0 76
-0.133720 0.310146 -0.390179 76 0 153
-0.570590 -0.142315 -0.010533 153 0 76
-0.200381 -0.131959 0.134176 153 0 76
0.048926 -0.131959 0.220329 0 127 127
0.102035 0.573636 -0.460755 76 0 153
0.531254 -0.121849 0.097507 0 127 127
-0.224752 0.266764 -0.334143 153 76 0
-0.546781 0.121952 -0.294978 76 0 153
-0.185685 0.644254 -0.479691 76 0 153
0.184841 -0.021404 -0.256782 153 76 0
-0.086169 -0.222943 0.538801 153 0 76
-0.332718 0.550530 -0.454546 76 0 153
-0.361735 -0.121849 0.638429 153 0 76
-0.183441 0.044397 -0.273506 153 76 0
-0.318685 -0.222943 0.660815 153 0 76
-0.264429 -0.121849 0.211780 0 127 127
-0.071942 0.095672 -0.332650 76 0 153
0.581875 -0.204912 0.197542 153 0 76
0.300112 -0.222943 0.585016 153 0 76
-0.482100 0.517890 -0.400844 153 76 0
-0.026659 -0.148875 -0.176758 153 0 76
0.157718 -0.123465 -0.229398 76 0 153
-0.139568 -0.149692 -0.266906 76 0 153
0.351387 0.374572 -0.407381 76 0 153
-0.249172 -0.121849 -0.137052 153 0 76
0.533791 -0.121849 0.009222 0 127 127
-0.273583 -0.121849 0.160533 0 127 127
0.086826 -0.222943 0.185956 153 0 76
0.395620 0.029422 -0.314908 76 0 153
0.540930 -0.222943 0.328142 153 0 76
0.383539 0.416444 -0.418602 76 0 153
-0.034657 -0.121849 0.506643 153 0 76
-0.486338 -0.121849 0.626988 153 0 76
-0.512715 -0.121849 0.595419 153 0 76
-0.522908 -0.064671 -0.244534 76 0 153
0.446215 0.480325 -0.391112 153 76 0
-0.452815 -0.222943 0.625435 153 0 76
0.323529 0.033279 -0.271572 153 76 0
-0.176555 -0.222943 0.054690 153 0 76
-0.210815 -0.222943 0.230735 153 0 76
-0.032675 -0.222943 -0.119122 153 0 76
0.050267 -0.105679 -0.234324 76 0 153
0.197176 0.023800 -0.313434 76 0 153
0.146286 0.596360 -0.421415 153 76 0
-0.173828 0.485462 -0.392683 153 76 0
0.242928 -0.222943 -0.082915 153 0 76
0.146893 0.178827 -0.354944 76 0 153
-0.020219 0.340624 -0.353843 153 76 0
0.040680 -0.121849 0.647095 153 0 76
0.124937 -0.131959 0.110430 153 0 76
-0.313411 0.280139 -0.337678 153 76 0
-0.047286 -0.166686 0.712864 153 0 76
-0.217389 -0.222943 0.082269 153 0 76
-0.014158 0.234543 -0.376185 0 0 255
0.129074 -0.169610 -0.206796 127 0 127
0.247272 -0.222943 0.663558 153 0 76
0.152680 -0.121849 -0.110304 0 127 127
0.519203 -0.222943 -0.017608 153 0 76
-0.403207 -0.158346 0.712864 153 0 76
0.181929 0.114491 -0.293332 153 76 0
0.289563 0.576474 -0.461533 76 0 153
-0.316579 -0.121849 0.519719 153 0 76
-0.176732 0.516008 -0.445279 76 0 153
0.468963 -0.222943 0.452635 153 0 76
-0.251361 -0.086827 -0.239334 76 0 153
-0.582774 0.468853 -0.402866 76 0 153
-0.515806 -0.131959 0.238930 153 0 76
0.565095 0.652405 -0.480238 76 0 153
0.246347 0.091785 -0.331609 76 0 153
0.393462 -0.222943 0.224064 153 0 76
-0.004786 -0.115243 -0.276175 76 0 153
-0.041817 0.257622 -0.382369 0 0 255
-0.404435 -0.222943 0.408915 153 0 76
0.474223 -0.131959 -0.110636 0 127 127
-0.058923 -0.131959 -0.124806 153 0 76
-0.099203 -0.145725 -0.203409 127 0 127
-0.242230 0.634942 -0.432506 76 0 153
0.319331 0.312135 -0.346290 153 76 0
0.084785 0.712496 -0.452491 76 0 153
0.362193 -0.131959 0.252351 153 0 76
-0.440475 -0.121849 0.652202 153 0 76
-0.232548 -0.222943 0.319264 153 0 76
-0.422976 -0.180781 -0.241711 76 0 153
0.455585 -0.121849 0.534861 153 0 76
0.249690 -0.222943 0.130362 153 0 76
0.561640 -0.222943 0.190786 153 0 76
-0.467972 -0.113008 -0.276761 76 0 153
0.360223 0.200253 -0.360740 76 0 153
0.581875 -0.191393 0.292333 153 0 76
0.405908 0.204002 -0.361744 76 0 153
-0.317498 -0.008483 -0.304754 76 0 153
-0.390276 0.247232 -0.373319 76 0 153
-0.410184 -0.222943 -0.104175 153 0 76
0.340748 -0.131959 0.008101 0 127 127
0.209406 0.183190 -0.356113 76 0 153
0.470174 0.244847 -0.327359 76 0 153
0.040618 -0.121849 0.478679 153 0 76
-0.477942 -0.222943 0.540954 153 0 76
-0.188537 0.544605 -0.452987 76 0 153
-0.138172 0.117976 -0.293231 153 76 0
0.071820 0.322677 -0.349111 153 76 0
-0.107569 -0.222943 0.187140 153 0 76
0.346267 -0.222943 0.061840 153 0 76
0.416917 -0.211112 -0.217195 153 0 76
-0.257819 0.304614 -0.344276 153 76 0
-0.245838 -0.131959 -0.009382 0 127 127
0.510328 -0.131959 0.239784 0 127 127
-0.214963 0.041748 -0.272808 153 76 0
-0.364883 0.247274 -0.328880 153 76 0
-0.040458 -0.172396 -0.188928 153 0 76
-0.465053 -0.222943 0.400097 153 0 76
-0.325644 0.157325 -0.304772 153 76 0
-0.205902 -0.222943 0.197527 153 0 76
0.581875 -0.181933 0.343128 153 0 76
-0.085305 -0.222943 -0.117736 153 0 76
0.432223 -0.222943 0.567972 153 0 76
0.171604 -0.222943 0.487659 153 0 76
0.572442 0.417098 -0.394181 76 0 153
-0.500347 0.353765 -0.356644 153 76 0
-0.504909 -0.222943 0.302623 153 0 76
-0.327127 -0.222943 -0.035010 153 0 76
-0.499534 0.264123 -0.377832 76 0 153
0.110809 0.355557 -0.402320 76 0 153
-0.412907 0.706668 -0.451085 76 0 153
-0.201168 -0.121849 0.637444 153 0 76
0.378897 -0.098415 -0.236233 76 0 153
0.336583 -0.183778 -0.217195 153 0 76
0.532687 -0.222943 0.369062 153 0 76
0.465052 -0.198135 0.712864 153 0 76
0.250684 -0.121849 0.122694 0 127 127
-0.166322 -0.222943 0.405074 153 0 76
0.381968 -0.121849 0.544719 153 0 76
-0.286965 -0.222943 0.500325 153 0 76
0.368162 0.017893 -0.267413 153 76 0
-0.060645 -0.131959 0.006542 153 0 76
0.200376 -0.222943 0.012311 153 0 76
-0.523680 0.312693 -0.390859 76 0 153
0.476470 -0.121849 0.701590 153 0 76
0.581875 -0.140155 0.601342 153 0 76
0.066706 -0.117806 0.630367 76 0 153
0.133050 -0.147813 -0.223782 127 0 127
0.085077 -0.222943 -0.093771 153 0 76
0.195753 -0.222943 0.345654 153 0 76
0.234986 -0.121849 0.417860 153 0 76
0.209017 -0.172396 -0.186529 153 0 76
-0.538910 -0.188134 -0.077159 153 0 76
-0.177729 0.330358 -0.351133 153 76 0
0.497891 -0.197060 -0.217195 153 0 76
0.381273 -0.131959 0.138146 0 127 127
-0.114360 -0.222943 0.454726 153 0 76
-0.289795 -0.222943 0.140102 153 0 76
-0.040382 -0.121849 0.402335 153 0 76
-0.239847 -0.121849 0.586475 153 0 76
-0.105011 -0.121849 0.691148 153 0 76
-0.467151 -0.204932 -0.217195 153 0 76
-0.567604 -0.121849 0.169353 153 0 76
-0.335307 -0.121849 0.164470 0 127 127
0.397714 0.624464 -0.474373 76 0 153
0.346488 0.606552 -0.469542 76 0 153
-0.368733 0.171481 -0.308603 153 76 0
-0.062820 0.589615 -0.420642 153 76 0
-0.433867 -0.222943 0.431621 153 0 76
0.172095 0.456540 -0.429377 76 0 153
-0.119343 0.411471 -0.372907 153 76 0
-0.463184 -0.121849 0.552620 153 0 76
0.097978 -0.117806 0.655800 76 0 153
0.373627 -0.123492 0.219528 0 127 127
0.163976 -0.222943 -0.148622 153 0 76
0.408741 -0.131959 0.063258 153 0 76
-0.244477 -0.084778 -0.284343 76 0 153
0.328589 0.722582 -0.455884 76 0 153
-0.389397 -0.222943 0.210525 153 0 76
-0.228616 0.127314 -0.341185 76 0 153
-0.225385 -0.222943 -0.191690 153 0 76
0.197912 -0.222943 -0.090063 153 0 76
-0.008939 -0.035699 -0.297483 76 0 153
0.289843 0.071757 -0.281882 153 76 0
-0.221220 -0.057421 -0.247261 76 0 153
-0.339282 -0.121849 0.478979 153 0 76
-0.469276 0.588890 -0.419924 153 76 0
0.028539 -0.222943 0.651017 153 0 76
0.121948 -0.222943 0.534516 153 0 76
0.116026 -0.193582 0.712864 153 0 76
-0.124674 0.572681 -0.416055 153 76 0
0.297415 0.203508 -0.361612 76 0 153
-0.062086 -0.222943 0.356344 153 0 76
-0.237090 -0.121849 -0.199668 153 0 76
-0.200011 -0.121849 0.386585 153 0 76
-0.223695 -0.121849 0.477800 153 0 76
0.361311 0.560373 -0.457178 76 0 153
-0.126224 -0.131959 -0.061953 153 0 76
-0.208101 0.420132 -0.419590 76 0 153
-0.229954 -0.222943 0.684778 153 0 76
-0.378226 0.579913 -0.418024 153 76 0
0.185775 -0.121849 0.678876 153 0 76
-0.248251 0.250087 -0.374094 76 0 153
-0.165422 -0.121849 0.428203 153 0 76
-0.479785 -0.121849 0.687993 153 0 76
-0.157757 0.705465 -0.450979 76 0 153
0.096353 -0.222943 0.482537 153 0 76
-0.294980 -0.131959 0.114597 153 0 76
-0.465312 -0.131959 0.028298 153 0 76
-0.037159 0.190633 -0.312657 153 76 0
-0.234233 -0.222943 0.137799 153 0 76
-0.303528 -0.222943 0.473982 153 0 76
-0.174251 -0.222943 0.333871 153 0 76
-0.540262 -0.125810 0.009070 153 0 76
-0.033834 0.488351 -0.393475 153 76 0
0.064056 -0.079199 -0.285861 76 0 153
-0.005501 -0.015999 -0.257921 153 76 0
-0.408273 -0.222943 0.611140 153 0 76
0.531052 -0.222943 0.220933 153 0 76
0.229646 -0.222943 0.179365 153 0 76
0.325230 0.146377 -0.346296 76 0 153
-0.582889 -0.075685 -0.266400 76 0 153
-0.341315 0.428365 -0.377381 153 76 0
0.390684 0.287146 -0.383955 76 0 153
0.333834 -0.121849 0.201343 0 127 127
-0.407846 -0.222943 0.068735 153 0 76
0.427693 -0.222943 0.468454 153 0 76
-0.074214 -0.073501 -0.287387 76 0 153
0.336196 -0.222943 -0.203392 153 0 76
-0.075107 -0.222943 -0.007462 153 0 76
0.514922 -0.121849 0.347013 153 0 76
0.136586 -0.117806 0.620915 76 0 153
-0.026247 -0.117806 0.662830 76 0 153
0.457293 -0.222943 0.254556 153 0 76
0.268576 -0.222943 0.324344 153 0 76
0.237114 -0.121849 -0.202031 153 0 76
0.380173 -0.020102 -0.301646 76 0 153
-0.078246 -0.117806 0.554655 76 0 153
0.392151 0.138239 -0.344111 76 0 153
-0.570590 -0.143928 0.446499 153 0 76
-0.191339 -0.121849 0.108830 0 127 127
-0.247378 -0.222943 0.425788 153 0 76
0.547901 -0.144959 0.713135 153 0 76
-0.570590 -0.190623 0.108891 153 0 76
-0.144264 -0.222943 -0.007448 153 0 76
0.420180 -0.081536 -0.285234 76 0 153
-0.100122 0.470325 -0.433037 76 0 153
-0.190600 0.179875 -0.309987 153 76 0
0.214060 -0.024736 -0.300425 76 0 153
-0.357364 -0.222943 -0.188480 153 0 76
0.376737 0.696854 -0.448342 76 0 153
-0.145402 -0.131959 -0.092391 153 0 76
-0.134752 0.008641 -0.263879 153 76 0
-0.064039 -0.131959 -0.047361 0 127 127
-0.454206 -0.121849 0.602782 153 0 76
-0.555543 -0.165899 0.061797 153 0 76
-0.094373 -0.222943 -0.059721 153 0 76
0.175239 0.142924 -0.300898 153 76 0
0.006203 -0.131959 -0.008541 153 0 76
0.436607 -0.131959 0.100599 153 0 76
0.199519 -0.222943 0.134698 153 0 76
0.006416 0.214422 -0.319883 153 76 0
-0.371830 -0.222943 0.364416 153 0 76
-0.496883 -0.222943 -0.106433 153 0 76
-0.282550 -0.222943 -0.203005 153 0 76
-0.240731 -0.131959 0.112592 153 0 76
0.271148 -0.222943 0.411285 153 0 76
-0.576470 0.337515 -0.396952 76 0 153
-0.547852 -0.172762 0.672427 153 0 76
-0.335087 -0.222943 0.358387 153 0 76
0.338729 -0.000936 -0.306781 76 0 153
0.321586 -0.131959 0.071651 0 127 127
-0.485109 0.347261 -0.400129 76 0 153
0.457589 -0.121849 0.054987 0 127 127
-0.422394 -0.071867 -0.243398 76 0 153
0.403203 -0.222943 0.556658 153 0 76
0.000296 0.058537 -0.322767 76 0 153
-0.006172 0.448154 -0.382271 153 76 0
-0.063147 0.441059 -0.425264 76 0 153
0.518875 -0.115227 -0.276179 76 0 153
-0.567262 -0.121849 -0.149839 153 0 76
-0.534396 -0.222943 -0.072857 153 0 76
-0.414068 -0.131959 -0.127526 153 0 76
0.012494 -0.121849 0.466511 153 0 76
-0.008243 -0.222943 -0.002662 153 0 76
-0.468422 -0.222943 -0.162297 153 0 76
0.021614 0.190432 -0.313640 153 76 0
-0.076216 -0.211708 0.712864 153 0 76
0.581875 -0.172465 0.232443 153 0 76
0.212748 -0.121849 0.557216 153 0 76
-0.570590 -0.140452 0.302022 153 0 76
0.580178 -0.222943 0.092012 153 0 76
-0.139172 -0.222943 0.526224 153 0 76
0.411819 -0.222943 0.069340 153 0 76
0.560680 -0.222943 0.536076 153 0 76
0.306992 -0.146621 0.712864 153 0 76
-0.214934 -0.121849 0.712629 153 0 76
-0.362145 0.110569 -0.336708 76 0 153
-0.002531 -0.175018 -0.217195 153 0 76
-0.115113 0.359309 -0.403303 76 0 153
0.501295 0.597377 -0.467110 76 0 153
0.175250 -0.170422 0.712864 153 0 76
0.126223 -0.131959 0.059869 0 127 127
-0.371759 0.296676 -0.342108 153 76 0
-0.282153 0.718532 -0.454746 76 0 153
0.361710 0.322991 -0.349194 153 76 0
-0.200997 -0.222943 0.301601 153 0 76
0.087156 -0.172396 -0.178269 153 0 76
-0.285909 -0.174818 -0.217195 153 0 76
0.195987 -0.121849 0.377896 153 0 76
-0.098799 -0.222943 0.022917 153 0 76
-0.068882 -0.180123 -0.257274 76 0 153
0.512920 -0.072089 -0.242933 76 0 153
0.581875 -0.142285 0.310257 153 0 76
0.050403 -0.222943 0.044664 153 0 76
-0.448236 0.638423 -0.478147 76 0 153
-0.157273 -0.222943 0.154433 153 0 76
-0.407050 -0.222943 -0.133479 153 0 76
0.197348 0.200047 -0.316244 153 76 0
0.572990 0.180295 -0.335716 76 0 153
0.039384 -0.131555 -0.088430 0 127 127
0.073251 -0.222943 0.082543 153 0 76
-0.010765 -0.222943 0.473584 153 0 76
0.421926 -0.121849 0.538223 153 0 76
-0.378952 -0.222943 0.240440 153 0 76
0.077210 -0.121849 -0.117685 0 127 127
0.450934 -0.064840 -0.289680 76 0 153
-0.489385 -0.220657 -0.217195 153 0 76
-0.233210 0.559819 -0.412668 153 76 0
-0.452085 -0.131959 0.079254 153 0 76
-0.463761 0.126332 -0.340923 76 0 153
0.164173 -0.126357 0.082650 0 127 127
0.379505 0.604913 -0.469102 76 0 153
0.304216 0.518048 -0.445826 76 0 153
0.230334 0.434126 -0.378925 153 76 0
0.555699 -0.171610 -0.233738 76 0 153
-0.171907 -0.121849 0.270925 0 127 127
-0.115251 -0.141006 -0.224365 76 0 153
-0.550425 -0.192241 -0.050895 153 0 76
-0.209641 -0.222943 0.474343 153 0 76
-0.008188 -0.131959 0.054347 153 0 76
-0.284933 0.614215 -0.426837 153 76 0
-0.551270 -0.184959 0.186997 153 0 76
0.086562 0.121040 -0.295087 153 76 0
0.083178 -0.222943 -0.187465 153 0 76
0.460062 -0.131959 -0.075786 153 0 76
0.336262 -0.222943 -0.111105 153 0 76
0.062759 0.178473 -0.310480 153 76 0
0.284894 -0.121849 0.598265 153 0 76
-0.278898 0.693064 -0.492723 76 0 153
-0.034331 0.446640 -0.382332 153 76 0
0.581875 -0.192302 0.579874 153 0 76
-0.110476 0.137594 -0.343938 76 0 153
-0.023678 -0.222943 0.195380 153 0 76
-0.039672 0.018825 -0.266630 153 76 0
0.208657 0.505667 -0.442508 76 0 153
-0.225800 -0.121849 0.651006 153 0 76
-0.549160 0.029836 -0.315016 76 0 153
-0.550084 0.213446 -0.364254 76 0 153
0.114800 0.390993 -0.411849 76 0 153
0.125736 -0.121849 0.433622 153 0 76
0.014320 -0.222943 0.554153 153 0 76
-0.464108 -0.058239 -0.291411 76 0 153
-0.135985 -0.121849 0.590307 153 0 76
0.436612 -0.131959 0.306010 153 0 76
0.359878 -0.134526 -0.217195 153 0 76
0.479379 0.661141 -0.438731 76 0 153
0.075995 -0.131959 0.035056 153 0 76
0.183919 -0.121849 0.522608 153 0 76
0.029628 -0.117806 0.586103 76 0 153
0.356982 -0.222943 0.556402 153 0 76
-0.104384 -0.121849 0.052843 0 127 127
0.482403 -0.222943 0.223418 153 0 76
0.195602 0.057673 -0.278077 153 76 0
0.262570 0.453943 -0.384291 153 76 0
0.129543 -0.222943 -0.013749 153 0 76
-0.545238 -0.121849 0.675159 153 0 76
-0.161020 -0.222943 0.431911 153 0 76
0.284428 -0.131959 -0.025367 0 127 127
-0.570590 -0.191035 0.374036 153 0 76
0.130007 0.527618 -0.402940 153 76 0
-0.202644 -0.127815 -0.199857 127 0 127
-0.083176 0.464175 -0.387019 153 76 0
0.581875 -0.205742 -0.093930 153 0 76
0.254951 0.354049 -0.401924 76 0 153
-0.195312 -0.222943 0.620891 153 0 76
0.574635 -0.222943 0.377370 153 0 76
0.000836 -0.121849 0.196859 0 127 127
0.581875 -0.207700 0.312011 153 0 76
0.194670 0.312539 -0.390818 76 0 153
-0.156995 -0.183049 0.712864 153 0 76
0.074577 -0.152432 -0.220945 76 0 153
0.581875 -0.132029 0.191678 153 0 76
-0.454460 -0.148611 0.712864 153 0 76
-0.511998 -0.131959 0.145841 153 0 76
-0.496846 -0.121849 0.424605 153 0 76
0.411900 -0.121849 0.343722 153 0 76
0.270117 0.637812 -0.432877 76 0 153
-0.137209 0.422473 -0.420218 76 0 153
-0.369775 -0.131959 0.113859 153 0 76
-0.445979 -0.126152 -0.022462 0 127 127
-0.574248 0.667744 -0.485592 76 0 153
-0.075080 -0.121849 0.322141 153 0 76
0.163646 -0.103950 -0.279163 76 0 153
0.279897 0.250327 -0.374158 76 0 153
0.389016 -0.121849 0.082426 0 127 127
0.352060 -0.222943 0.304455 153 0 76
0.133401 -0.222943 0.656751 153 0 76
0.438755 0.452484 -0.428313 76 0 153
0.468764 -0.121849 0.344316 153 0 76
0.564176 -0.121849 0.343027 153 0 76
0.427594 0.538125 -0.406810 153 76 0
0.528846 0.196877 -0.359828 76 0 153
-0.241404 0.414567 -0.418099 76 0 153
-0.570590 -0.148175 -0.143564 153 0 76
-0.535626 0.588015 -0.464640 76 0 153
-0.563925 -0.112743 -0.276824 76 0 153
0.572332 0.619925 -0.449677 76 0 153
-0.538345 -0.161733 0.712979 153 0 76
0.011910 -0.127500 -0.203545 127 0 127
0.138936 0.551411 -0.409377 153 76 0
0.565452 -0.194968 0.707655 153 0 76
0.507459 0.638663 -0.478211 76 0 153
0.572587 0.081634 -0.313422 76 0 153
-0.194324 -0.187323 0.712864 153 0 76
0.446355 -0.121849 0.629530 153 0 76
0.576720 -0.121849 0.556037 153 0 76
0.285094 -0.222943 0.166743 153 0 76
0.503576 0.567571 -0.413704 76 0 153
-0.422065 -0.222943 0.456019 153 0 76
0.426720 -0.222943 0.021304 153 0 76
0.318833 -0.131959 0.219678 153 0 76
0.153668 -0.091639 -0.238037 76 0 153
-0.495992 0.582065 -0.417700 76 0 153
0.054833 -0.123634 -0.007555 0 127 127
-0.568663 -0.154199 -0.118611 153 0 76
0.082553 0.313298 -0.397288 0 0 255
0.019914 -0.222943 -0.195925 153 0 76
0.108475 -0.222943 0.137517 153 0 76
0.480976 0.096600 -0.287450 76 0 153
-0.379223 -0.222943 0.162290 153 0 76
-0.270428 -0.142812 -0.217195 153 0 76
0.564951 -0.222943 0.612252 153 0 76
-0.021838 0.616271 -0.427327 153 76 0
-0.168682 0.336701 -0.397289 76 0 153
0.031038 -0.131959 0.165381 0 127 127
-0.547192 0.685853 -0.490821 76 0 153
-0.284909 0.116082 -0.293045 153 76 0
0.171398 -0.131959 0.298101 0 127 127
-0.566944 -0.004829 -0.260709 76 0 153
-0.358226 0.372466 -0.406817 76 0 153
0.137854 -0.121849 0.381138 153 0 76
-0.211479 0.314362 -0.346888 153 76 0
-0.555780 0.315697 -0.347005 76 0 153
0.491453 0.363198 -0.358946 76 0 153
0.017461 0.274170 -0.380478 76 0 153
-0.159113 0.280312 -0.382123 76 0 153
0.224093 0.663847 -0.439444 76 0 153
-0.443280 -0.222943 0.503978 153 0 76
-0.314980 -0.217480 -0.217195 153 0 76
0.458181 -0.131959 0.079429 153 0 76
-0.331711 -0.121849 -0.186936 153 0 76
0.326595 0.209795 -0.318869 153 76 0
-0.566623 -0.222943 -0.155246 153 0 76
0.558456 -0.121849 -0.172171 153 0 76
-0.561173 0.410367 -0.416982 76 0 153
0.183368 0.322797 -0.349143 153 76 0
-0.117258 -0.196743 0.712864 153 0 76
-0.170833 0.594739 -0.422015 153 76 0
-0.510769 -0.121849 0.704196 153 0 76
-0.168388 -0.121849 0.194744 0 127 127
0.384687 0.375597 -0.407656 76 0 153
0.437665 -0.121849 0.243641 0 127 127
0.422199 -0.121849 0.375683 153 0 76
-0.570590 -0.152135 0.604839 153 0 76
-0.570590 -0.169515 0.562513 153 0 76
0.498277 -0.039548 -0.251192 76 0 153
0.456557 -0.121849 0.678438 153 0 76
0.581875 -0.164725 0.387747 153 0 76
0.219874 -0.121849 0.079388 0 127 127
0.290118 -0.222943 0.448629 153 0 76
0.035843 -0.121849 0.376787 153 0 76
-0.570590 -0.150396 0.492319 153 0 76
-0.160897 -0.177564 -0.229713 76 0 153
-0.191459 0.001407 -0.307421 76 0 153
-0.163448 -0.126893 0.712864 153 0 76
-0.035414 0.724018 -0.470667 76 0 153
-0.210627 -0.199027 -0.217195 153 0 76
0.581875 -0.195231 -0.067279 153 0 76
0.388144 0.503270 -0.441865 76 0 153
0.077680 -0.117769 -0.275512 76 0 153
0.548827 0.327005 -0.349561 76 0 153
0.520663 -0.121849 -0.077304 0 127 127
-0.013113 -0.131959 0.278209 153 0 76
-0.144934 -0.222943 -0.086239 153 0 76
0.297832 -0.222943 -0.091128 153 0 76
0.227585 0.333128 -0.351863 153 76 0
-0.570590 -0.152836 0.378409 153 0 76
0.430343 -0.131959 -0.122715 153 0 76
-0.219910 0.131800 -0.296935 153 76 0
0.077146 -0.222943 0.246486 153 0 76
-0.144472 -0.222943 0.643827 153 0 76
-0.435734 -0.222943 0.374122 153 0 76
-0.116208 -0.121849 0.441565 153 0 76
0.275356 0.620785 -0.473361 76 0 153
-0.058673 0.385300 -0.365852 153 76 0
-0.386738 -0.222943 0.134966 153 0 76
-0.517796 0.066206 -0.279416 153 76 0
0.213685 -0.121849 0.401402 153 0 76
-0.250700 -0.222943 0.471261 153 0 76
0.312996 0.656136 -0.482825 76 0 153
0.256484 0.576544 -0.461552 76 0 153
0.094085 0.221889 -0.322104 153 76 0
0.117561 -0.121849 0.517856 153 0 76
0.115300 0.191318 -0.313873 153 76 0
-0.014250 -0.126315 -0.176758 153 0 76
-0.560581 0.164853 -0.306514 76 0 153
-0.285042 -0.121849 0.663489 153 0 76
-0.114582 0.099781 -0.288301 153 76 0
-0.512789 -0.131959 0.183377 153 0 76
0.251700 -0.121849 0.163230 0 127 127
-0.023670 -0.123431 0.712864 153 0 76
0.363598 -0.121849 -0.151302 153 0 76
-0.219220 -0.156801 -0.265002 76 0 153
0.581875 -0.179335 0.120877 153 0 76
-0.085529 -0.222943 0.051818 153 0 76
0.423046 -0.202251 0.712864 153 0 76
0.535727 -0.131959 0.179481 153 0 76
0.078477 -0.121849 0.403623 153 0 76
-0.203660 -0.121849 0.170485 0 127 127
0.162100 -0.222943 0.693418 153 0 76
0.347234 -0.121849 0.289021 0 127 127
0.462774 -0.121849 0.196223 0 127 127
-0.060661 -0.222943 0.303001 153 0 76
0.290270 -0.121849 0.267933 0 127 127
0.194698 -0.123927 -0.003499 0 127 127
0.402146 0.010490 -0.265411 153 76 0
0.462466 -0.121849 0.389782 153 0 76
-0.429852 -0.080863 -0.285415 76 0 153
0.534067 -0.222943 -0.045506 153 0 76
0.368973 -0.121849 0.163499 0 127 127
-0.044927 -0.160820 -0.263934 76 0 153
-0.194077 0.656064 -0.438432 76 0 153
-0.018517 -0.131959 0.078890 153 0 76
-0.482753 0.139795 -0.299159 153 76 0
-0.201257 -0.222943 0.444177 153 0 76
-0.002705 -0.121849 0.254328 0 127 127
0.551567 -0.199133 -0.217135 153 0 76
-0.353323 0.264981 -0.378057 76 0 153
-0.320525 0.078149 -0.327976 76 0 153
-0.038875 0.009203 -0.309549 76 0 153
-0.558468 0.221352 -0.321612 76 0 153
0.505959 -0.222943 0.527306 153 0 76
-0.032056 0.299648 -0.342410 153 76 0
0.070660 0.211786 -0.319403 153 76 0
0.440864 0.081512 -0.328858 76 0 153
-0.168656 -0.121849 0.484607 153 0 76
0.416737 -0.131959 -0.048772 0 127 127
-0.355133 -0.160717 0.712864 153 0 76
-0.314675 -0.131959 0.033696 0 127 127
-0.010853 -0.137007 -0.205745 127 0 127
-0.425413 -0.121849 0.554860 153 0 76
-0.279780 0.195937 -0.315118 153 76 0
0.218940 -0.121849 0.129622 0 127 127
-0.278846 -0.222943 0.291513 153 0 76
-0.213037 -0.121849 0.531710 153 0 76
-0.029614 0.172783 -0.353324 76 0 153
0.483779 -0.131959 0.033609 0 127 127
0.147511 0.659805 -0.483809 76 0 153
0.474214 0.724866 -0.459573 76 0 153
0.571926 -0.121849 0.030203 153 0 76
-0.157935 -0.121849 0.117563 0 127 127
-0.138664 0.083327 -0.329343 76 0 153
-0.188766 0.137909 -0.298542 153 76 0
-0.236893 -0.131959 0.061689 0 127 127
-0.230477 -0.121849 0.179285 0 127 127
0.061811 0.607040 -0.424250 153 76 0
-0.307870 0.135937 -0.299058 153 76 0
-0.255673 -0.222943 0.192646 153 0 76
0.444604 -0.222943 0.449208 153 0 76
0.572430 0.062973 -0.291378 76 0 153
-0.558963 -0.165899 0.147858 153 0 76
0.575431 -0.163495 0.698440 153 0 76
0.480965 -0.222943 -0.044203 153 0 76
0.077850 0.048967 -0.275741 153 76 0
0.234160 0.307901 -0.345156 153 76 0
0.025592 -0.117546 -0.231167 76 0 153
0.208233 -0.222943 0.516432 153 0 76
-0.295302 -0.222943 -0.133542 153 0 76
-0.365908 0.529354 -0.404440 153 76 0
0.557436 0.272376 -0.379659 76 0 153
0.134836 -0.036263 -0.297327 76 0 153
0.005380 -0.131959 -0.052914 153 0 76
-0.570590 -0.210195 -0.021525 153 0 76
-0.009318 -0.222943 0.663270 153 0 76
0.080715 -0.122869 -0.176758 153 0 76
0.017565 -0.222943 -0.166474 153 0 76
0.491179 -0.121849 0.441689 153 0 76
0.033502 -0.121849 0.270319 0 127 127
0.139391 -0.121849 0.036035 0 127 127
-0.152334 -0.222943 -0.043720 153 0 76
0.357612 -0.222943 0.390920 153 0 76
0.473046 -0.222943 0.003395 153 0 76
-0.328551 -0.105835 -0.234057 76 0 153
0.316352 -0.131959 0.029535 0 127 127
-0.544585 -0.121849 0.381605 153 0 76
-0.546744 -0.222943 -0.120881 153 0 76
-0.568471 -0.124180 -0.228379 76 0 153
-0.270397 0.718043 -0.491410 76 0 153
0.053665 -0.131959 -0.039583 153 0 76
0.345849 -0.121849 0.329311 153 0 76
-0.526593 -0.099277 -0.280416 76 0 153
0.523959 -0.222943 0.638973 153 0 76
0.076756 -0.222943 0.276966 153 0 76
0.541438 -0.222517 0.691872 153 0 76
-0.266031 0.333712 -0.352019 153 76 0
0.581875 -0.161709 0.473700 153 0 76
0.197253 -0.148054 -0.207619 127 0 127
0.003428 0.110712 -0.291797 153 76 0
0.005872 -0.222943 0.103491 153 0 76
0.581875 -0.130146 0.431823 153 0 76
-0.538503 -0.222943 0.131129 153 0 76
0.458478 -0.165605 0.712864 153 0 76
-0.258864 0.551035 -0.454679 76 0 153
0.492719 0.521658 -0.401353 76 0 153
-0.435279 -0.157745 -0.264748 76 0 153
0.113081 -0.121849 -0.144464 153 0 76
0.397169 0.453543 -0.428591 76 0 153
-0.524047 0.083357 -0.329351 76 0 153
-0.458294 -0.222943 0.094621 153 0 76
-0.570590 -0.185145 0.445343 153 0 76
0.052684 -0.222943 0.137162 153 0 76
0.570616 0.481851 -0.430120 76 0 153
0.361503 -0.222943 0.588599 153 0 76
-0.357173 -0.222943 0.536619 153 0 76
0.347852 -0.131959 -0.105124 153 0 76
0.103974 -0.222943 0.283253 153 0 76
0.211633 0.643239 -0.479425 76 0 153
-0.478901 -0.176175 -0.259545 76 0 153
0.556033 0.270122 -0.334280 76 0 153
0.106904 -0.222943 0.004124 153 0 76
-0.481386 -0.222943 0.059178 153 0 76
0.386887 -0.222943 0.261722 153 0 76
0.539867 0.121409 -0.294474 76 0 153
-0.035153 -0.222943 0.462028 153 0 76
-0.477797 0.292710 -0.340271 153 76 0
0.543621 -0.121849 0.363526 153 0 76
0.337009 -0.106401 -0.278506 76 0 153
0.398081 -0.121849 0.587290 153 0 76
-0.543055 -0.222943 -0.192431 153 0 76
-0.522340 -0.121849 0.421511 153 0 76
-0.010510 0.288903 -0.390751 0 0 255
-0.503846 -0.121849 0.341489 153 0 76
0.441970 -0.222943 -0.076700 153 0 76
-0.239185 -0.222943 -0.092981 153 0 76
-0.415518 -0.123943 -0.229251 76 0 153
-0.408982 0.719450 -0.486390 76 0 153
-0.339359 0.207354 -0.318215 153 76 0
-0.406651 -0.222943 0.545892 153 0 76
0.427428 -0.180081 -0.239091 76 0 153
0.030602 0.498769 -0.440672 76 0 153
0.033667 -0.121849 0.296728 0 127 127
0.380244 0.309199 -0.389925 76 0 153
0.362634 0.507065 -0.398524 153 76 0
0.048185 0.079613 -0.283989 153 76 0
0.565462 -0.167225 -0.113320 153 0 76
0.302770 -0.126717 -0.103971 0 127 127
0.233075 0.255626 -0.331157 153 76 0
-0.385532 -0.121849 0.673059 153 0 76
-0.089725 0.699903 -0.494555 76 0 153
0.045122 -0.146075 -0.176758 153 0 76
-0.221300 0.368678 -0.405802 76 0 153
-0.277787 -0.222943 0.591489 153 0 76
0.043201 -0.172396 -0.177005 153 0 76
0.567737 -0.121849 -0.067768 153 0 76
0.552236 0.681433 -0.444451 76 0 153
0.544665 0.521105 -0.446661 76 0 153
-0.232190 -0.158159 -0.210493 153 0 76
0.175974 -0.121849 0.590348 153 0 76
0.303823 -0.121849 0.613584 153 0 76
0.010289 -0.172396 -0.190725 153 0 76
0.233344 0.691425 -0.492284 76 0 153
0.551547 -0.131736 -0.006505 153 0 76
0.020188 -0.097652 -0.280851 76 0 153
-0.558305 -0.186433 0.008271 153 0 76
0.241715 -0.190563 -0.217195 153 0 76
0.287875 -0.131959 -0.129904 153 0 76
-0.089295 0.413347 -0.373400 153 76 0
0.472810 -0.222943 0.082308 153 0 76
0.045647 -0.121849 0.691532 153 0 76
-0.477368 0.449179 -0.382554 153 76 0
-0.179493 -0.172396 -0.177783 153 0 76
-0.072954 -0.121849 0.656493 153 0 76
0.046103 -0.121849 -0.114366 0 127 127
0.168274 -0.121849 0.635486 153 0 76
0.278461 -0.107651 -0.278171 76 0 153
-0.570590 -0.204845 0.492995 153 0 76
0.181099 0.370159 -0.361848 153 76 0
-0.556992 0.340642 -0.353530 76 0 153
0.330558 -0.121849 0.531081 153 0 76
0.337187 0.023254 -0.313291 76 0 153
0.359550 0.250335 -0.329721 153 76 0
-0.420867 -0.121849 0.186084 0 127 127
0.193652 -0.131959 0.213052 153 0 76
0.472765 -0.126359 0.125812 0 127 127
0.527869 -0.001217 -0.261954 76 0 153
-0.107069 -0.044098 -0.250679 76 0 153
-0.195203 0.461952 -0.386434 153 76 0
0.219649 -0.222943 0.418027 153 0 76
0.256017 -0.222943 0.296437 153 0 76
-0.351155 -0.114423 -0.276390 76 0 153
-0.317319 -0.121849 0.342647 153 0 76
0.204262 -0.121849 0.697720 153 0 76
0.164091 -0.121849 -0.069603 0 127 127
-0.022675 -0.121849 0.550698 153 0 76
0.001501 -0.131392 -0.136321 153 0 76
-0.197686 -0.222943 -0.083597 153 0 76
0.546283 0.107890 -0.335984 76 0 153
-0.145378 -0.222943 0.299737 153 0 76
0.165278 0.246593 -0.373143 76 0 153
0.189567 0.270475 -0.335139 153 76 0
0.330236 -0.131959 0.141676 0 127 127
0.163458 -0.131959 0.132577 0 127 127
-0.143821 -0.144102 -0.176758 153 0 76
-0.379350 0.450407 -0.383342 153 76 0
0.432261 -0.222943 0.235175 153 0 76
-0.444859 -0.121849 0.417086 153 0 76
-0.405988 0.657364 -0.483155 76 0 153
-0.437462 0.238477 -0.326499 153 76 0
-0.530883 -0.186248 -0.099772 153 0 76
0.324217 -0.222943 0.426378 153 0 76
-0.062467 -0.131100 -0.071359 0 127 127
0.247496 -0.066674 -0.244389 76 0 153
-0.096598 -0.222943 0.616727 153 0 76
0.169076 -0.056091 -0.291985 76 0 153
-0.038696 0.554446 -0.411226 153 76 0
0.508487 -0.131959 0.145381 153 0 76
-0.055682 0.571522 -0.460177 76 0 153
0.061906 -0.159790 -0.199641 127 0 127
0.169798 -0.222943 0.542022 153 0 76
-0.548813 -0.222943 0.249860 153 0 76
-0.507132 0.551362 -0.454764 76 0 153
-0.137233 -0.131959 -0.039972 0 127 127
0.279230 0.270943 -0.335263 153 76 0
-0.005159 -0.121849 0.332811 153 0 76
0.565777 -0.157349 0.345447 153 0 76
0.289396 0.545618 -0.453254 76 0 153
-0.448929 -0.222943 0.649928 153 0 76
-0.062710 -0.124321 0.712864 153 0 76
0.071954 -0.131959 0.255831 153 0 76
0.580392 -0.121849 0.516317 153 0 76
-0.535283 -0.222943 0.342549 153 0 76
0.145694 0.439633 -0.379396 153 76 0
-0.238609 0.088507 -0.285301 153 76 0
-0.268971 -0.131959 0.036482 0 127 127
0.527889 -0.091566 -0.237720 76 0 153
0.296771 0.104342 -0.290559 153 76 0
0.581875 -0.222904 0.213352 153 0 76
0.581875 -0.189334 0.429254 153 0 76
0.017290 -0.121849 0.691857 153 0 76
-0.112737 -0.199746 -0.217195 153 0 76
0.016226 -0.127706 -0.176758 153 0 76
0.198625 -0.121849 -0.107061 0 127 127
0.465622 -0.121849 -0.029666 0 127 127
0.437701 -0.144454 -0.223706 76 0 153
0.225413 -0.146369 -0.222797 76 0 153
0.094533 -0.146023 0.712864 153 0 76
-0.463693 -0.178894 -0.234645 76 0 153
0.386807 -0.222943 0.045547 153 0 76
-0.478432 0.478330 -0.390316 153 76 0
0.282344 -0.164446 0.712864 153 0 76
0.581574 -0.121849 0.103893 153 0 76
-0.418171 0.515685 -0.400815 153 76 0
0.263903 -0.121849 0.696063 153 0 76
-0.433775 -0.222943 0.103346 153 0 76
-0.544431 -0.222943 0.108001 153 0 76
-0.570590 -0.181837 0.607172 153 0 76
0.167952 -0.179074 -0.235320 76 0 153
0.263932 -0.222943 -0.025197 153 0 76
-0.120904 0.035092 -0.271023 153 76 0
0.313499 0.539257 -0.451577 76 0 153
-0.421671 0.658143 -0.438977 76 0 153
0.540923 -0.121849 0.439437 153 0 76
-0.559486 0.616453 -0.427435 76 0 153
0.513681 -0.121849 0.625150 153 0 76
0.122081 -0.222943 0.256089 153 0 76
0.301358 0.240340 -0.371422 76 0 153
0.158189 -0.117806 0.534166 76 0 153
-0.127661 0.118529 -0.338836 76 0 153
0.554894 -0.222943 0.048014 153 0 76
0.329881 -0.222943 0.474512 153 0 76
0.146519 0.587005 -0.464369 76 0 153
0.344948 -0.222943 -0.159991 153 0 76
0.572425 0.441697 -0.397330 76 0 153
0.226179 -0.222943 0.214528 153 0 76
0.526559 -0.131959 0.265157 0 127 127
0.531806 -0.131959 0.052609 0 127 127
0.581875 -0.163816 0.671474 153 0 76
-0.525565 -0.143905 -0.268456 76 0 153
0.177504 -0.131959 -0.027948 153 0 76
0.106812 -0.222943 0.432674 153 0 76
-0.439816 0.444329 -0.381713 153 76 0
0.439524 0.458232 -0.385441 153 76 0
0.503162 -0.222943 -0.207169 153 0 76
-0.308206 -0.131959 0.234095 0 127 127
0.556141 -0.121849 0.584167 153 0 76
-0.432943 -0.222943 0.681360 153 0 76
0.022580 -0.152978 0.713269 153 0 76
-0.428430 -0.131959 0.062639 0 127 127
0.049156 0.287089 -0.339527 153 76 0
0.491485 -0.222943 0.609206 153 0 76
-0.093358 -0.123350 0.129425 0 127 127
0.190981 -0.131959 0.053908 153 0 76
0.517008 -0.222943 0.437844 153 0 76
-0.414916 -0.222943 -0.183372 153 0 76
0.537334 -0.222943 0.270564 153 0 76
-0.101365 -0.222943 0.284682 153 0 76
-0.395936 0.498929 -0.396343 153 76 0
0.327826 -0.222943 0.036195 153 0 76
0.496886 -0.222943 0.049143 153 0 76
0.440846 0.585588 -0.463989 76 0 153
-0.007545 -0.222943 0.373905 153 0 76
0.251198 0.402179 -0.370418 153 76 0
-0.107363 -0.222943 -0.038295 153 0 76
-0.246709 -0.131959 0.157801 153 0 76
0.261032 -0.124109 0.197268 0 127 127
-0.034942 -0.222943 0.254618 153 0 76
0.160777 -0.128838 -0.195893 127 0 127
-0.406941 0.001950 -0.307570 76 0 153
-0.553457 0.394490 -0.367986 76 0 153
-0.054506 -0.222943 -0.083835 153 0 76
0.478356 -0.222943 0.136116 153 0 76
-0.502525 -0.131959 0.017104 153 0 76
-0.254056 -0.121849 0.646820 153 0 76
-0.062371 -0.149221 -0.202473 127 0 127
-0.129491 -0.121849 -0.111975 0 127 127
-0.515984 -0.222943 -0.152520 153 0 76
-0.305091 -0.129041 0.196833 0 127 127
0.357108 -0.222943 -0.094124 153 0 76
0.139485 -0.222943 -0.112321 153 0 76
-0.070513 0.091200 -0.286010 153 76 0
0.043490 -0.222943 0.092941 153 0 76
-0.570590 -0.137397 0.652244 153 0 76
-0.491974 0.023360 -0.267873 153 76 0
-0.284399 -0.222943 -0.005308 153 0 76
-0.337489 0.724580 -0.467754 76 0 153
-0.054461 0.294621 -0.385992 76 0 153
0.127410 -0.121849 0.274753 0 127 127
0.581875 -0.174622 0.078992 153 0 76
0.170841 0.619804 -0.473092 76 0 153
0.020409 -0.121849 0.034848 0 127 127
-0.393762 0.287477 -0.384044 76 0 153
-0.472382 -0.131959 -0.010371 0 127 127
-0.532192 -0.222943 0.225052 153 0 76
-0.192959 -0.222943 0.276549 153 0 76
0.190885 -0.075359 -0.286889 76 0 153
-0.151718 0.280132 -0.337676 153 76 0
0.118532 -0.121849 0.494285 153 0 76
0.202532 0.673094 -0.441921 76 0 153
-0.122165 0.383432 -0.409786 76 0 153
-0.567254 -0.121849 0.585208 153 0 76
0.517457 -0.121849 -0.031824 0 127 127
-0.504671 0.057280 -0.322424 76 0 153
-0.173396 -0.131959 -0.017170 153 0 76
-0.192352 -0.121849 0.193768 0 127 127
-0.335151 -0.222943 0.114649 153 0 76
0.455522 -0.148583 -0.267203 76 0 153
-0.127413 0.212959 -0.364126 76 0 153
-0.284231 -0.121849 -0.107945 0 127 127
-0.562266 -0.167105 -0.099772 153 0 76
0.131650 -0.131959 -0.048964 0 127 127
-0.317036 -0.222943 0.267726 153 0 76
0.474633 -0.131959 0.269565 153 0 76
-0.478774 -0.222943 -0.077330 153 0 76
-0.401950 -0.127770 0.088689 0 127 127
0.275939 -0.126697 -0.073167 0 127 127
0.392568 -0.222943 -0.073289 153 0 76
0.499325 -0.222943 0.328223 153 0 76
0.581875 -0.151832 0.628176 153 0 76
0.024695 0.327451 -0.394806 76 0 153
0.277519 -0.121849 -0.180918 153 0 76
0.313218 -0.169315 -0.261702 76 0 153
0.094115 0.621078 -0.428228 153 76 0
-0.182796 -0.222943 0.147769 153 0 76
0.207331 0.249873 -0.329594 153 76 0
0.038333 -0.170974 -0.261255 76 0 153
0.162031 -0.222943 0.588152 153 0 76
0.041874 0.235674 -0.370164 76 0 153
-0.251699 -0.121849 0.441266 153 0 76
-0.317713 -0.121849 0.711047 153 0 76
-0.331041 -0.131959 -0.058249 153 0 76
-0.017725 0.317625 -0.347221 153 76 0
-0.141476 -0.222943 0.692848 153 0 76
0.265900 -0.131959 0.032341 0 127 127
0.332596 0.693483 -0.492835 76 0 153
-0.422967 0.291880 -0.385238 76 0 153
0.146857 -0.222943 0.356400 153 0 76
-0.333608 -0.222943 0.535802 153 0 76
-0.337470 -0.222943 0.330736 153 0 76
-0.459338 -0.013948 -0.257958 153 76 0
-0.024667 0.241435 -0.326333 153 76 0
-0.266143 -0.131959 -0.091648 0 127 127
-0.324351 0.492146 -0.438936 76 0 153
0.065816 0.269635 -0.385588 0 0 255
0.309501 0.095006 -0.332471 76 0 153
0.046852 -0.121136 -0.274623 76 0 153
0.319485 -0.121849 -0.059932 0 127 127
-0.570590 -0.154453 0.012291 153 0 76
-0.306844 -0.121849 0.583619 153 0 76
0.396869 -0.222943 -0.007428 153 0 76
0.397885 -0.131607 0.278840 0 127 127
-0.171032 -0.222943 0.497736 153 0 76
0.563616 -0.167225 0.052439 153 0 76
-0.049464 -0.222943 -0.032917 153 0 76
-0.307107 -0.121849 0.472167 153 0 76
-0.286219 0.455000 -0.428973 76 0 153
-0.257811 -0.222943 0.548416 153 0 76
-0.351607 -0.222943 0.619690 153 0 76
0.147080 0.543930 -0.452810 76 0 153
-0.472563 0.315801 -0.346920 153 76 0
-0.287815 -0.144508 0.712864 153 0 76
0.037007 0.419783 -0.374045 153 76 0
0.145142 -0.058316 -0.291391 76 0 153
-0.538960 0.454410 -0.428818 76 0 153
0.545462 0.591734 -0.465629 76 0 153
0.036862 0.685714 -0.490785 76 0 153
0.195715 -0.121849 0.317894 153 0 76
-0.044624 -0.121849 0.187012 0 127 127
0.511993 -0.121849 0.218735 0 127 127
-0.166024 -0.222943 0.702393 153 0 76
-0.534196 -0.179718 -0.237735 76 0 153
0.546416 -0.131959 0.281702 153 0 76
-0.131091 -0.121849 0.377679 153 0 76
-0.021631 -0.179386 -0.236486 76 0 153
-0.040568 0.534593 -0.450327 76 0 153
0.457348 -0.131959 -0.002402 0 127 127
0.080155 -0.121849 0.321209 153 0 76
0.562366 -0.167225 -0.004779 153 0 76
-0.515902 0.444874 -0.426285 76 0 153
-0.144216 0.591193 -0.421065 153 76 0
-0.549999 -0.121849 0.504078 153 0 76
-0.582449 0.624865 -0.466501 76 0 153
-0.270324 -0.121849 0.358231 153 0 76
0.004125 0.365994 -0.405083 76 0 153
0.098928 0.465556 -0.431759 76 0 153
-0.432730 0.692674 -0.492618 76 0 153
-0.336975 0.202287 -0.361285 76 0 153
0.004354 -0.121849 0.428387 153 0 76
-0.202083 -0.073026 -0.287514 76 0 153
-0.292368 -0.121849 0.500952 153 0 76
0.280159 -0.222943 0.550829 153 0 76
0.122548 -0.222943 0.616051 153 0 76
-0.360454 -0.222943 0.580167 153 0 76
-0.567600 -0.121849 0.460801 153 0 76
-0.288467 -0.128328 0.308491 153 0 76
0.498279 -0.222943 0.419757 153 0 76
-0.515780 0.715083 -0.453256 76 0 153
-0.467541 -0.121849 0.174777 0 127 127
0.380497 -0.131959 -0.058125 153 0 76
0.077361 -0.121849 0.516452 153 0 76
0.114461 -0.121849 0.294105 0 127 127
-0.001833 0.537873 -0.406186 153 76 0
0.223819 -0.121849 0.026117 0 127 127
0.224018 -0.222943 0.695076 153 0 76
0.439410 0.645524 -0.480024 76 0 153
0.358766 0.353245 -0.401713 76 0 153
0.328783 -0.205689 -0.217195 153 0 76
0.560684 -0.152316 -0.221314 76 0 153
-0.528075 -0.123973 0.308491 153 0 76
0.189918 0.498010 -0.395061 153 76 0
-0.156598 -0.121849 0.163530 0 127 127
-0.218022 -0.121849 0.602074 153 0 76
0.162049 -0.131959 0.203714 0 127 127
0.005074 -0.222943 0.157853 153 0 76
-0.108166 -0.165997 0.712864 153 0 76
0.190458 -0.222943 0.554907 153 0 76
0.261922 0.720506 -0.455055 76 0 153
0.116348 -0.222943 0.230167 153 0 76
-0.262668 0.660391 -0.439567 76 0 153
0.322504 -0.121849 0.478189 153 0 76
-0.082639 0.492982 -0.394744 153 76 0
-0.361968 -0.131959 0.204188 0 127 127
0.144443 0.314743 -0.391406 76 0 153
-0.124483 -0.063607 -0.290003 76 0 153
-0.422892 -0.131959 -0.099038 153 0 76
-0.570590 -0.184508 0.640159 153 0 76
0.477916 -0.222943 -0.194279 153 0 76
0.113990 -0.222943 -0.083031 153 0 76
0.394665 -0.222943 0.103265 153 0 76
-0.106990 -0.121849 0.238765 0 127 127
0.259047 0.560346 -0.411774 153 76 0
-0.479771 -0.131959 0.153066 0 127 127
0.173838 -0.121849 0.658977 153 0 76
0.295313 -0.222943 0.506813 153 0 76
0.385309 0.722571 -0.455866 76 0 153
-0.531018 -0.166325 -0.077159 153 0 76
-0.530152 -0.167265 0.262283 153 0 76
-0.204560 -0.121849 -0.115415 0 127 127
-0.424613 -0.040220 -0.296238 76 0 153
-0.154645 0.235737 -0.370181 76 0 153
-0.480101 -0.121849 0.508422 153 0 76
-0.475492 -0.121849 0.387613 153 0 76
-0.442199 -0.222943 -0.189643 153 0 76
0.309207 -0.222943 0.284963 153 0 76
-0.349951 0.517752 -0.445747 76 0 153
-0.180835 -0.222943 0.192731 153 0 76
0.160906 -0.121849 0.704467 153 0 76
0.550463 -0.126422 -0.227753 76 0 153
0.345488 -0.121849 0.644914 153 0 76
-0.432569 -0.222943 0.272936 153 0 76
0.435950 0.372690 -0.406877 76 0 153
0.318809 -0.222943 0.629360 153 0 76
-0.200964 -0.121849 0.473410 153 0 76
-0.421132 0.195451 -0.359438 76 0 153
-0.395547 -0.173650 -0.217195 153 0 76
0.223826 -0.181335 0.712864 153 0 76
-0.521061 -0.121849 0.374799 153 0 76
-0.175160 -0.122456 0.073320 0 127 127
0.443113 0.033006 -0.271498 153 76 0
-0.507710 -0.222943 0.279344 153 0 76
-0.408903 -0.121849 0.687213 153 0 76
0.581875 -0.206527 0.355541 153 0 76
0.517030 -0.131074 0.308491 153 0 76
0.568955 -0.121849 0.318028 153 0 76
0.091074 0.249126 -0.329389 153 76 0
0.338977 0.060570 -0.278871 153 76 0
-0.222319 -0.148061 -0.176758 153 0 76
0.558787 0.356320 -0.402350 76 0 153
0.186324 -0.222943 0.662735 153 0 76
-0.524954 0.563926 -0.412725 76 0 153
-0.099920 0.300842 -0.343249 153 76 0
-0.476858 0.674639 -0.443138 76 0 153
-0.565721 -0.222943 0.451188 153 0 76
-0.246669 0.427631 -0.377184 153 76 0
-0.565597 0.535215 -0.405652 76 0 153
-0.211518 -0.130525 0.308491 153 0 76
0.027400 -0.121849 0.085207 0 127 127
-0.371925 0.424738 -0.420824 76 0 153
-0.570590 -0.180977 0.052948 153 0 76
-0.398879 0.654744 -0.438085 76 0 153
0.275840 0.589807 -0.419658 153 76 0
-0.582722 0.133841 -0.330613 76 0 153
0.146032 0.087566 -0.286086 153 76 0
-0.070768 -0.121849 0.369452 153 0 76
-0.211486 -0.222943 0.171287 153 0 76
-0.175984 -0.121849 0.300342 0 127 127
0.091182 -0.207924 -0.217195 153 0 76
0.370015 0.653055 -0.436608 76 0 153
-0.053166 -0.121849 0.109466 0 127 127
-0.053568 -0.052241 -0.293017 76 0 153
-0.021766 -0.155503 0.713269 153 0 76
0.461123 0.331848 -0.350930 76 0 153
0.383208 -0.121849 0.610693 153 0 76
-0.360905 -0.222943 0.697533 153 0 76
-0.062935 -0.102768 -0.279480 76 0 153
-0.388882 -0.131959 0.062381 153 0 76
-0.243770 0.373535 -0.407103 76 0 153
-0.435780 0.061833 -0.279217 153 76 0
-0.229282 0.165973 -0.306830 153 76 0
-0.499935 -0.121849 0.521829 153 0 76
0.528871 -0.222943 0.142317 153 0 76
0.140671 -0.121849 0.186533 0 127 127
0.366060 -0.006025 -0.261036 153 76 0
0.135532 -0.222943 -0.199424 153 0 76
-0.501332 0.118601 -0.338855 76 0 153
0.075519 -0.046099 -0.294663 76 0 153
-0.267648 -0.121849 0.607500 153 0 76
0.467927 -0.222943 0.530698 153 0 76
0.035388 0.695273 -0.447918 76 0 153
0.395653 -0.151550 -0.217195 153 0 76
0.220979 0.200881 -0.316472 153 76 0
0.577345 -0.141308 0.672427 153 0 76
0.499294 0.360773 -0.403687 76 0 153
-0.552397 -0.121849 -0.167574 153 0 76
-0.353733 0.081298 -0.284120 153 76 0
-0.553142 -0.184959 0.216761 153 0 76
-0.431588 -0.222943 -0.042845 153 0 76
-0.261448 -0.121849 0.542438 153 0 76
0.002472 -0.131959 -0.095186 0 127 127
0.060839 -0.222943 0.464538 153 0 76
0.307528 0.700625 -0.494746 76 0 153
-0.375023 -0.131959 -0.047518 0 127 127
0.523067 -0.222943 0.507111 153 0 76
-0.469140 -0.121849 0.266122 0 127 127
-0.038434 -0.222943 0.566050 153 0 76
-0.209965 -0.172396 -0.183428 153 0 76
-0.489303 -0.222943 0.488846 153 0 76
-0.100653 0.719880 -0.484475 76 0 153
-0.387568 -0.222943 0.343549 153 0 76
-0.422784 -0.222943 0.139701 153 0 76
0.206697 0.146639 -0.346366 76 0 153
-0.523372 0.283366 -0.337506 153 76 0
0.505407 0.325569 -0.348839 76 0 153
0.132192 0.164515 -0.306736 153 76 0
0.581875 -0.197013 0.520121 153 0 76
0.413454 0.490929 -0.394181 153 76 0
0.541438 -0.166255 0.250746 153 0 76
0.102720 -0.004123 -0.305922 76 0 153
-0.502128 -0.222943 -0.065007 153 0 76
-0.089931 -0.131959 -0.041200 153 0 76
0.181001 0.083526 -0.329396 76 0 153
-0.259244 0.062332 -0.323784 76 0 153
0.145099 -0.121849 -0.151575 153 0 76
0.389053 -0.131959 0.300495 153 0 76
0.014948 -0.121849 0.343737 153 0 76
-0.299264 0.459139 -0.385684 153 76 0
0.539491 0.192286 -0.313127 76 0 153
-0.513721 -0.131959 0.057904 153 0 76
-0.478015 -0.121849 0.665192 153 0 76
0.245938 -0.075253 -0.286918 76 0 153
0.268895 -0.121849 0.645099 153 0 76
-0.252052 -0.222943 0.223534 153 0 76
-0.173592 0.243423 -0.327823 153 76 0
-0.211700 -0.222943 0.528716 153 0 76
0.246590 -0.222943 -0.128121 153 0 76
-0.268976 -0.131959 0.117354 153 0 76
-0.306750 -0.131959 0.271298 153 0 76
0.110174 0.162642 -0.350646 76 0 153
0.077683 0.520966 -0.401171 153 76 0
0.325536 -0.222943 0.095572 153 0 76
0.205192 0.337450 -0.353020 153 76 0
0.236099 -0.121849 0.522848 153 0 76
-0.290550 -0.131773 0.011423 0 127 127
-0.488217 -0.121849 0.099441 0 127 127
-0.373424 0.724381 -0.468952 76 0 153
-0.354838 -0.222943 0.345533 153 0 76
-0.487410 0.639928 -0.433309 76 0 153
-0.465372 -0.172323 0.712864 153 0 76
0.547294 -0.121849 -0.146076 153 0 76
0.405538 -0.121849 -0.136616 153 0 76
0.207794 -0.135392 -0.270778 76 0 153
0.311950 -0.130074 0.308491 153 0 76
0.420637 0.723859 -0.471204 76 0 153
-0.500010 -0.222943 0.561831 153 0 76
-0.456092 0.382345 -0.409487 76 0 153
0.372716 -0.121849 0.343090 153 0 76
-0.287722 0.024163 -0.268093 153 76 0
-0.570590 -0.143766 0.129689 153 0 76
