ply
format ascii 1.0
element vertex 1265
property float x
property float y
property float z
property uchar red
property uchar green
property uchar blue
end_header
0.028437 -0.222943 0.521323 153 0 76
0.511831 0.146856 -0.344603 76 0 153
0.311482 -0.121850 -0.054755 0 127 127
-0.510732 0.374080 -0.363623 153 76 0
0.397530 -0.131959 0.142384 153 0 76
-0.525453 -0.131959 0.223817 0 127 127
-0.059500 -0.131959 0.129513 153 0 76
-0.549187 -0.222943 0.362571 153 0 76
-0.085271 0.592782 -0.422224 153 76 0
0.244174 -0.222943 0.153808 153 0 76
-0.142639 0.217452 -0.321655 153 76 0
0.374069 -0.149518 0.712864 153 0 76
-0.124500 -0.131959 0.075327 0 127 127
-0.158517 -0.121850 -0.068972 0 127 127
0.245753 0.722875 -0.469468 76 0 153
0.503988 -0.034972 -0.254018 76 0 153
0.220188 0.716317 -0.493945 76 0 153
0.197072 -0.021736 -0.257565 153 76 0
-0.339371 0.444881 -0.424458 76 0 153
0.571301 0.158291 -0.324502 76 0 153
-0.259425 0.495173 -0.396070 153 76 0
0.077042 -0.170828 -0.176758 153 0 76
-0.276851 -0.222943 -0.146668 153 0 76
0.293851 0.579971 -0.418792 153 76 0
0.432342 -0.222943 0.566397 153 0 76
-0.055124 0.365272 -0.411215 76 0 153
-0.422953 0.018847 -0.268439 153 76 0
-0.502332 0.341102 -0.396651 76 0 153
-0.146002 -0.121850 0.483670 153 0 76
-0.321827 0.295710 -0.342624 153 76 0
-0.379599 -0.222943 -0.127120 153 0 76
-0.371943 0.384752 -0.366483 153 76 0
-0.468397 -0.222943 0.325213 153 0 76
-0.049285 0.535794 -0.406955 153 76 0
0.209426 0.203010 -0.359649 76 0 153
0.297231 -0.222943 -0.065149 153 0 76
-0.285122 0.697822 -0.450370 76 0 153
0.525513 0.331570 -0.394097 76 0 153
0.196254 -0.002938 -0.304466 76 0 153
0.007153 -0.222943 0.187717 153 0 76
0.566949 -0.222943 -0.209944 153 0 76
-0.218081 0.008120 -0.265565 153 76 0
0.168351 0.474031 -0.390405 153 76 0
-0.241040 -0.131959 -0.008396 0 127 127
0.514584 -0.222943 -0.175334 153 0 76
0.580209 -0.157349 0.154413 153 0 76
-0.485206 0.379218 -0.406864 76 0 153
0.392774 -0.084338 -0.240791 76 0 153
-0.048625 -0.150240 0.713269 153 0 76
0.355900 0.096460 -0.289235 153 76 0
-0.266588 0.120778 -0.337615 76 0 153
-0.009525 -0.127728 -0.200525 127 0 127
-0.198310 -0.131959 0.285290 0 127 127
0.110235 0.383677 -0.408059 76 0 153
-0.420672 -0.121850 0.369115 153 0 76
-0.495851 0.236964 -0.326883 153 76 0
-0.070018 0.495763 -0.438092 76 0 153
-0.532807 -0.124996 0.289501 153 0 76
0.540920 0.046452 -0.317700 76 0 153
0.213184 -0.148948 0.712864 153 0 76
-0.457947 0.538962 -0.407803 153 76 0
0.339505 -0.222943 0.610204 153 0 76
0.361259 0.466449 -0.430237 76 0 153
-0.581164 -0.071818 -0.268526 76 0 153
0.542915 0.305337 -0.345204 76 0 153
0.061752 0.520598 -0.402883 153 76 0
-0.417493 -0.107519 -0.234579 76 0 153
-0.570588 -0.148351 0.042582 153 0 76
-0.540342 0.493939 -0.437603 76 0 153
0.290607 0.381909 -0.365721 153 76 0
0.464666 0.350475 -0.399162 76 0 153
0.113303 0.220670 -0.322517 153 76 0
-0.501403 -0.222943 0.178929 153 0 76
-0.562880 -0.222943 0.555000 153 0 76
-0.088038 -0.222943 0.627161 153 0 76
-0.200907 0.435236 -0.421874 76 0 153
0.481339 -0.222943 0.227167 153 0 76
-0.537602 -0.121850 0.431583 153 0 76
-0.269445 0.453304 -0.384851 153 76 0
-0.286509 -0.121850 -0.151385 153 0 76
0.421763 -0.121850 0.122928 0 127 127
0.425246 0.313262 -0.347327 153 76 0
0.581877 -0.178083 -0.158416 153 0 76
0.139083 0.300745 -0.385837 76 0 153
-0.266175 -0.222943 -0.188309 153 0 76
-0.220949 -0.222943 0.471705 153 0 76
-0.161897 0.123325 -0.296434 153 76 0
-0.116152 -0.104280 -0.235447 76 0 153
0.014977 0.488894 -0.394388 153 76 0
0.553450 -0.222943 0.668186 153 0 76
0.428168 -0.121850 0.346519 153 0 76
0.189947 -0.222943 0.623373 153 0 76
-0.238334 -0.222943 0.688959 153 0 76
0.173763 -0.152373 0.712864 153 0 76
0.172014 -0.148464 -0.265472 76 0 153
-0.105409 -0.143037 0.712864 153 0 76
-0.236150 -0.222943 0.546279 153 0 76
0.179496 -0.131959 -0.079129 0 127 127
0.525734 -0.222943 0.363784 153 0 76
0.198359 0.060090 -0.321354 76 0 153
-0.104596 -0.121850 0.281505 0 127 127
-0.308252 -0.147170 -0.223955 76 0 153
0.285058 0.095239 -0.330772 76 0 153
0.541440 -0.155027 0.689566 153 0 76
-0.320310 -0.222943 0.209180 153 0 76
-0.079687 -0.222943 -0.183329 153 0 76
0.571301 0.559399 -0.420384 76 0 153
0.448183 0.077641 -0.284193 153 76 0
-0.102176 -0.222943 -0.091262 153 0 76
0.467425 -0.153973 0.712864 153 0 76
0.528685 -0.131959 0.019988 0 127 127
0.267564 -0.121850 0.538907 153 0 76
-0.252174 -0.090371 -0.239174 76 0 153
-0.542882 -0.121850 0.525511 153 0 76
0.229352 -0.121850 0.582319 153 0 76
-0.581164 -0.025678 -0.271732 76 0 153
0.262068 -0.121850 0.635944 153 0 76
-0.152767 0.206743 -0.360649 76 0 153
0.058391 -0.131959 0.246198 153 0 76
0.451101 0.498787 -0.438902 76 0 153
0.145502 -0.121850 0.318398 153 0 76
-0.337470 0.066322 -0.281160 153 76 0
-0.538276 -0.116791 -0.273959 76 0 153
-0.153091 0.293028 -0.383769 76 0 153
0.349613 0.606937 -0.426017 153 76 0
0.059625 0.234284 -0.326165 153 76 0
0.344079 -0.153980 -0.263994 76 0 153
-0.317028 0.023462 -0.311539 76 0 153
-0.029226 -0.222943 0.181928 153 0 76
0.541562 -0.222943 -0.110996 153 0 76
-0.296749 -0.131959 0.160477 153 0 76
0.231827 -0.222943 0.581376 153 0 76
0.405519 0.420798 -0.376141 153 76 0
0.522794 -0.131959 0.270303 0 127 127
-0.324654 -0.121850 0.504428 153 0 76
0.503283 0.285750 -0.339955 76 0 153
-0.150727 0.607640 -0.468069 76 0 153
0.159962 0.095500 -0.288978 153 76 0
0.582060 -0.123413 -0.184188 153 0 76
-0.031372 -0.222943 0.065264 153 0 76
0.576022 -0.187741 0.697486 153 0 76
-0.265249 0.040474 -0.316098 76 0 153
0.274751 -0.181251 -0.256687 76 0 153
-0.421327 0.395777 -0.369437 153 76 0
-0.245823 -0.121850 0.497072 153 0 76
-0.338689 -0.131959 0.125908 0 127 127
0.201592 0.418740 -0.417454 76 0 153
-0.570588 -0.210540 0.219488 153 0 76
0.074255 -0.131959 0.091807 153 0 76
0.276913 -0.121850 -0.034887 0 127 127
-0.441496 0.660673 -0.440416 76 0 153
-0.342346 -0.222943 0.553125 153 0 76
0.580419 -0.222943 0.185246 153 0 76
0.557799 -0.222943 -0.170918 153 0 76
-0.013956 -0.121850 0.327141 153 0 76
0.552631 -0.121850 0.497300 153 0 76
0.048270 -0.222943 -0.152924 153 0 76
-0.085134 -0.042457 -0.293876 76 0 153
-0.014718 -0.117806 0.535377 153 0 76
0.269907 -0.101064 -0.236309 76 0 153
0.345969 0.038552 -0.273719 153 76 0
0.332171 0.097882 -0.331480 76 0 153
-0.195131 -0.180708 -0.248216 76 0 153
-0.292748 0.278686 -0.379926 76 0 153
-0.402876 -0.222943 0.123847 153 0 76
0.545870 0.573873 -0.459022 76 0 153
0.136173 -0.222943 0.249430 153 0 76
-0.552516 -0.121850 0.027583 153 0 76
-0.185302 0.141589 -0.301328 153 76 0
-0.426612 0.357208 -0.359102 153 76 0
0.091322 -0.131959 -0.117619 153 0 76
-0.548355 -0.121850 -0.011423 153 0 76
-0.417686 -0.222943 0.072377 153 0 76
-0.006033 -0.121850 0.493292 153 0 76
-0.179920 -0.222943 0.383040 153 0 76
0.251225 -0.187515 0.712864 153 0 76
-0.128144 0.521649 -0.445028 76 0 153
-0.171866 -0.121850 0.712330 153 0 76
-0.368028 -0.222943 0.711792 153 0 76
-0.469236 -0.222943 0.710779 153 0 76
0.124307 0.158658 -0.305901 153 76 0
-0.551944 0.682800 -0.446345 76 0 153
-0.067856 -0.117806 0.633633 76 0 153
-0.536386 0.721358 -0.475131 76 0 153
0.146335 0.052891 -0.277561 153 76 0
-0.566710 -0.121850 0.337977 153 0 76
-0.378755 -0.121850 -0.198348 153 0 76
-0.302261 -0.222943 0.354955 153 0 76
0.284730 -0.222943 0.208049 153 0 76
0.346101 -0.121850 0.403376 153 0 76
0.424816 -0.023535 -0.298947 76 0 153
0.499499 -0.121850 0.466094 153 0 76
0.260418 -0.222943 0.388908 153 0 76
-0.327054 -0.121850 0.561575 153 0 76
-0.443783 -0.129418 -0.136321 0 127 127
-0.394358 -0.121850 -0.141738 153 0 76
0.327939 -0.121850 0.192273 0 127 127
0.187528 0.473251 -0.432060 76 0 153
-0.540720 -0.222943 0.504263 153 0 76
-0.046214 -0.222943 -0.079673 153 0 76
0.560023 -0.121850 0.176973 153 0 76
-0.263728 -0.218209 0.712864 153 0 76
-0.106230 0.692331 -0.448898 76 0 153
0.533679 -0.121850 0.333629 153 0 76
0.050725 0.612326 -0.427461 153 76 0
-0.476092 0.519955 -0.444574 76 0 153
0.090190 -0.131959 0.209027 153 0 76
0.581877 -0.191764 0.419482 153 0 76
-0.092979 0.608541 -0.468311 76 0 153
0.010223 -0.121850 0.565523 153 0 76
-0.533414 0.688917 -0.489848 76 0 153
0.080469 -0.152654 0.713269 153 0 76
-0.460468 -0.121850 0.538333 153 0 76
0.505730 0.495957 -0.438144 76 0 153
-0.201315 -0.128132 -0.208236 127 0 127
0.178281 -0.121850 0.363566 153 0 76
-0.543418 -0.184960 0.176506 153 0 76
0.259102 0.317238 -0.390257 76 0 153
0.075814 -0.121850 0.364947 153 0 76
0.121474 0.508204 -0.399562 153 76 0
0.034851 0.173417 -0.351720 76 0 153
-0.446251 0.125768 -0.297088 153 76 0
0.506516 -0.222943 -0.133275 153 0 76
-0.291638 -0.222943 0.525397 153 0 76
-0.023097 0.317749 -0.348529 153 76 0
0.160641 -0.222943 0.226942 153 0 76
0.015009 0.552936 -0.453411 76 0 153
-0.024215 0.445420 -0.382739 153 76 0
0.123810 0.134399 -0.341265 76 0 153
-0.336710 -0.222943 0.688397 153 0 76
-0.536430 -0.186434 0.003139 153 0 76
-0.570588 -0.163418 0.555173 153 0 76
0.395200 -0.222943 0.296671 153 0 76
0.329268 0.273151 -0.336580 153 76 0
0.581877 -0.207527 0.369361 153 0 76
0.109254 -0.222943 0.157910 153 0 76
0.581877 -0.214385 -0.071846 153 0 76
-0.145922 -0.121850 -0.137723 153 0 76
-0.089313 -0.131959 0.127046 0 127 127
-0.066198 -0.222943 0.050465 153 0 76
0.568257 -0.222943 0.330348 153 0 76
-0.343235 -0.222943 0.600024 153 0 76
-0.542242 0.621876 -0.430020 76 0 153
0.379139 -0.222943 0.503325 153 0 76
-0.581164 0.071742 -0.283948 76 0 153
-0.096512 0.442772 -0.423893 76 0 153
0.282677 -0.131959 0.303676 153 0 76
0.134003 -0.222943 0.503640 153 0 76
-0.545083 -0.222943 0.648476 153 0 76
0.448773 -0.222943 -0.159215 153 0 76
-0.343233 0.620962 -0.471639 76 0 153
-0.435612 -0.053406 -0.290943 76 0 153
-0.300879 -0.121850 0.327532 153 0 76
-0.152477 0.435494 -0.380079 153 76 0
-0.458420 -0.222943 0.187934 153 0 76
-0.331389 -0.222943 0.013691 153 0 76
-0.522216 -0.121850 0.694002 153 0 76
0.426828 -0.131959 0.226889 0 127 127
0.230644 0.036707 -0.315088 76 0 153
-0.065743 0.107203 -0.333978 76 0 153
-0.146323 -0.222943 0.319030 153 0 76
0.553629 -0.102188 -0.277871 76 0 153
0.105887 -0.121850 0.608431 153 0 76
-0.426246 -0.222943 0.545502 153 0 76
-0.256392 -0.222943 -0.124751 153 0 76
0.484192 -0.021036 -0.299616 76 0 153
0.365744 0.659038 -0.481841 76 0 153
0.338546 -0.131959 -0.025663 0 127 127
0.095404 -0.222943 -0.005962 153 0 76
-0.135803 0.096383 -0.331079 76 0 153
0.323794 -0.222943 0.221555 153 0 76
-0.222575 0.166853 -0.349961 76 0 153
-0.542323 -0.121850 -0.158254 153 0 76
0.465162 -0.222943 0.413114 153 0 76
-0.506630 0.016207 -0.267732 76 0 153
-0.077787 -0.138164 -0.205436 127 0 127
0.333656 -0.222943 0.124187 153 0 76
0.128427 -0.131959 -0.064564 153 0 76
0.180099 -0.121850 -0.036138 153 0 76
-0.040565 0.457420 -0.427818 76 0 153
0.544339 0.504372 -0.398535 76 0 153
0.309274 -0.121850 0.442439 153 0 76
-0.425764 0.441613 -0.381719 153 76 0
0.087090 -0.222943 0.102914 153 0 76
0.452659 -0.131959 0.175165 153 0 76
0.439460 0.203213 -0.317840 153 76 0
-0.581164 0.132038 -0.307524 76 0 153
-0.305463 -0.222943 0.413435 153 0 76
0.044159 -0.121850 -0.040648 0 127 127
-0.491001 -0.222943 -0.173865 153 0 76
0.058824 0.199592 -0.316869 153 76 0
0.412456 -0.222943 0.533706 153 0 76
0.571301 0.337759 -0.380145 76 0 153
-0.000461 0.259794 -0.374864 0 0 255
0.006700 -0.111232 -0.233584 76 0 153
-0.321187 0.474632 -0.390566 153 76 0
-0.049250 -0.222943 0.439746 153 0 76
-0.570588 -0.198536 0.163466 153 0 76
0.288369 -0.121850 -0.112114 0 127 127
0.327630 -0.121850 -0.148358 153 0 76
0.229127 0.345271 -0.397768 76 0 153
-0.255354 -0.222943 0.459181 153 0 76
0.031884 -0.222943 0.083688 153 0 76
-0.050781 -0.121850 0.075769 0 127 127
-0.327240 0.724900 -0.461914 76 0 153
-0.282860 -0.222943 -0.072985 153 0 76
0.320298 0.332826 -0.352569 153 76 0
-0.570588 -0.151173 0.459815 153 0 76
0.098908 0.059159 -0.279241 153 76 0
0.414059 -0.222943 0.390632 153 0 76
0.080817 -0.121850 -0.045224 0 127 127
0.554903 0.661741 -0.440702 76 0 153
-0.506465 -0.222943 0.413775 153 0 76
-0.152691 -0.131959 0.154468 0 127 127
0.106939 0.621300 -0.471730 76 0 153
0.110436 -0.131959 0.306895 0 127 127
0.014476 -0.023616 -0.257061 153 76 0
0.512750 -0.222943 0.061433 153 0 76
0.070602 0.461479 -0.428906 76 0 153
-0.187176 0.520487 -0.444717 76 0 153
0.429574 0.592513 -0.464016 76 0 153
-0.451538 0.698092 -0.450442 76 0 153
-0.278234 -0.131959 0.063602 153 0 76
-0.123681 -0.121850 0.338845 153 0 76
-0.334875 -0.133782 -0.227542 153 0 76
-0.226260 -0.094264 -0.279995 76 0 153
-0.299338 -0.131959 -0.040014 0 127 127
0.481557 0.023240 -0.269616 76 0 153
0.581877 -0.167298 0.366005 153 0 76
0.076221 -0.219726 -0.217195 153 0 76
-0.545806 -0.165899 0.099209 153 0 76
0.121413 -0.222943 -0.026279 153 0 76
0.309991 0.431093 -0.420764 76 0 153
-0.525757 0.161756 -0.306731 153 76 0
0.180941 -0.121850 0.429363 153 0 76
0.203177 -0.121850 0.335786 153 0 76
0.355455 -0.222943 0.301257 153 0 76
-0.456060 -0.131959 -0.049223 0 127 127
-0.233023 0.350713 -0.399226 76 0 153
-0.287053 -0.222943 0.228376 153 0 76
0.147898 -0.013476 -0.301642 76 0 153
-0.545370 -0.222943 0.126332 153 0 76
-0.539164 -0.131959 0.129724 0 127 127
0.032951 -0.131623 -0.006121 0 127 127
-0.395574 0.353580 -0.399994 76 0 153
-0.412001 -0.076909 -0.284645 76 0 153
0.235059 -0.222943 0.684733 153 0 76
0.215451 0.098267 -0.331583 76 0 153
-0.347407 -0.121850 -0.149160 153 0 76
-0.368902 -0.121850 0.583615 153 0 76
-0.367182 -0.096765 -0.237461 76 0 153
-0.155476 0.536247 -0.407076 153 76 0
-0.078930 -0.121850 0.260103 0 127 127
0.218022 -0.131959 0.279501 0 127 127
-0.147136 -0.121850 0.432028 153 0 76
0.066349 -0.222943 0.189100 153 0 76
-0.407818 -0.121850 0.474694 153 0 76
-0.412523 0.305077 -0.386998 76 0 153
-0.113923 -0.222943 0.477950 153 0 76
-0.179391 0.596960 -0.423344 153 76 0
-0.208356 -0.121850 0.347628 153 0 76
0.546520 0.383962 -0.366271 76 0 153
-0.337213 -0.222943 0.392719 153 0 76
-0.493655 -0.152506 -0.264389 76 0 153
-0.031715 -0.153739 -0.176758 153 0 76
-0.156093 -0.121850 0.379191 153 0 76
-0.117044 0.007076 -0.265285 153 76 0
-0.006373 0.351905 -0.399545 0 0 255
-0.229107 0.690738 -0.490335 76 0 153
0.390175 -0.121850 0.190988 0 127 127
0.570789 -0.154439 -0.258131 76 0 153
0.273644 0.474366 -0.390495 153 76 0
0.156188 0.219332 -0.364023 76 0 153
0.465509 0.636397 -0.475775 76 0 153
-0.581164 0.468027 -0.418660 76 0 153
-0.144580 0.188046 -0.313776 153 76 0
-0.424439 -0.121850 0.334573 153 0 76
-0.353531 0.542589 -0.408775 153 76 0
-0.440387 -0.222943 -0.099957 153 0 76
-0.248805 0.414336 -0.374410 153 76 0
-0.059296 -0.222943 0.339565 153 0 76
-0.196727 -0.131959 0.080040 153 0 76
-0.210428 0.724806 -0.457600 76 0 153
0.215121 0.451432 -0.426214 76 0 153
0.450969 -0.085549 -0.282330 76 0 153
0.040393 0.226861 -0.366040 76 0 153
-0.569829 -0.195580 0.685913 153 0 76
0.320634 -0.131959 0.126481 0 127 127
0.385270 -0.222943 -0.118692 153 0 76
-0.069319 -0.121850 -0.104155 0 127 127
-0.502328 -0.222943 -0.117761 153 0 76
0.581877 -0.198911 0.210355 153 0 76
-0.327635 -0.222943 0.062234 153 0 76
0.168026 -0.129590 -0.228665 76 0 153
0.439491 -0.118375 -0.231670 76 0 153
0.549823 -0.131959 0.300394 153 0 76
-0.098572 -0.206204 -0.217195 153 0 76
-0.336374 -0.121850 0.258104 153 0 76
-0.570588 -0.131758 0.211421 153 0 76
-0.230813 -0.131959 0.243614 153 0 76
-0.570588 -0.184412 -0.166121 153 0 76
0.305480 -0.222943 0.315167 153 0 76
-0.028146 -0.062949 -0.288386 76 0 153
-0.256654 -0.121850 0.711729 153 0 76
-0.142111 -0.222943 0.577385 153 0 76
-0.496077 -0.121850 0.079567 0 127 127
0.548175 0.673881 -0.485819 76 0 153
-0.139131 -0.148926 -0.265348 76 0 153
-0.286144 0.363687 -0.402702 76 0 153
-0.210134 -0.222943 0.262717 153 0 76
-0.359518 -0.222943 0.169243 153 0 76
0.018719 -0.121850 0.136458 0 127 127
-0.346874 -0.121850 0.449515 153 0 76
0.333028 -0.190102 0.712864 153 0 76
-0.502955 0.569890 -0.457954 76 0 153
0.163261 -0.222943 0.672410 153 0 76
-0.023866 0.294383 -0.392220 0 0 255
0.023062 0.183824 -0.312644 153 76 0
0.223282 -0.222943 -0.078781 153 0 76
-0.560940 0.586508 -0.462407 76 0 153
-0.153385 -0.121850 0.689074 153 0 76
0.534991 -0.131465 0.712864 153 0 76
0.335003 -0.064590 -0.246082 76 0 153
-0.440024 0.258754 -0.332722 153 76 0
-0.530695 0.279613 -0.380175 76 0 153
-0.194670 0.290380 -0.383060 76 0 153
0.385967 -0.121850 -0.028494 153 0 76
-0.022534 0.403000 -0.413236 76 0 153
-0.047969 -0.131959 0.160898 0 127 127
-0.005040 -0.123204 0.712864 153 0 76
0.238393 -0.027896 -0.297778 76 0 153
0.475539 -0.131959 0.134882 0 127 127
0.452865 -0.128122 0.051702 0 127 127
0.549803 -0.222943 0.298667 153 0 76
0.305361 -0.190452 -0.217195 153 0 76
0.089540 0.302286 -0.386250 76 0 153
0.041385 -0.173010 -0.219486 76 0 153
-0.389512 -0.121850 0.374315 153 0 76
-0.487888 0.436671 -0.422258 76 0 153
-0.500845 0.698728 -0.450612 76 0 153
0.222325 -0.149106 -0.200983 153 0 76
-0.317498 -0.121850 0.608814 153 0 76
-0.554594 -0.142109 -0.267175 76 0 153
0.045092 -0.127703 -0.200713 127 0 127
0.273553 0.434608 -0.379842 153 76 0
0.549123 0.533105 -0.448098 76 0 153
-0.442786 -0.131959 0.109267 153 0 76
-0.257335 0.103396 -0.291094 153 76 0
-0.267527 -0.222943 0.024268 153 0 76
-0.079122 -0.222943 0.488825 153 0 76
-0.416467 0.070922 -0.282393 153 76 0
-0.495927 -0.121850 0.282326 0 127 127
0.187404 -0.222943 0.322211 153 0 76
0.504258 -0.131959 0.156408 153 0 76
0.254138 0.597892 -0.465458 76 0 153
-0.106910 -0.046765 -0.250858 76 0 153
0.075344 -0.222943 0.145533 153 0 76
-0.581164 0.524944 -0.429457 76 0 153
0.055580 -0.121850 -0.142983 153 0 76
-0.570588 -0.152403 0.662693 153 0 76
0.006302 -0.161032 -0.262104 76 0 153
-0.555628 0.363979 -0.402781 76 0 153
0.239871 -0.121850 0.425398 153 0 76
0.151173 -0.222943 0.049241 153 0 76
0.117228 -0.121850 0.453435 153 0 76
0.281344 -0.121850 0.578884 153 0 76
0.200991 -0.121850 0.524633 153 0 76
-0.324604 0.296575 -0.384720 76 0 153
-0.290154 0.473630 -0.432162 76 0 153
-0.581164 0.291011 -0.357348 76 0 153
0.452149 -0.131959 0.282776 153 0 76
-0.578099 -0.154393 -0.228466 76 0 153
-0.000632 0.212923 -0.362305 0 0 255
0.260770 -0.115776 -0.274231 76 0 153
-0.252313 0.164186 -0.307382 153 76 0
0.109751 0.664169 -0.441352 76 0 153
-0.387807 -0.188682 0.712864 153 0 76
0.116634 0.543190 -0.408936 153 76 0
-0.185639 -0.146674 -0.182806 127 0 127
0.247659 -0.122384 0.058413 0 127 127
0.480846 -0.222943 0.068401 153 0 76
0.581877 -0.183320 0.053070 153 0 76
0.015429 0.428708 -0.420125 76 0 153
0.573158 -0.157349 0.072111 153 0 76
0.347909 -0.131959 0.167347 0 127 127
-0.448752 -0.131959 0.291197 0 127 127
0.236993 0.287853 -0.340519 153 76 0
-0.053109 0.166609 -0.308032 153 76 0
-0.008309 -0.131959 -0.050213 153 0 76
0.341878 -0.121850 0.498069 153 0 76
0.080124 0.661083 -0.482389 76 0 153
-0.281192 -0.222943 0.120092 153 0 76
0.302050 -0.222397 0.712864 153 0 76
0.050712 0.598315 -0.465571 76 0 153
-0.304990 0.616618 -0.428611 76 0 153
0.422478 0.370183 -0.362579 153 76 0
-0.426857 0.656335 -0.481117 76 0 153
-0.264609 0.196865 -0.316139 153 76 0
0.551549 -0.130441 0.203635 153 0 76
0.257865 0.535967 -0.407001 153 76 0
-0.468165 0.268251 -0.335267 153 76 0
-0.144587 -0.222943 0.660213 153 0 76
0.170555 -0.121850 0.574106 153 0 76
-0.255395 -0.121850 0.161382 0 127 127
0.422989 -0.222943 0.118393 153 0 76
0.570247 -0.167225 -0.064152 153 0 76
-0.427752 -0.222943 0.659369 153 0 76
-0.421251 -0.126989 -0.007555 0 127 127
-0.206214 -0.222943 0.318284 153 0 76
-0.232434 0.362292 -0.360465 153 76 0
-0.216605 -0.222943 -0.153915 153 0 76
-0.545474 -0.222943 0.617923 153 0 76
-0.281390 -0.222943 0.080285 153 0 76
-0.143630 0.317879 -0.348564 153 76 0
-0.507414 0.084114 -0.327791 76 0 153
-0.382802 0.453337 -0.426724 76 0 153
0.566873 -0.121850 0.464153 153 0 76
0.129727 -0.131959 -0.016050 153 0 76
0.421284 0.633243 -0.474930 76 0 153
0.286545 0.219537 -0.364078 76 0 153
0.207766 -0.201787 -0.217195 153 0 76
-0.012393 -0.185382 -0.217195 153 0 76
-0.275423 -0.177981 -0.238038 76 0 153
0.226082 0.356188 -0.358829 153 76 0
-0.380400 0.098334 -0.331601 76 0 153
0.054010 0.139600 -0.342658 76 0 153
-0.097171 0.547240 -0.410021 153 76 0
-0.001573 -0.222943 -0.037842 153 0 76
0.367086 0.718559 -0.485577 76 0 153
-0.530151 -0.153911 -0.067345 153 0 76
0.478968 -0.121850 -0.192478 153 0 76
0.052264 -0.222943 -0.029477 153 0 76
0.543925 0.201936 -0.317497 76 0 153
0.163561 0.525508 -0.446062 76 0 153
0.008110 0.686470 -0.447328 76 0 153
-0.323826 -0.121850 0.367840 153 0 76
-0.506626 -0.222943 0.318793 153 0 76
0.104201 -0.222943 0.652754 153 0 76
0.143998 -0.222943 0.403918 153 0 76
-0.344557 -0.222943 0.654726 153 0 76
-0.170580 0.013604 -0.267034 153 76 0
0.407663 -0.121850 0.080814 0 127 127
0.347062 0.225492 -0.365673 76 0 153
-0.089273 -0.131959 0.078712 0 127 127
0.052348 0.355896 -0.408702 76 0 153
-0.191235 0.320416 -0.349244 153 76 0
-0.146254 -0.222943 -0.059967 153 0 76
-0.488066 -0.131959 0.146375 0 127 127
-0.101874 -0.121850 0.171452 0 127 127
0.244154 0.182253 -0.354087 76 0 153
0.271799 -0.222943 -0.216998 153 0 76
0.277854 -0.222943 -0.095568 153 0 76
-0.578782 0.197239 -0.316239 76 0 153
-0.539757 -0.131959 -0.084077 0 127 127
-0.437466 -0.121850 0.511929 153 0 76
0.409216 0.605370 -0.425597 153 76 0
-0.307719 -0.199670 -0.217195 153 0 76
-0.113015 0.341180 -0.396672 0 0 255
0.109003 -0.222943 0.399329 153 0 76
0.581877 -0.143143 0.451190 153 0 76
-0.570588 -0.170387 0.367765 153 0 76
-0.570588 -0.139818 0.291679 153 0 76
-0.186237 -0.131959 -0.003272 153 0 76
0.412326 -0.121850 0.419925 153 0 76
-0.135321 -0.070778 -0.244424 76 0 153
0.360567 -0.121850 -0.137697 153 0 76
-0.280715 0.392283 -0.368501 153 76 0
0.206658 -0.222943 -0.168525 153 0 76
-0.195529 0.123507 -0.338346 76 0 153
-0.177095 0.180269 -0.353556 76 0 153
0.020183 -0.170224 -0.176758 153 0 76
0.182922 0.157111 -0.305487 153 76 0
0.252076 0.382887 -0.365983 153 76 0
-0.072751 0.425928 -0.419380 76 0 153
0.571301 0.217223 -0.347575 76 0 153
-0.033142 -0.117881 -0.273667 76 0 153
-0.486977 -0.131959 0.025818 153 0 76
-0.189342 0.535764 -0.406946 153 76 0
-0.301120 0.149453 -0.303435 153 76 0
0.502436 -0.131959 0.067026 153 0 76
-0.205960 -0.222943 0.203071 153 0 76
0.440576 0.420302 -0.417872 76 0 153
-0.200097 0.579174 -0.460442 76 0 153
0.411765 -0.194296 0.712864 153 0 76
-0.477710 -0.222943 0.046204 153 0 76
-0.581164 0.216940 -0.356545 76 0 153
0.016851 -0.222943 0.217128 153 0 76
-0.295053 -0.058244 -0.247782 76 0 153
0.126712 -0.222943 0.186480 153 0 76
-0.330951 0.503993 -0.440297 76 0 153
-0.027385 0.264207 -0.334183 153 76 0
0.067623 -0.222943 -0.120161 153 0 76
0.516745 -0.222943 0.558076 153 0 76
0.581877 -0.219245 -0.101952 153 0 76
-0.075076 -0.222943 0.214633 153 0 76
-0.443729 0.603243 -0.425027 153 76 0
-0.511001 0.094080 -0.288598 153 76 0
-0.036726 -0.222943 0.653706 153 0 76
0.191100 0.681525 -0.487867 76 0 153
-0.472328 0.435104 -0.379975 153 76 0
-0.152821 0.277732 -0.337807 153 76 0
-0.139117 -0.203934 -0.217195 153 0 76
-0.404339 0.693754 -0.491144 76 0 153
-0.211991 0.505181 -0.440615 76 0 153
-0.332605 0.673893 -0.443958 76 0 153
0.308697 -0.121850 0.366202 153 0 76
-0.122306 0.588999 -0.463075 76 0 153
0.405767 -0.121850 0.519743 153 0 76
-0.433137 -0.222943 0.269766 153 0 76
0.447544 0.628581 -0.431817 153 76 0
0.057591 0.266633 -0.376697 0 0 255
-0.114640 -0.222943 0.383682 153 0 76
-0.156392 -0.222943 0.440091 153 0 76
-0.449822 0.381728 -0.407536 76 0 153
-0.049086 0.651203 -0.479742 76 0 153
-0.406860 -0.121850 0.643395 153 0 76
0.076491 -0.118454 -0.231649 76 0 153
-0.537365 -0.222943 0.188094 153 0 76
0.033317 -0.122574 0.185259 153 0 76
-0.103784 -0.222943 0.448605 153 0 76
-0.351037 -0.222943 -0.040184 153 0 76
-0.459673 0.313324 -0.347344 153 76 0
-0.451823 -0.121850 0.600731 153 0 76
0.445113 -0.121850 -0.141589 153 0 76
0.497302 0.239385 -0.327532 76 0 153
-0.581164 0.412862 -0.402546 76 0 153
0.317626 0.019892 -0.268719 153 76 0
0.133284 -0.182724 -0.255736 76 0 153
-0.184686 0.718993 -0.483957 76 0 153
-0.343865 -0.131959 -0.044122 153 0 76
0.180328 -0.178273 -0.239126 76 0 153
-0.567539 -0.134663 -0.196849 153 0 76
-0.132842 -0.121850 0.115942 153 0 76
-0.159074 -0.131959 0.204005 0 127 127
0.048271 0.552875 -0.453395 76 0 153
0.114392 0.103039 -0.290998 153 76 0
-0.096271 0.196696 -0.366045 76 0 153
0.068247 -0.070636 -0.286326 76 0 153
0.443325 0.206080 -0.360472 76 0 153
0.369230 0.519271 -0.402527 153 76 0
0.012494 -0.121850 0.088360 0 127 127
-0.240379 0.268208 -0.335255 153 76 0
0.482658 -0.121850 0.641376 153 0 76
-0.038420 -0.222943 0.522969 153 0 76
-0.295299 -0.121850 -0.177809 153 0 76
0.370328 -0.222943 0.576592 153 0 76
0.491069 -0.121850 0.501249 153 0 76
0.242568 0.059969 -0.279457 153 76 0
-0.160802 0.072265 -0.324616 76 0 153
-0.130037 0.397618 -0.411794 76 0 153
0.555701 -0.222943 0.504575 153 0 76
-0.306112 -0.139875 0.712864 153 0 76
-0.557895 0.299058 -0.343521 76 0 153
0.065163 0.095938 -0.289096 153 76 0
0.533455 0.417278 -0.417062 76 0 153
-0.464642 -0.180246 -0.246490 76 0 153
-0.194392 -0.222943 -0.032104 153 0 76
0.124674 -0.151002 -0.176758 153 0 76
-0.307149 -0.121850 0.582064 153 0 76
-0.354680 -0.121850 0.665893 153 0 76
0.571301 0.629616 -0.461250 76 0 153
-0.477665 0.376574 -0.364292 153 76 0
-0.352295 -0.131959 0.157782 0 127 127
0.371010 -0.222943 -0.215257 153 0 76
-0.178531 -0.121850 0.337270 153 0 76
0.234850 -0.222943 0.285178 153 0 76
0.378675 0.203826 -0.318004 153 76 0
-0.154206 0.690770 -0.448480 76 0 153
-0.315695 -0.050771 -0.291649 76 0 153
-0.294086 0.541544 -0.450359 76 0 153
0.203848 -0.131959 0.095018 0 127 127
-0.200806 0.405233 -0.371971 153 76 0
-0.201849 -0.121850 0.563319 153 0 76
-0.093100 -0.222943 0.339417 153 0 76
0.473856 0.546576 -0.409844 153 76 0
0.169003 0.352394 -0.399676 76 0 153
-0.218050 -0.222943 0.633658 153 0 76
0.355123 -0.121850 0.100346 153 0 76
0.456101 -0.121850 0.332462 153 0 76
-0.570588 -0.149681 -0.032458 153 0 76
0.548770 0.703522 -0.451897 76 0 153
0.339994 -0.123487 0.308490 153 0 76
0.494231 0.666813 -0.442061 76 0 153
0.467141 0.311679 -0.388767 76 0 153
0.011235 -0.131959 0.042133 0 127 127
-0.303568 -0.222943 -0.120637 153 0 76
0.287328 -0.222943 0.596327 153 0 76
0.026694 -0.222943 0.581824 153 0 76
-0.064456 0.125046 -0.296895 153 76 0
0.418825 -0.222943 0.066965 153 0 76
-0.244897 -0.121850 -0.040086 0 127 127
0.113292 0.719982 -0.480265 76 0 153
0.213629 0.039065 -0.273856 153 76 0
-0.397930 0.116460 -0.294594 153 76 0
-0.570588 -0.143121 0.423786 153 0 76
-0.443287 -0.222943 0.061830 153 0 76
0.043460 -0.117806 0.546301 153 0 76
-0.082397 -0.222943 0.393279 153 0 76
-0.468609 -0.222943 0.367818 153 0 76
-0.198149 -0.121850 0.619713 153 0 76
0.389910 0.131555 -0.298639 153 76 0
-0.300830 0.670043 -0.442926 76 0 153
-0.011322 0.121077 -0.337695 76 0 153
0.308980 -0.222943 0.021415 153 0 76
-0.382704 -0.222943 0.508199 153 0 76
0.012145 -0.133761 -0.269412 76 0 153
-0.534148 -0.188110 -0.217454 153 0 76
-0.053987 -0.222943 0.688285 153 0 76
0.365717 -0.131959 0.224024 153 0 76
0.434130 -0.121850 -0.001596 0 127 127
-0.569603 -0.121850 -0.134207 153 0 76
-0.094931 -0.222943 0.582354 153 0 76
0.352715 -0.222943 -0.152879 153 0 76
-0.029889 0.675206 -0.444310 76 0 153
0.127488 0.185420 -0.313072 153 76 0
0.376084 -0.222943 -0.082476 153 0 76
-0.158923 0.409560 -0.373130 153 76 0
0.107789 -0.127799 -0.199980 127 0 127
0.566293 0.483696 -0.434859 76 0 153
0.566310 -0.157349 -0.024156 153 0 76
-0.348974 -0.185563 -0.217195 153 0 76
0.462958 -0.208340 -0.217195 153 0 76
0.063165 -0.121850 0.276136 0 127 127
0.055296 -0.131959 0.071775 0 127 127
0.011366 0.077352 -0.284115 153 76 0
-0.299717 -0.131959 -0.098810 153 0 76
0.251190 0.407758 -0.414511 76 0 153
0.151644 -0.222943 0.351961 153 0 76
0.441329 -0.121850 0.553805 153 0 76
0.415943 -0.222943 -0.068440 153 0 76
-0.098986 -0.222943 0.532443 153 0 76
0.409973 -0.222943 0.690302 153 0 76
0.448486 -0.222943 0.511510 153 0 76
0.215383 -0.222943 0.648390 153 0 76
-0.528258 -0.006805 -0.261565 76 0 153
-0.144422 -0.195636 0.712864 153 0 76
-0.318381 -0.178245 -0.239023 76 0 153
-0.067137 0.207765 -0.360923 0 0 255
0.367741 -0.194274 0.712864 153 0 76
0.064578 0.311359 -0.346817 153 76 0
0.449719 -0.131959 0.144388 0 127 127
0.286860 -0.222943 0.535344 153 0 76
-0.456878 0.075356 -0.283580 153 76 0
0.092963 -0.131959 -0.014496 153 0 76
0.235748 0.175447 -0.310400 153 76 0
0.542994 -0.006826 -0.303424 76 0 153
-0.039815 -0.222943 -0.150624 153 0 76
-0.275049 0.451458 -0.426221 76 0 153
-0.551769 0.218041 -0.321813 76 0 153
-0.120005 -0.119852 0.530896 76 0 153
-0.263684 -0.121850 0.010974 0 127 127
-0.554881 0.000649 -0.305427 76 0 153
-0.054548 -0.203391 -0.217195 153 0 76
0.581049 -0.157349 0.203218 153 0 76
0.433865 0.725735 -0.458798 76 0 153
-0.511949 -0.122278 -0.230625 76 0 153
0.091946 0.559700 -0.413360 153 76 0
0.119120 -0.222943 0.600711 153 0 76
0.402174 -0.095493 -0.279665 76 0 153
0.360439 -0.222943 0.689773 153 0 76
0.517466 0.718633 -0.485300 76 0 153
-0.434407 0.475708 -0.432718 76 0 153
0.050267 -0.131959 0.127596 0 127 127
-0.471202 -0.121850 0.056918 0 127 127
0.323947 -0.222943 0.409643 153 0 76
0.398547 -0.222943 -0.186076 153 0 76
0.440348 0.566315 -0.456996 76 0 153
0.222601 -0.177429 -0.235976 76 0 153
0.044929 -0.154416 0.712864 153 0 76
-0.490581 -0.165075 -0.219157 153 0 76
0.225843 0.460769 -0.386852 153 76 0
-0.552025 0.383288 -0.366091 76 0 153
-0.570588 -0.164391 0.150744 153 0 76
-0.199201 -0.222943 0.541119 153 0 76
-0.417631 -0.052253 -0.249388 76 0 153
0.211980 -0.222943 0.047959 153 0 76
0.441238 0.044853 -0.275407 153 76 0
0.468813 0.492142 -0.395258 76 0 153
0.561857 -0.164188 -0.214009 153 0 76
0.570275 -0.121850 -0.039171 153 0 76
-0.293183 0.342974 -0.355289 153 76 0
0.520297 -0.121850 0.598596 153 0 76
-0.570588 -0.152282 -0.156591 153 0 76
0.265895 0.550590 -0.452783 76 0 153
-0.367390 0.283748 -0.339419 153 76 0
0.160197 -0.222943 -0.067137 153 0 76
0.066217 0.694535 -0.449489 76 0 153
0.520244 0.661601 -0.482528 76 0 153
0.227095 -0.121850 -0.051100 0 127 127
0.108899 -0.222943 -0.161131 153 0 76
-0.525233 -0.121850 0.380286 153 0 76
-0.367687 -0.030481 -0.297085 76 0 153
-0.352860 -0.121850 0.511903 153 0 76
-0.163776 0.342426 -0.397006 76 0 153
-0.218910 -0.089530 -0.239399 76 0 153
-0.408531 -0.195292 -0.217195 153 0 76
0.102683 -0.222943 0.235514 153 0 76
0.033951 -0.129055 -0.122690 0 127 127
-0.288007 -0.019935 -0.258047 153 76 0
0.111328 -0.121850 0.698411 153 0 76
0.473731 -0.035629 -0.253842 76 0 153
0.581877 -0.128959 0.538757 153 0 76
-0.520315 -0.222943 -0.193341 153 0 76
-0.198326 -0.121850 0.500701 153 0 76
-0.180394 0.664702 -0.483359 76 0 153
-0.098496 0.634480 -0.475261 76 0 153
-0.481723 -0.121850 0.652520 153 0 76
0.009657 0.329979 -0.401758 76 0 153
-0.229801 -0.222943 0.226759 153 0 76
0.216687 0.699109 -0.450715 76 0 153
-0.299184 0.110677 -0.293045 153 76 0
0.264456 -0.222943 0.347026 153 0 76
-0.027568 0.118357 -0.295103 153 76 0
0.168509 0.332635 -0.352518 153 76 0
-0.335658 -0.222943 0.316898 153 0 76
-0.346411 -0.222943 0.240574 153 0 76
0.571301 0.662996 -0.468611 76 0 153
-0.085388 -0.155152 -0.176758 153 0 76
0.159707 0.080412 -0.326799 76 0 153
0.093642 0.125185 -0.296932 153 76 0
0.094528 -0.121850 -0.172395 153 0 76
0.130407 -0.143785 -0.224862 127 0 127
0.296354 -0.121850 0.282489 0 127 127
0.434777 -0.045052 -0.251317 76 0 153
0.181475 0.608670 -0.426482 153 76 0
-0.329223 0.241697 -0.370015 76 0 153
0.427720 -0.131959 -0.035303 0 127 127
-0.175430 0.451079 -0.384255 153 76 0
-0.232722 -0.062798 -0.288426 76 0 153
0.196682 -0.222943 0.098350 153 0 76
0.571301 0.603748 -0.436211 76 0 153
-0.234052 -0.222943 0.315848 153 0 76
-0.433425 0.221186 -0.364520 76 0 153
0.236585 0.132094 -0.340647 76 0 153
0.038630 -0.189421 0.712864 153 0 76
0.014754 -0.222943 0.418731 153 0 76
0.317640 0.379913 -0.365186 153 76 0
0.525327 -0.166283 0.712864 153 0 76
0.178965 -0.172397 -0.203445 153 0 76
0.061807 0.034837 -0.272724 153 76 0
-0.251387 -0.222943 0.592949 153 0 76
0.267982 -0.121850 -0.137236 153 0 76
0.385061 -0.222943 0.071842 153 0 76
-0.092152 0.012990 -0.308733 76 0 153
-0.176736 -0.131959 0.101343 153 0 76
-0.205150 -0.121850 0.664562 153 0 76
0.206188 -0.114310 -0.274623 76 0 153
0.069893 0.644853 -0.436177 76 0 153
0.063844 -0.131959 0.178216 0 127 127
-0.271971 -0.121850 -0.081051 0 127 127
0.436610 -0.222943 0.342167 153 0 76
-0.460509 0.037775 -0.273511 153 76 0
0.156656 0.165588 -0.349622 76 0 153
-0.079797 0.458595 -0.386269 153 76 0
-0.399338 -0.121850 0.536813 153 0 76
0.190982 -0.052280 -0.291244 76 0 153
0.563314 -0.222943 -0.021925 153 0 76
0.571301 -0.011320 -0.270831 76 0 153
0.073229 0.095335 -0.330798 76 0 153
-0.493369 0.193391 -0.357072 76 0 153
-0.280428 -0.121850 0.592846 153 0 76
-0.407467 0.576203 -0.459646 76 0 153
0.581877 -0.127691 0.349064 153 0 76
-0.522905 0.525998 -0.446194 76 0 153
-0.570588 -0.162657 0.204110 153 0 76
-0.533015 -0.158359 0.003422 153 0 76
0.581877 -0.140577 0.131007 153 0 76
0.110384 0.011166 -0.308245 76 0 153
0.234706 -0.131959 -0.104446 153 0 76
0.281810 0.551291 -0.411107 153 76 0
-0.372586 -0.222943 0.651763 153 0 76
-0.510794 -0.039346 -0.252846 76 0 153
0.117897 -0.156917 0.712864 153 0 76
0.507076 -0.000754 -0.305051 76 0 153
-0.287644 -0.222943 -0.026339 153 0 76
-0.581164 0.304157 -0.380937 76 0 153
0.017166 -0.222943 0.150485 153 0 76
0.315121 -0.222943 0.075473 153 0 76
-0.378569 -0.222943 0.428078 153 0 76
0.020515 0.508977 -0.441633 76 0 153
0.167393 0.195096 -0.315665 153 76 0
0.518145 -0.121850 0.407573 153 0 76
0.064012 0.167122 -0.350033 76 0 153
-0.504340 -0.121850 0.480677 153 0 76
0.367528 0.603728 -0.467021 76 0 153
0.486739 -0.222943 0.395895 153 0 76
0.447734 0.269163 -0.335511 153 76 0
-0.549493 -0.222943 -0.125349 153 0 76
-0.580968 0.274656 -0.378847 76 0 153
0.364477 0.634877 -0.433504 76 0 153
0.228689 -0.222943 0.517474 153 0 76
0.511097 0.349809 -0.357120 76 0 153
0.581877 -0.137684 0.176373 153 0 76
-0.558822 0.663337 -0.482993 76 0 153
0.095239 -0.131959 0.261050 153 0 76
0.494238 -0.222943 0.511918 153 0 76
-0.356713 0.625207 -0.430913 153 76 0
-0.201508 0.254133 -0.373347 76 0 153
0.369468 0.057756 -0.320728 76 0 153
-0.364162 0.446396 -0.383000 153 76 0
-0.060821 -0.195435 0.712864 153 0 76
0.514688 -0.071435 -0.286112 76 0 153
0.303673 0.114181 -0.293984 153 76 0
-0.581164 -0.098792 -0.253345 76 0 153
0.462856 0.175150 -0.352184 76 0 153
0.091580 -0.091025 -0.280863 76 0 153
0.310246 0.298386 -0.385205 76 0 153
-0.519991 0.635458 -0.475523 76 0 153
-0.309346 -0.131959 0.236053 0 127 127
0.581877 -0.199756 0.559675 153 0 76
0.039803 -0.180185 -0.246262 76 0 153
0.336035 -0.222943 0.677865 153 0 76
-0.554767 -0.121850 0.574557 153 0 76
0.330556 0.087879 -0.286936 153 76 0
-0.570588 -0.216856 0.015196 153 0 76
-0.348968 0.704085 -0.452048 76 0 153
-0.169884 -0.099945 -0.278472 76 0 153
-0.176459 -0.222902 -0.217195 153 0 76
0.429245 -0.222943 0.195677 153 0 76
-0.298502 0.539827 -0.408035 153 76 0
0.516197 -0.222943 0.436011 153 0 76
-0.133702 0.090740 -0.287703 153 76 0
0.338800 -0.134144 0.712864 153 0 76
-0.269826 0.630992 -0.432463 76 0 153
-0.047796 0.424759 -0.377203 153 76 0
0.383443 0.504190 -0.440350 76 0 153
0.536974 0.180861 -0.353714 76 0 153
-0.201973 -0.222943 0.084942 153 0 76
0.318759 -0.093222 -0.280274 76 0 153
0.420890 0.539520 -0.449817 76 0 153
-0.555674 -0.183567 0.262542 153 0 76
0.227164 -0.121850 0.625585 153 0 76
-0.570588 -0.200414 -0.077048 153 0 76
-0.492104 0.031326 -0.313647 76 0 153
0.376076 0.143634 -0.343739 76 0 153
0.503827 -0.131959 0.030305 0 127 127
0.505616 0.027209 -0.312543 76 0 153
-0.232297 0.621640 -0.471821 76 0 153
-0.058754 0.285237 -0.381682 76 0 153
-0.133141 -0.222943 0.017206 153 0 76
0.314501 0.191876 -0.356666 76 0 153
0.384598 -0.222943 0.644908 153 0 76
-0.286731 0.021828 -0.269238 153 76 0
0.335241 0.664441 -0.441425 76 0 153
0.571301 0.467066 -0.389796 76 0 153
0.136274 0.374214 -0.363659 153 76 0
-0.568771 -0.222943 0.112555 153 0 76
0.164401 -0.121850 0.279720 0 127 127
-0.154114 -0.121850 0.522690 153 0 76
0.332095 -0.121850 0.524555 153 0 76
0.282748 0.365280 -0.403129 76 0 153
0.465506 0.102412 -0.332694 76 0 153
0.548484 0.103533 -0.332994 76 0 153
-0.559254 -0.222943 0.310644 153 0 76
-0.105741 0.402907 -0.371348 153 76 0
0.571301 0.410885 -0.377936 76 0 153
0.374782 -0.044858 -0.251369 76 0 153
-0.424568 0.530566 -0.447417 76 0 153
0.530665 0.072463 -0.324669 76 0 153
-0.142929 -0.222943 0.691696 153 0 76
0.115903 -0.131959 0.226086 0 127 127
0.248903 -0.222943 0.313430 153 0 76
-0.284236 -0.131959 0.271731 153 0 76
0.061815 0.511988 -0.442440 76 0 153
-0.338936 -0.222943 -0.156513 153 0 76
0.508860 -0.203394 -0.217195 153 0 76
-0.426641 -0.222943 -0.188987 153 0 76
0.486965 -0.222943 0.325755 153 0 76
0.340565 0.645285 -0.478156 76 0 153
0.136159 -0.204473 0.712864 153 0 76
0.131276 -0.121850 0.012687 0 127 127
-0.171766 0.485899 -0.393585 153 76 0
0.019068 -0.121850 0.417066 153 0 76
-0.378064 0.532348 -0.447895 76 0 153
0.542071 0.610958 -0.427095 76 0 153
0.250015 0.084467 -0.327886 76 0 153
0.427582 -0.121850 0.284837 0 127 127
0.494750 0.280818 -0.380498 76 0 153
0.578668 -0.121850 0.511274 153 0 76
-0.056037 0.205768 -0.318524 153 76 0
-0.542530 -0.110081 -0.233893 76 0 153
0.114065 0.690432 -0.490254 76 0 153
-0.154721 -0.222943 0.476853 153 0 76
-0.143479 -0.222943 0.606579 153 0 76
0.273576 0.256396 -0.332090 153 76 0
0.219116 0.306967 -0.345640 153 76 0
-0.060424 0.154198 -0.346570 76 0 153
0.239193 0.507213 -0.441160 76 0 153
-0.558176 -0.184960 0.082071 153 0 76
0.170397 -0.222943 -0.039527 153 0 76
0.581877 -0.186257 -0.119626 153 0 76
0.150370 0.235598 -0.326517 153 76 0
-0.222989 -0.131959 0.300695 153 0 76
-0.088273 -0.159675 -0.220604 76 0 153
-0.282521 0.610119 -0.468734 76 0 153
-0.558067 0.226138 -0.365846 76 0 153
0.566705 -0.121850 0.049265 153 0 76
-0.052464 0.617081 -0.428735 153 76 0
-0.521431 0.453603 -0.384931 76 0 153
-0.235877 0.721511 -0.474562 76 0 153
0.112984 -0.121850 0.367143 153 0 76
0.581877 -0.151742 -0.161496 153 0 76
0.418143 0.672467 -0.443576 76 0 153
-0.096796 0.369095 -0.404152 0 0 255
0.048396 -0.121850 -0.084847 0 127 127
-0.544383 -0.121850 0.620722 153 0 76
0.056960 0.720474 -0.456439 76 0 153
0.083892 0.428751 -0.378273 153 76 0
-0.080285 -0.142880 -0.266968 76 0 153
-0.231808 0.490852 -0.394912 153 76 0
0.121863 0.396667 -0.369675 153 76 0
0.078772 0.282354 -0.339046 153 76 0
0.528486 -0.121850 0.631115 153 0 76
-0.343047 -0.131959 0.066418 0 127 127
0.421549 -0.079615 -0.242056 76 0 153
0.155214 -0.031249 -0.255016 76 0 153
-0.549566 -0.144907 -0.214431 153 0 76
0.544867 0.253617 -0.331345 76 0 153
0.258172 -0.222943 0.416692 153 0 76
-0.501144 0.399611 -0.412328 76 0 153
-0.020370 -0.155928 -0.200676 127 0 127
-0.237383 -0.222943 -0.064523 153 0 76
-0.475445 0.493671 -0.437532 76 0 153
-0.256338 -0.121850 0.580716 153 0 76
-0.023020 -0.131959 0.270505 153 0 76
-0.458409 0.721066 -0.476220 76 0 153
-0.184364 -0.222943 0.567878 153 0 76
-0.262560 -0.065292 -0.245894 76 0 153
0.298715 0.292000 -0.341630 153 76 0
-0.073227 -0.054744 -0.248720 76 0 153
0.581877 -0.194928 0.252510 153 0 76
0.036579 -0.222943 -0.215611 153 0 76
-0.026951 0.056888 -0.320496 76 0 153
-0.061236 -0.222943 0.106925 153 0 76
-0.207269 -0.121850 0.132817 0 127 127
0.511983 0.010791 -0.266280 76 0 153
0.185854 0.116144 -0.336374 76 0 153
-0.147920 -0.131959 0.305753 153 0 76
-0.505746 0.611858 -0.469200 76 0 153
0.499565 0.502612 -0.398063 76 0 153
-0.527948 0.400255 -0.412501 76 0 153
0.232525 0.585091 -0.420164 153 76 0
-0.011870 0.139483 -0.300763 153 76 0
-0.570588 -0.200821 -0.123650 153 0 76
0.541440 -0.161986 0.169097 153 0 76
-0.053132 0.336740 -0.395482 0 0 255
-0.084079 -0.222943 0.556406 153 0 76
0.167013 -0.194738 0.712864 153 0 76
0.246757 0.686951 -0.489321 76 0 153
0.290837 0.063845 -0.280496 153 76 0
0.098607 0.597044 -0.423366 153 76 0
0.191253 0.224091 -0.365298 76 0 153
-0.317515 0.370779 -0.404603 76 0 153
0.412814 0.492276 -0.395294 153 76 0
-0.282116 0.718937 -0.484167 76 0 153
0.507898 0.046449 -0.275835 76 0 153
0.326768 -0.121850 0.099723 0 127 127
0.337734 -0.222943 -0.061232 153 0 76
0.309994 0.626286 -0.431202 153 76 0
-0.331776 -0.131959 0.013433 153 0 76
-0.521034 -0.131959 0.110655 0 127 127
-0.473962 -0.121850 -0.027648 0 127 127
-0.526961 -0.131959 -0.108354 153 0 76
-0.209674 -0.124398 0.028879 153 0 76
-0.191313 -0.222943 -0.190192 153 0 76
0.404956 -0.222943 0.435318 153 0 76
0.389563 0.584731 -0.461931 76 0 153
0.473560 -0.105865 -0.235023 76 0 153
0.514233 -0.121850 0.187871 153 0 76
-0.106188 -0.025374 -0.298454 76 0 153
-0.042714 -0.222943 -0.049603 153 0 76
-0.121679 0.265271 -0.334468 153 76 0
0.571301 0.213310 -0.320692 76 0 153
0.340095 -0.222943 0.033641 153 0 76
-0.418644 -0.131959 -0.129202 153 0 76
0.317021 0.140253 -0.342833 76 0 153
0.004540 -0.222943 0.533728 153 0 76
0.294803 -0.017219 -0.300639 76 0 153
-0.298304 -0.222943 0.687389 153 0 76
-0.003444 -0.222943 0.669484 153 0 76
-0.351069 -0.134615 0.712864 153 0 76
-0.456845 -0.222943 0.562489 153 0 76
-0.484780 -0.222943 0.594078 153 0 76
0.544352 -0.157349 0.329410 153 0 76
0.581877 -0.124656 0.252725 153 0 76
-0.297635 0.418285 -0.417332 76 0 153
0.006427 0.079269 -0.326493 76 0 153
0.477642 -0.131959 -0.018453 0 127 127
0.048305 0.366229 -0.361520 153 76 0
0.550707 -0.121850 0.431734 153 0 76
-0.168993 0.580535 -0.460807 76 0 153
0.240310 0.241281 -0.369904 76 0 153
0.128732 0.402223 -0.413028 76 0 153
0.260188 -0.222943 0.677296 153 0 76
-0.581164 0.332197 -0.371505 76 0 153
-0.134288 0.652998 -0.480223 76 0 153
0.194816 -0.121850 -0.139015 153 0 76
0.131522 0.573583 -0.458944 76 0 153
0.230029 -0.222943 -0.008903 153 0 76
0.170160 0.635398 -0.433643 76 0 153
-0.431779 0.175464 -0.352268 76 0 153
0.270201 -0.121850 -0.188882 153 0 76
-0.461428 0.591953 -0.463866 76 0 153
-0.556455 0.258990 -0.332785 76 0 153
-0.052140 0.085602 -0.328190 76 0 153
0.179200 -0.222943 -0.108860 153 0 76
-0.039206 -0.034992 -0.254013 76 0 153
0.214646 -0.121850 0.558925 153 0 76
-0.360740 -0.222943 0.379651 153 0 76
-0.029176 0.196136 -0.357807 0 0 255
0.160364 0.689974 -0.490131 76 0 153
-0.474323 -0.222943 0.236027 153 0 76
0.071546 -0.041643 -0.252231 76 0 153
0.298239 0.244910 -0.370876 76 0 153
0.370151 -0.121850 0.138046 0 127 127
0.226250 0.643023 -0.435686 76 0 153
0.054610 0.266978 -0.334926 153 76 0
-0.347670 0.133721 -0.299219 153 76 0
-0.107165 -0.121850 0.606858 76 0 153
-0.523116 0.585866 -0.462235 76 0 153
0.326230 -0.222943 -0.016449 153 0 76
0.008167 -0.131959 -0.125189 153 0 76
0.568904 -0.222943 0.428028 153 0 76
0.231036 -0.121850 -0.169886 153 0 76
0.472713 -0.222943 0.127247 153 0 76
0.335734 -0.221308 -0.217195 153 0 76
-0.517984 -0.121850 -0.190585 153 0 76
0.565435 -0.167225 0.246638 153 0 76
-0.482609 0.178803 -0.311299 153 76 0
0.261508 0.632640 -0.432904 76 0 153
0.460863 0.472246 -0.431791 76 0 153
-0.107645 -0.131959 -0.062094 153 0 76
-0.402090 0.401630 -0.412869 76 0 153
-0.424514 -0.121850 -0.182555 153 0 76
0.170840 -0.121850 0.129774 0 127 127
-0.085839 0.247342 -0.329664 153 76 0
-0.056801 -0.142104 -0.176758 153 0 76
-0.490987 -0.222943 0.385469 153 0 76
-0.153247 -0.222943 0.213300 153 0 76
0.485511 -0.222943 0.453817 153 0 76
0.232919 -0.222943 0.386629 153 0 76
-0.131258 0.450330 -0.384055 153 76 0
0.460943 -0.121850 0.610994 153 0 76
0.336847 0.289575 -0.382844 76 0 153
0.084895 0.121387 -0.337778 76 0 153
-0.553715 -0.121850 -0.106519 153 0 76
0.555173 -0.140296 0.672427 153 0 76
-0.388147 -0.131959 0.117820 0 127 127
0.482169 0.226678 -0.365991 76 0 153
0.396900 0.275932 -0.337325 153 76 0
-0.380482 -0.222943 0.014340 153 0 76
-0.226897 0.610951 -0.427093 153 76 0
-0.360280 -0.121850 0.205149 0 127 127
0.519362 -0.222943 0.016956 153 0 76
-0.113733 -0.222943 -0.023294 153 0 76
0.113251 0.292108 -0.383523 76 0 153
0.060431 0.405105 -0.413800 76 0 153
-0.192186 -0.131959 -0.028522 0 127 127
0.400163 -0.154079 -0.263967 76 0 153
0.571301 0.299915 -0.347889 76 0 153
0.247931 0.294635 -0.384200 76 0 153
-0.184923 -0.121850 0.393087 153 0 76
0.154326 -0.222943 0.014769 153 0 76
-0.402854 -0.222943 0.185682 153 0 76
-0.569113 -0.222943 -0.039239 153 0 76
-0.507494 -0.121850 -0.062187 0 127 127
0.116527 -0.222943 0.449042 153 0 76
0.034008 -0.121850 0.294157 0 127 127
-0.416000 -0.222943 -0.127653 153 0 76
0.123874 -0.121850 0.557674 76 0 153
-0.024642 -0.131959 0.046082 0 127 127
-0.225926 0.080157 -0.326731 76 0 153
0.372691 -0.121850 -0.207374 153 0 76
-0.316274 0.639564 -0.476623 76 0 153
-0.185125 -0.156871 -0.263219 76 0 153
0.294161 -0.121850 0.507900 153 0 76
-0.308836 0.720047 -0.480026 76 0 153
0.462427 -0.123570 -0.272142 76 0 153
0.028862 -0.121850 0.694050 153 0 76
0.140983 0.423944 -0.376984 153 76 0
0.100486 -0.222943 0.471085 153 0 76
-0.054131 -0.157196 -0.200336 127 0 127
-0.188097 -0.121850 -0.175910 153 0 76
0.142541 -0.222943 -0.180035 153 0 76
-0.495952 0.659252 -0.440035 76 0 153
-0.042679 0.238683 -0.327344 153 76 0
-0.108581 -0.121850 0.659031 153 0 76
0.530482 -0.222943 -0.068109 153 0 76
-0.263767 -0.121850 -0.199645 153 0 76
-0.554693 0.570026 -0.416127 76 0 153
-0.096765 -0.222943 -0.065975 153 0 76
0.324231 0.017603 -0.309969 76 0 153
-0.241620 0.321767 -0.349606 153 76 0
0.125343 -0.222943 0.571196 153 0 76
0.054205 -0.222943 0.242477 153 0 76
0.160649 0.451323 -0.426184 76 0 153
-0.286268 -0.222943 0.660283 153 0 76
-0.497860 -0.121850 0.448336 153 0 76
-0.089225 -0.222943 -0.114649 153 0 76
-0.174806 -0.222943 0.108255 153 0 76
-0.025188 -0.222943 -0.192596 153 0 76
0.457516 0.011729 -0.308396 76 0 153
-0.174445 0.170777 -0.309149 153 76 0
0.578897 -0.121850 0.297881 153 0 76
0.039413 0.295696 -0.384484 76 0 153
-0.160831 -0.124441 -0.230045 127 0 127
-0.341601 0.422971 -0.376724 153 76 0
-0.201500 0.335303 -0.395097 76 0 153
0.112846 -0.222943 0.101365 153 0 76
-0.247079 -0.131959 0.139147 0 127 127
-0.188142 -0.143024 -0.225066 76 0 153
-0.158140 -0.222943 0.351519 153 0 76
0.263708 0.191411 -0.314677 153 76 0
-0.295569 -0.222943 0.258217 153 0 76
0.221863 0.496219 -0.396351 153 76 0
-0.036996 -0.222943 0.152353 153 0 76
0.358045 0.528893 -0.446969 76 0 153
0.312888 0.555139 -0.454002 76 0 153
0.001490 -0.121850 0.614521 76 0 153
0.070781 -0.121850 0.394024 153 0 76
-0.443235 -0.222943 0.007952 153 0 76
0.393502 -0.121850 0.476095 153 0 76
0.462161 -0.125494 -0.087796 153 0 76
-0.473738 -0.121850 0.378062 153 0 76
-0.138690 -0.169386 -0.205958 153 0 76
0.016734 0.231360 -0.325382 153 76 0
0.509727 -0.121850 0.678947 153 0 76
0.383850 -0.222943 0.380567 153 0 76
-0.463340 -0.222943 0.469746 153 0 76
-0.413532 0.627796 -0.431606 76 0 153
-0.312605 -0.015125 -0.301200 76 0 153
0.516124 -0.131959 -0.016713 0 127 127
0.161636 -0.121850 0.496239 153 0 76
-0.393735 -0.222943 0.531773 153 0 76
-0.079315 -0.222943 0.125189 153 0 76
0.305228 -0.121850 0.009849 153 0 76
-0.533066 -0.051055 -0.291573 76 0 153
0.474334 0.046774 -0.317786 76 0 153
0.003123 0.028979 -0.271154 153 76 0
0.176692 0.582890 -0.419574 153 76 0
-0.205229 -0.222943 0.449285 153 0 76
-0.351087 0.286542 -0.382031 76 0 153
-0.148524 -0.222943 0.070653 153 0 76
-0.076966 0.090508 -0.287641 153 76 0
0.153645 -0.121850 0.400208 153 0 76
0.114875 -0.121850 -0.116249 0 127 127
-0.429533 -0.154872 0.712864 153 0 76
-0.089391 0.295753 -0.342636 153 76 0
-0.342570 -0.147004 -0.265863 76 0 153
0.040732 0.690970 -0.490398 76 0 153
-0.557458 0.108916 -0.292573 76 0 153
-0.248348 -0.034183 -0.254230 76 0 153
-0.420657 -0.222943 0.046901 153 0 76
-0.539065 -0.121850 0.326771 153 0 76
0.014316 -0.222943 0.265931 153 0 76
0.484687 -0.222943 0.011932 153 0 76
0.436976 0.576426 -0.417842 153 76 0
0.029132 0.047024 -0.317853 76 0 153
0.480131 -0.121850 0.367484 153 0 76
0.526052 -0.164581 -0.261154 76 0 153
-0.475244 -0.121850 0.339529 153 0 76
0.416339 -0.121850 0.247963 0 127 127
-0.260529 -0.131959 -0.136050 153 0 76
0.352380 -0.222943 0.456929 153 0 76
0.222434 -0.163394 -0.261472 76 0 153
