-0.328463 -0.111048 -0.114085 0.300000 0.000000 0.600000
0.011895 0.226721 -0.349034 0.300000 0.000000 0.600000
0.172010 0.474175 -0.565262 0.300000 0.000000 0.600000
0.526992 -0.231211 0.418284 0.000000 0.500000 0.500000
-0.429091 0.060258 -0.275563 0.300000 0.000000 0.600000
0.476967 -0.011040 -0.183650 0.300000 0.000000 0.600000
0.331322 0.406319 -0.473961 0.300000 0.000000 0.600000
0.239122 0.320689 -0.414397 0.300000 0.000000 0.600000
0.144142 -0.173973 -0.116419 0.000000 1.000000 0.000000
0.350913 0.480658 -0.569799 0.300000 0.000000 0.600000
0.348250 -0.013320 -0.182064 0.300000 0.000000 0.600000
0.034417 -0.167523 0.019949 0.000000 0.500000 0.500000
0.164349 0.390098 -0.459004 0.600000 0.300000 0.000000
0.177857 0.091082 -0.297137 0.300000 0.000000 0.600000
-0.234474 -0.169129 0.018984 0.500000 0.000000 0.500000
-0.107908 -0.232010 0.184572 0.000000 0.500000 0.500000
-0.410345 -0.230960 0.547185 0.000000 0.500000 0.500000
-0.234339 -0.054354 -0.195347 0.300000 0.000000 0.600000
0.099350 -0.211993 -0.124129 0.000000 1.000000 0.000000
-0.421758 0.555681 -0.572831 0.300000 0.000000 0.600000
-0.444450 -0.231618 0.320085 0.000000 0.500000 0.500000
0.371559 -0.036147 -0.166186 0.300000 0.000000 0.600000
0.478912 0.100867 -0.261491 0.300000 0.000000 0.600000
0.404859 0.456068 -0.508566 0.300000 0.000000 0.600000
-0.482151 -0.165906 0.578342 0.000000 0.500000 0.500000
-0.066163 0.225795 -0.348390 0.300000 0.000000 0.600000
0.464198 -0.232613 -0.023477 0.000000 0.500000 0.500000
0.195839 -0.231929 0.212495 0.000000 0.500000 0.500000
0.411290 -0.167233 0.119819 0.500000 0.500000 0.000000
0.406706 0.316396 -0.454833 0.300000 0.000000 0.600000
0.278653 -0.165940 -0.112927 0.300000 0.000000 0.600000
0.035556 0.025181 -0.251013 0.300000 0.000000 0.600000
0.402383 0.330848 -0.421464 0.300000 0.000000 0.600000
0.142888 -0.199661 0.809282 0.000000 0.500000 0.500000
0.038406 0.401271 -0.514237 0.300000 0.000000 0.600000
-0.420469 -0.230525 0.697578 0.000000 0.500000 0.500000
-0.177684 -0.230854 0.583911 0.000000 0.500000 0.500000
-0.218273 -0.232721 -0.060908 0.000000 1.000000 0.000000
-0.388770 0.278314 -0.384922 0.300000 0.000000 0.600000
-0.024048 0.562976 -0.607122 0.300000 0.000000 0.600000
0.213474 0.209457 -0.337025 0.300000 0.000000 0.600000
-0.186864 -0.167380 0.068869 0.000000 0.500000 0.500000
-0.444041 -0.170514 0.739323 0.000000 0.500000 0.500000
-0.347201 0.130444 -0.282065 0.300000 0.000000 0.600000
0.308111 -0.086585 -0.131101 0.300000 0.000000 0.600000
0.124953 -0.023378 -0.217026 0.300000 0.000000 0.600000
0.421865 -0.077373 -0.179235 0.300000 0.000000 0.600000
0.097963 0.440684 -0.541822 0.300000 0.000000 0.600000
-0.163803 -0.165789 0.626494 0.000000 0.500000 0.500000
-0.276415 -0.168125 0.052812 0.500000 0.500000 0.000000
0.541728 -0.180673 0.431138 0.000000 0.500000 0.500000
0.285504 -0.116035 -0.110616 0.300000 0.000000 0.600000
0.371289 -0.167217 0.125507 0.500000 0.500000 0.000000
-0.166584 -0.231489 0.364378 0.000000 0.500000 0.500000
0.165355 0.160236 -0.302788 0.300000 0.000000 0.600000
0.262183 -0.167868 0.205721 0.500000 0.500000 0.000000
-0.472603 -0.167016 0.195105 0.000000 0.500000 0.500000
0.350394 0.416404 -0.480976 0.300000 0.000000 0.600000
-0.180188 -0.167948 0.157834 0.500000 0.500000 0.000000
-0.212842 0.616389 -0.596598 0.300000 0.000000 0.600000
-0.466127 0.482399 -0.524356 0.600000 0.300000 0.000000
-0.519858 -0.137074 -0.095982 0.300000 0.000000 0.600000
0.393963 -0.166274 0.606284 0.000000 0.500000 0.500000
-0.511999 0.520795 -0.593324 0.300000 0.000000 0.600000
-0.454128 0.616141 -0.606721 0.300000 0.000000 0.600000
0.210755 -0.162172 -0.081193 0.300000 0.000000 0.600000
-0.360574 -0.232486 0.020299 0.000000 0.500000 0.500000
-0.064744 -0.232290 0.087794 0.000000 0.500000 0.500000
0.415784 -0.130575 -0.141430 0.300000 0.000000 0.600000
-0.424319 -0.155419 -0.121768 0.300000 0.000000 0.600000
-0.051691 0.223802 -0.341259 0.600000 0.300000 0.000000
-0.463922 -0.232537 -0.108944 0.000000 1.000000 0.000000
-0.496439 -0.205810 0.818926 0.000000 0.500000 0.500000
0.494633 -0.230750 0.619822 0.000000 0.500000 0.500000
-0.000873 -0.167975 0.141624 0.500000 0.500000 0.000000
0.030746 -0.166005 0.696906 0.000000 0.500000 0.500000
0.325832 0.075268 -0.286068 0.300000 0.000000 0.600000
-0.391949 0.220883 -0.339193 0.600000 0.300000 0.000000
-0.268986 0.260196 -0.372319 0.300000 0.000000 0.600000
0.377000 0.514123 -0.590131 0.300000 0.000000 0.600000
0.073600 0.390318 -0.459159 0.600000 0.300000 0.000000
-0.437701 -0.167589 0.371125 0.500000 0.500000 0.000000
-0.157495 -0.167890 0.192754 0.500000 0.500000 0.000000
-0.087580 0.461062 -0.512040 0.300000 0.000000 0.600000
0.168009 -0.231108 0.496413 0.000000 0.500000 0.500000
0.539998 0.419851 -0.499911 0.300000 0.000000 0.600000
0.369857 -0.010714 -0.225890 0.300000 0.000000 0.600000
0.339082 -0.127520 -0.102627 0.300000 0.000000 0.600000
0.541952 -0.215036 0.161027 0.000000 0.500000 0.500000
0.388850 -0.000816 -0.232818 0.300000 0.000000 0.600000
-0.466047 0.327885 -0.462874 0.300000 0.000000 0.600000
-0.166897 -0.111731 -0.103689 0.600000 0.300000 0.000000
0.483482 -0.231731 0.281017 0.000000 0.500000 0.500000
-0.503831 0.616343 -0.598478 0.300000 0.000000 0.600000
0.357159 -0.231928 0.212770 0.000000 0.500000 0.500000
0.323580 -0.232254 0.100032 0.000000 0.500000 0.500000
0.062814 0.535315 -0.599257 0.300000 0.000000 0.600000
0.072587 0.063509 -0.227766 0.600000 0.300000 0.000000
-0.458760 0.255696 -0.363841 0.600000 0.300000 0.000000
0.378100 0.270362 -0.379390 0.300000 0.000000 0.600000
0.155026 0.058720 -0.274487 0.300000 0.000000 0.600000
-0.468629 -0.055737 -0.152559 0.300000 0.000000 0.600000
0.211852 -0.230502 0.705337 0.000000 0.500000 0.500000
-0.025035 -0.179362 -0.087280 0.000000 1.000000 0.000000
-0.173249 0.442352 -0.542989 0.300000 0.000000 0.600000
-0.014346 0.546760 -0.568652 0.300000 0.000000 0.600000
0.151555 0.163213 -0.347621 0.300000 0.000000 0.600000
-0.425046 -0.167719 0.294293 0.500000 0.500000 0.000000
0.350601 -0.166241 0.652505 0.000000 0.500000 0.500000
0.199736 0.479082 -0.524574 0.300000 0.000000 0.600000
0.110710 -0.156605 -0.120791 0.300000 0.000000 0.600000
0.299757 -0.067161 -0.144613 0.300000 0.000000 0.600000
0.073679 -0.099289 -0.122265 0.300000 0.000000 0.600000
0.247372 0.133287 -0.284042 0.300000 0.000000 0.600000
-0.304186 -0.016146 -0.222088 0.300000 0.000000 0.600000
0.420509 0.588505 -0.584276 0.300000 0.000000 0.600000
-0.349257 0.085325 -0.243213 0.600000 0.300000 0.000000
-0.279504 0.491029 -0.576847 0.300000 0.000000 0.600000
-0.394140 0.082104 -0.240932 0.600000 0.300000 0.000000
-0.339818 0.112631 -0.262546 0.600000 0.300000 0.000000
0.243419 -0.049260 -0.198912 0.300000 0.000000 0.600000
0.218714 -0.114930 -0.111385 0.300000 0.000000 0.600000
0.092990 0.500801 -0.582978 0.300000 0.000000 0.600000
-0.260756 -0.167491 0.430158 0.500000 0.500000 0.000000
-0.218698 -0.146471 -0.089445 0.300000 0.000000 0.600000
-0.527115 -0.167861 -0.032633 0.000000 0.500000 0.500000
0.104812 0.477369 -0.567498 0.300000 0.000000 0.600000
-0.465417 0.207422 -0.378562 0.300000 0.000000 0.600000
-0.396790 0.522112 -0.593955 0.300000 0.000000 0.600000
0.515624 -0.135840 -0.137400 0.300000 0.000000 0.600000
0.312962 -0.217531 -0.123071 0.000000 1.000000 0.000000
-0.344628 -0.231296 0.431354 0.000000 0.500000 0.500000
-0.547072 -0.220936 0.783169 0.000000 0.500000 0.500000
0.409193 0.036484 -0.258924 0.300000 0.000000 0.600000
0.485879 0.458537 -0.510283 0.300000 0.000000 0.600000
0.323073 -0.232501 0.014998 0.000000 0.500000 0.500000
0.349088 -0.055873 -0.194283 0.300000 0.000000 0.600000
0.301510 0.251654 -0.360980 0.600000 0.300000 0.000000
-0.491776 -0.168016 0.117484 0.500000 0.500000 0.000000
-0.441354 0.131735 -0.282963 0.300000 0.000000 0.600000
-0.319353 -0.230576 0.680154 0.000000 0.500000 0.500000
0.007603 0.119151 -0.316782 0.300000 0.000000 0.600000
-0.485578 -0.209530 -0.124515 0.000000 1.000000 0.000000
0.420103 -0.230594 0.673614 0.000000 0.500000 0.500000
-0.297764 0.580479 -0.582011 0.300000 0.000000 0.600000
0.230251 -0.231577 0.334371 0.000000 0.500000 0.500000
0.200536 -0.231291 0.433002 0.000000 0.500000 0.500000
-0.104303 -0.141424 -0.092956 0.300000 0.000000 0.600000
-0.201759 -0.108442 -0.115898 0.300000 0.000000 0.600000
-0.444985 0.029263 -0.211684 0.300000 0.000000 0.600000
-0.480991 -0.167503 0.422634 0.500000 0.500000 0.000000
0.318946 0.609741 -0.611592 0.300000 0.000000 0.600000
-0.227655 -0.166381 0.414410 0.500000 0.500000 0.000000
-0.056777 -0.167791 0.272856 0.500000 0.500000 0.000000
-0.187381 -0.231577 0.333877 0.000000 0.500000 0.500000
-0.119717 -0.041863 -0.153158 0.600000 0.300000 0.000000
-0.053704 0.553984 -0.604933 0.300000 0.000000 0.600000
-0.060729 0.054449 -0.271497 0.300000 0.000000 0.600000
0.254058 0.167902 -0.308120 0.300000 0.000000 0.600000
0.432052 -0.164904 -0.082629 0.300000 0.000000 0.600000
-0.483710 -0.167576 -0.084527 0.300000 0.000000 0.600000
0.328645 0.439876 -0.541256 0.300000 0.000000 0.600000
0.008401 0.183379 -0.361735 0.300000 0.000000 0.600000
-0.424001 0.352221 -0.479907 0.300000 0.000000 0.600000
0.507408 0.251079 -0.409118 0.300000 0.000000 0.600000
-0.146453 -0.167987 0.134872 0.500000 0.500000 0.000000
-0.297451 -0.200962 0.811484 0.000000 0.500000 0.500000
0.183155 0.169446 -0.351983 0.300000 0.000000 0.600000
-0.000011 -0.167604 0.340166 0.500000 0.000000 0.500000
-0.229514 0.284157 -0.432269 0.300000 0.000000 0.600000
0.541992 -0.191820 0.381130 0.000000 0.500000 0.500000
-0.396708 -0.168309 -0.110886 0.300000 0.000000 0.600000
-0.107351 -0.038801 -0.164339 0.300000 0.000000 0.600000
-0.024947 0.420868 -0.484081 0.300000 0.000000 0.600000
-0.463381 -0.230166 0.797731 0.000000 0.500000 0.500000
0.390044 -0.231492 0.363849 0.000000 0.500000 0.500000
0.492861 0.087050 -0.294315 0.300000 0.000000 0.600000
0.473323 0.010854 -0.240985 0.300000 0.000000 0.600000
0.257959 -0.116965 -0.099983 0.600000 0.300000 0.000000
-0.324247 0.168226 -0.308346 0.300000 0.000000 0.600000
0.128924 0.380798 -0.452419 0.600000 0.300000 0.000000
-0.164642 -0.182605 0.777892 0.000000 0.500000 0.500000
0.473558 -0.166027 0.555790 0.000000 0.500000 0.500000
-0.170565 -0.067613 -0.186067 0.300000 0.000000 0.600000
-0.269188 -0.175841 -0.100916 0.000000 1.000000 0.000000
0.088968 -0.166034 0.489941 0.600000 0.000000 0.300000
-0.383842 -0.167628 0.041221 0.000000 0.500000 0.500000
0.218633 0.069740 -0.232177 0.600000 0.300000 0.000000
0.082895 0.357952 -0.436243 0.600000 0.300000 0.000000
-0.077075 -0.171351 -0.088430 0.300000 0.000000 0.600000
0.200005 -0.029742 -0.212573 0.300000 0.000000 0.600000
0.223253 0.472388 -0.564011 0.300000 0.000000 0.600000
-0.492660 0.415060 -0.523888 0.300000 0.000000 0.600000
0.097226 0.017439 -0.245594 0.300000 0.000000 0.600000
-0.488627 0.468219 -0.561094 0.300000 0.000000 0.600000
-0.467763 0.525979 -0.556977 0.300000 0.000000 0.600000
-0.354484 0.353876 -0.437482 0.300000 0.000000 0.600000
-0.168229 -0.167742 0.255645 0.500000 0.000000 0.500000
-0.454959 0.536214 -0.563072 0.300000 0.000000 0.600000
-0.388754 0.019437 -0.204849 0.300000 0.000000 0.600000
0.371466 -0.122274 -0.096224 0.600000 0.300000 0.000000
0.539998 -0.152388 -0.100409 0.300000 0.000000 0.600000
0.397999 0.260348 -0.372425 0.300000 0.000000 0.600000
-0.402524 -0.050713 -0.197895 0.300000 0.000000 0.600000
0.291127 0.105757 -0.307407 0.300000 0.000000 0.600000
0.263101 -0.083749 -0.133074 0.300000 0.000000 0.600000
0.301011 0.192588 -0.368180 0.300000 0.000000 0.600000
0.324990 -0.166364 0.420238 0.000000 0.500000 0.500000
-0.145682 -0.009887 -0.175799 0.600000 0.300000 0.000000
0.028155 -0.168011 0.120532 0.500000 0.500000 0.000000
0.244368 -0.230713 0.632662 0.000000 0.500000 0.500000
-0.230508 -0.230782 0.608719 0.000000 0.500000 0.500000
0.439694 -0.231510 0.357676 0.000000 0.500000 0.500000
0.008485 -0.146041 -0.089744 0.300000 0.000000 0.600000
-0.239864 -0.170038 -0.086837 0.300000 0.000000 0.600000
0.441191 0.434726 -0.490602 0.600000 0.300000 0.000000
0.336219 0.159843 -0.345262 0.300000 0.000000 0.600000
-0.487583 -0.231051 0.515473 0.000000 0.500000 0.500000
0.217425 -0.168340 0.083023 0.500000 0.500000 0.000000
-0.035109 0.119794 -0.317232 0.300000 0.000000 0.600000
0.348953 -0.230487 0.710468 0.000000 0.500000 0.500000
-0.329535 0.012101 -0.241858 0.300000 0.000000 0.600000
-0.032959 0.241738 -0.402580 0.300000 0.000000 0.600000
-0.547062 -0.219027 0.135124 0.000000 0.500000 0.500000
-0.233143 0.100124 -0.253691 0.600000 0.300000 0.000000
0.210646 -0.166488 0.436569 0.000000 0.500000 0.500000
0.123209 -0.231885 0.227793 0.000000 0.500000 0.500000
-0.240485 0.234686 -0.354575 0.300000 0.000000 0.600000
0.143186 -0.230924 0.559698 0.000000 0.500000 0.500000
0.390221 0.220300 -0.387576 0.300000 0.000000 0.600000
0.239099 -0.230795 0.604091 0.000000 0.500000 0.500000
-0.099788 -0.232783 -0.082163 0.000000 1.000000 0.000000
-0.044511 -0.048798 -0.157386 0.300000 0.000000 0.600000
0.237783 -0.232741 -0.068019 0.000000 1.000000 0.000000
0.034081 -0.231819 0.250490 0.000000 0.500000 0.500000
-0.283517 0.189742 -0.366188 0.300000 0.000000 0.600000
0.029341 0.572823 -0.608953 0.300000 0.000000 0.600000
-0.437823 -0.168136 0.038671 0.000000 0.500000 0.500000
-0.451297 -0.093534 -0.116574 0.600000 0.300000 0.000000
-0.244967 -0.230364 0.753094 0.000000 0.500000 0.500000
0.163700 0.485305 -0.526414 0.600000 0.300000 0.000000
-0.547204 -0.209515 -0.056252 0.000000 0.500000 0.500000
0.148308 -0.231643 0.311603 0.000000 0.500000 0.500000
0.367576 -0.183506 -0.122069 0.000000 1.000000 0.000000
0.103891 0.070032 -0.232384 0.600000 0.300000 0.000000
-0.545808 0.512304 -0.553802 0.300000 0.000000 0.600000
0.507847 0.170051 -0.309615 0.300000 0.000000 0.600000
-0.355021 -0.231447 0.379194 0.000000 0.500000 0.500000
-0.181028 0.213460 -0.339810 0.300000 0.000000 0.600000
0.195105 -0.230105 0.795432 0.000000 0.500000 0.500000
0.255012 0.616344 -0.598442 0.300000 0.000000 0.600000
0.421558 -0.167165 0.258951 0.000000 0.500000 0.500000
0.176989 -0.230611 0.667769 0.000000 0.500000 0.500000
0.027926 -0.166880 0.558662 0.600000 0.000000 0.300000
-0.230189 0.008492 -0.197236 0.300000 0.000000 0.600000
-0.359111 0.369763 -0.448533 0.300000 0.000000 0.600000
0.170429 -0.230855 0.583606 0.000000 0.500000 0.500000
0.239032 0.616352 -0.598118 0.300000 0.000000 0.600000
0.071250 0.126834 -0.272602 0.600000 0.300000 0.000000
0.382715 0.005906 -0.195437 0.300000 0.000000 0.600000
0.030444 -0.205985 0.817952 0.000000 0.500000 0.500000
0.384979 -0.166901 0.259194 0.000000 0.500000 0.500000
0.539998 0.233470 -0.368192 0.300000 0.000000 0.600000
-0.281816 -0.232017 0.182188 0.000000 0.500000 0.500000
0.464948 0.173656 -0.305754 0.600000 0.300000 0.000000
0.539497 0.104870 -0.306787 0.300000 0.000000 0.600000
0.483961 0.236681 -0.399041 0.300000 0.000000 0.600000
-0.433173 -0.167581 -0.000465 0.000000 0.500000 0.500000
-0.389580 -0.231206 0.462136 0.000000 0.500000 0.500000
-0.315419 0.070027 -0.240039 0.300000 0.000000 0.600000
-0.163505 -0.149399 -0.126688 0.300000 0.000000 0.600000
0.539998 0.339601 -0.466320 0.300000 0.000000 0.600000
-0.450560 0.301167 -0.444174 0.300000 0.000000 0.600000
-0.314640 0.588049 -0.584151 0.300000 0.000000 0.600000
0.244464 -0.167788 0.252845 0.500000 0.500000 0.000000
-0.547103 -0.219516 -0.023644 0.000000 0.500000 0.500000
0.539998 0.303066 -0.417935 0.300000 0.000000 0.600000
-0.205643 -0.167852 0.215028 0.500000 0.500000 0.000000
-0.525690 0.297845 -0.441849 0.300000 0.000000 0.600000
-0.199248 0.317218 -0.455409 0.300000 0.000000 0.600000
0.315822 0.457715 -0.506879 0.600000 0.300000 0.000000
0.315622 -0.231605 0.324392 0.000000 0.500000 0.500000
0.289974 0.325869 -0.461463 0.300000 0.000000 0.600000
-0.267643 0.232923 -0.396411 0.300000 0.000000 0.600000
-0.184359 -0.168045 0.099873 0.500000 0.500000 0.000000
0.317308 -0.215039 0.820761 0.000000 0.500000 0.500000
0.112772 -0.168127 0.051218 0.500000 0.500000 0.000000
-0.348585 -0.167755 0.251704 0.500000 0.000000 0.500000
-0.117048 0.570175 -0.608461 0.300000 0.000000 0.600000
0.420279 -0.230431 0.730050 0.000000 0.500000 0.500000
-0.022624 -0.133571 -0.139144 0.300000 0.000000 0.600000
-0.276723 -0.230843 0.587641 0.000000 0.500000 0.500000
0.154988 0.314413 -0.453445 0.300000 0.000000 0.600000
-0.103627 -0.231129 0.488972 0.000000 0.500000 0.500000
-0.534092 0.088311 -0.295197 0.300000 0.000000 0.600000
-0.084532 0.122633 -0.319219 0.300000 0.000000 0.600000
0.082012 -0.195323 0.802372 0.000000 0.500000 0.500000
-0.075631 -0.168091 0.072803 0.500000 0.500000 0.000000
0.454133 0.357536 -0.440028 0.300000 0.000000 0.600000
0.007418 -0.167784 0.722842 0.000000 0.500000 0.500000
-0.499440 0.407518 -0.474795 0.300000 0.000000 0.600000
0.120809 -0.167706 -0.031555 0.000000 0.500000 0.500000
-0.205928 -0.020335 -0.168401 0.600000 0.300000 0.000000
0.280874 0.278130 -0.428051 0.300000 0.000000 0.600000
0.110324 -0.071066 -0.132482 0.600000 0.300000 0.000000
-0.132987 0.506050 -0.585929 0.300000 0.000000 0.600000
-0.172437 -0.172558 -0.107096 0.300000 0.000000 0.600000
0.526976 -0.230152 0.788215 0.000000 0.500000 0.500000
0.155796 -0.167353 0.337722 0.500000 0.500000 0.000000
-0.129363 -0.230191 0.795982 0.000000 0.500000 0.500000
0.130961 0.508859 -0.543091 0.600000 0.300000 0.000000
-0.153487 -0.232213 0.114089 0.000000 0.500000 0.500000
-0.473787 0.189341 -0.365908 0.300000 0.000000 0.600000
0.234505 0.124441 -0.320485 0.300000 0.000000 0.600000
0.012990 0.201303 -0.331354 0.300000 0.000000 0.600000
0.355479 0.139896 -0.288640 0.300000 0.000000 0.600000
-0.487493 -0.176252 -0.118977 0.000000 1.000000 0.000000
0.344327 0.055840 -0.222336 0.600000 0.300000 0.000000
-0.437189 -0.104567 -0.108762 0.600000 0.300000 0.000000
-0.397899 -0.097381 -0.165232 0.300000 0.000000 0.600000
0.204995 0.378424 -0.498246 0.300000 0.000000 0.600000
-0.508510 -0.169429 0.733806 0.000000 0.500000 0.500000
0.416327 -0.231929 0.212331 0.000000 0.500000 0.500000
-0.352058 0.224911 -0.342045 0.600000 0.300000 0.000000
-0.129759 0.309354 -0.401834 0.600000 0.300000 0.000000
0.175392 -0.060883 -0.190777 0.300000 0.000000 0.600000
-0.393051 0.116614 -0.272445 0.300000 0.000000 0.600000
0.262801 -0.167619 0.353736 0.500000 0.500000 0.000000
-0.547131 -0.179317 0.156739 0.000000 0.500000 0.500000
0.424479 0.135306 -0.278601 0.600000 0.300000 0.000000
-0.221610 0.274068 -0.376850 0.600000 0.300000 0.000000
-0.488062 -0.230614 0.666322 0.000000 0.500000 0.500000
-0.247973 0.433422 -0.536739 0.300000 0.000000 0.600000
0.349757 0.274806 -0.425724 0.300000 0.000000 0.600000
-0.545808 -0.017934 -0.187587 0.300000 0.000000 0.600000
0.403911 -0.232721 -0.060727 0.000000 1.000000 0.000000
-0.073765 -0.167588 0.372084 0.500000 0.500000 0.000000
0.356773 0.337734 -0.421928 0.600000 0.300000 0.000000
0.030374 -0.232202 0.118269 0.000000 0.500000 0.500000
-0.155770 0.329529 -0.464025 0.300000 0.000000 0.600000
-0.019072 -0.079635 -0.177652 0.300000 0.000000 0.600000
0.040734 -0.079836 -0.135796 0.300000 0.000000 0.600000
0.450748 -0.166868 0.591830 0.000000 0.500000 0.500000
0.281374 -0.158265 -0.081241 0.300000 0.000000 0.600000
0.210264 -0.231458 0.375571 0.000000 0.500000 0.500000
0.103995 -0.167872 0.203059 0.500000 0.500000 0.000000
0.134950 0.395632 -0.510290 0.300000 0.000000 0.600000
0.155380 0.552395 -0.571334 0.300000 0.000000 0.600000
-0.464312 0.596873 -0.586296 0.300000 0.000000 0.600000
-0.214519 0.069220 -0.231809 0.600000 0.300000 0.000000
-0.097155 0.557421 -0.573609 0.300000 0.000000 0.600000
-0.094472 0.140988 -0.282624 0.600000 0.300000 0.000000
-0.275417 0.052692 -0.227982 0.300000 0.000000 0.600000
-0.033639 -0.220239 -0.122554 0.000000 1.000000 0.000000
-0.437755 0.292831 -0.390134 0.600000 0.300000 0.000000
-0.028302 -0.167468 0.272300 0.500000 0.500000 0.000000
0.064537 0.204601 -0.333648 0.300000 0.000000 0.600000
0.128198 -0.165918 -0.083284 0.300000 0.000000 0.600000
-0.333306 -0.129386 -0.091189 0.600000 0.300000 0.000000
-0.542966 -0.228644 0.609753 0.000000 0.500000 0.500000
-0.101620 0.010615 -0.198713 0.300000 0.000000 0.600000
-0.198777 0.124612 -0.278008 0.300000 0.000000 0.600000
0.088607 -0.167829 0.228749 0.500000 0.500000 0.000000
-0.024629 0.306350 -0.447802 0.300000 0.000000 0.600000
0.367347 0.421889 -0.528667 0.300000 0.000000 0.600000
0.140079 0.202973 -0.375449 0.300000 0.000000 0.600000
0.209312 -0.170483 0.739164 0.000000 0.500000 0.500000
0.450589 -0.168128 0.051138 0.500000 0.500000 0.000000
-0.319517 0.318126 -0.408045 0.600000 0.300000 0.000000
0.340432 0.196934 -0.328315 0.300000 0.000000 0.600000
0.235394 -0.132136 -0.099416 0.300000 0.000000 0.600000
0.230455 -0.044096 -0.151577 0.600000 0.300000 0.000000
0.036786 0.369916 -0.444714 0.600000 0.300000 0.000000
0.208241 0.242991 -0.403457 0.300000 0.000000 0.600000
0.289534 0.379189 -0.451279 0.600000 0.300000 0.000000
-0.350258 0.466752 -0.513277 0.600000 0.300000 0.000000
0.194915 0.009972 -0.198266 0.300000 0.000000 0.600000
-0.063228 -0.027980 -0.213806 0.300000 0.000000 0.600000
0.379196 0.126723 -0.279476 0.300000 0.000000 0.600000
-0.253445 0.194769 -0.369706 0.300000 0.000000 0.600000
0.521900 -0.012545 -0.224609 0.300000 0.000000 0.600000
-0.413723 -0.161474 -0.080927 0.300000 0.000000 0.600000
0.499011 -0.075237 -0.138995 0.300000 0.000000 0.600000
-0.121040 0.279823 -0.380925 0.600000 0.300000 0.000000
-0.164341 -0.167822 -0.000588 0.000000 0.500000 0.500000
0.119598 0.195309 -0.327185 0.300000 0.000000 0.600000
0.252479 0.568616 -0.578024 0.300000 0.000000 0.600000
-0.141898 -0.232322 0.076757 0.000000 0.500000 0.500000
0.128082 0.239963 -0.401338 0.300000 0.000000 0.600000
-0.388830 -0.231786 0.261771 0.000000 0.500000 0.500000
0.125590 0.009540 -0.240066 0.300000 0.000000 0.600000
0.257856 -0.166515 0.707673 0.000000 0.500000 0.500000
-0.452406 0.326596 -0.414042 0.600000 0.300000 0.000000
0.104792 0.346085 -0.475612 0.300000 0.000000 0.600000
0.103122 -0.231952 0.204492 0.000000 0.500000 0.500000
-0.116621 0.366074 -0.489602 0.300000 0.000000 0.600000
0.539998 -0.103066 -0.130716 0.300000 0.000000 0.600000
0.464061 0.292945 -0.438420 0.300000 0.000000 0.600000
0.468223 -0.158677 -0.119064 0.300000 0.000000 0.600000
0.480491 -0.232544 0.000131 0.000000 0.500000 0.500000
-0.167713 0.491790 -0.577344 0.300000 0.000000 0.600000
-0.201073 0.112159 -0.262212 0.600000 0.300000 0.000000
-0.479259 -0.061807 -0.190130 0.300000 0.000000 0.600000
0.073222 -0.167603 0.363078 0.500000 0.500000 0.000000
0.102124 0.570857 -0.608588 0.300000 0.000000 0.600000
-0.324210 -0.167698 -0.030237 0.000000 0.500000 0.500000
0.539749 -0.227306 0.472813 0.000000 0.500000 0.500000
-0.241977 0.070672 -0.240488 0.300000 0.000000 0.600000
0.040188 -0.231363 0.408047 0.000000 0.500000 0.500000
-0.117271 -0.230803 0.601445 0.000000 0.500000 0.500000
-0.299258 0.194718 -0.326773 0.300000 0.000000 0.600000
-0.527685 -0.231419 0.388548 0.000000 0.500000 0.500000
-0.349306 -0.166924 0.343606 0.500000 0.500000 0.000000
0.000318 -0.124791 -0.104526 0.300000 0.000000 0.600000
-0.284492 -0.005419 -0.187560 0.300000 0.000000 0.600000
0.341473 0.108338 -0.259507 0.600000 0.300000 0.000000
0.258620 0.064708 -0.236340 0.300000 0.000000 0.600000
0.117953 -0.119198 -0.098402 0.600000 0.300000 0.000000
-0.409504 0.001512 -0.234447 0.300000 0.000000 0.600000
0.114813 -0.230306 0.773094 0.000000 0.500000 0.500000
-0.204556 0.440878 -0.541958 0.300000 0.000000 0.600000
0.231500 -0.232814 -0.093278 0.000000 1.000000 0.000000
-0.011263 -0.169143 0.013822 0.500000 0.000000 0.500000
-0.483059 -0.166588 0.343096 0.000000 0.500000 0.500000
-0.128459 0.334336 -0.423890 0.300000 0.000000 0.600000
-0.128347 -0.167573 0.381248 0.500000 0.500000 0.000000
0.160327 -0.167718 -0.031974 0.000000 0.500000 0.500000
0.097407 -0.166315 0.436918 0.600000 0.000000 0.300000
-0.311646 0.290686 -0.436838 0.300000 0.000000 0.600000
0.426853 -0.166193 0.479299 0.000000 0.500000 0.500000
-0.369716 0.534611 -0.598985 0.300000 0.000000 0.600000
-0.490682 -0.167666 0.325601 0.500000 0.500000 0.000000
-0.086647 0.314576 -0.405531 0.600000 0.300000 0.000000
-0.182245 -0.166308 0.439330 0.000000 0.500000 0.500000
-0.184355 -0.166355 0.680112 0.000000 0.500000 0.500000
0.447513 -0.166273 0.502020 0.000000 0.500000 0.500000
0.368958 0.616280 -0.601044 0.300000 0.000000 0.600000
0.018637 -0.231991 0.191079 0.000000 0.500000 0.500000
0.529101 0.484996 -0.572836 0.300000 0.000000 0.600000
-0.002409 -0.167402 0.061394 0.000000 0.500000 0.500000
0.306414 -0.232024 0.179708 0.000000 0.500000 0.500000
0.431362 -0.129141 -0.142511 0.300000 0.000000 0.600000
0.333607 -0.230720 0.630237 0.000000 0.500000 0.500000
-0.285954 -0.231182 0.470671 0.000000 0.500000 0.500000
-0.097944 0.196512 -0.321937 0.600000 0.300000 0.000000
-0.406975 -0.232538 0.002470 0.000000 0.500000 0.500000
0.342594 0.257482 -0.365107 0.600000 0.300000 0.000000
-0.088810 0.367895 -0.490877 0.300000 0.000000 0.600000
0.141651 0.570744 -0.608566 0.300000 0.000000 0.600000
0.092049 -0.167769 0.264020 0.500000 0.500000 0.000000
-0.114698 -0.232417 0.044004 0.000000 0.500000 0.500000
0.431865 -0.232324 -0.111786 0.000000 1.000000 0.000000
0.022122 -0.026868 -0.214584 0.300000 0.000000 0.600000
-0.469115 0.562237 -0.606985 0.300000 0.000000 0.600000
0.063385 -0.167932 0.167631 0.500000 0.500000 0.000000
0.326750 0.255974 -0.364039 0.600000 0.300000 0.000000
0.198252 -0.167585 0.373583 0.500000 0.500000 0.000000
-0.253886 -0.232465 0.027802 0.000000 0.500000 0.500000
0.387358 0.583052 -0.610312 0.300000 0.000000 0.600000
-0.471799 -0.166052 0.527713 0.000000 0.500000 0.500000
0.066112 -0.027136 -0.214396 0.300000 0.000000 0.600000
-0.159440 -0.231506 -0.114651 0.000000 1.000000 0.000000
0.128431 -0.231646 0.310613 0.000000 0.500000 0.500000
-0.277765 0.018053 -0.246024 0.300000 0.000000 0.600000
0.520620 0.136095 -0.328641 0.300000 0.000000 0.600000
0.291216 0.369956 -0.492319 0.300000 0.000000 0.600000
-0.154610 0.338353 -0.426684 0.300000 0.000000 0.600000
0.262091 0.201551 -0.374453 0.300000 0.000000 0.600000
0.475639 0.039323 -0.210641 0.600000 0.300000 0.000000
0.283468 0.141706 -0.283132 0.600000 0.300000 0.000000
-0.129909 -0.167893 0.190743 0.500000 0.500000 0.000000
-0.178433 0.077753 -0.245413 0.300000 0.000000 0.600000
-0.181405 -0.133587 -0.139131 0.300000 0.000000 0.600000
-0.464285 -0.149089 -0.126939 0.300000 0.000000 0.600000
-0.496182 0.021058 -0.248127 0.300000 0.000000 0.600000
0.114363 0.045915 -0.215309 0.600000 0.300000 0.000000
-0.318141 0.129872 -0.281667 0.300000 0.000000 0.600000
-0.249055 0.143275 -0.290990 0.300000 0.000000 0.600000
0.481013 -0.231049 -0.115338 0.000000 1.000000 0.000000
0.305499 0.148993 -0.337668 0.300000 0.000000 0.600000
0.175081 0.371273 -0.445675 0.600000 0.300000 0.000000
0.277018 0.616322 -0.599332 0.300000 0.000000 0.600000
-0.022472 -0.021830 -0.167343 0.600000 0.300000 0.000000
-0.069692 -0.039204 -0.164059 0.300000 0.000000 0.600000
-0.405583 -0.167957 0.131874 0.500000 0.000000 0.500000
-0.464991 -0.231533 0.349256 0.000000 0.500000 0.500000
0.107076 0.239181 -0.400790 0.300000 0.000000 0.600000
0.460479 0.481042 -0.525938 0.300000 0.000000 0.600000
-0.268901 0.086916 -0.294221 0.300000 0.000000 0.600000
0.107135 -0.048369 -0.157684 0.300000 0.000000 0.600000
-0.143882 -0.138879 -0.094726 0.300000 0.000000 0.600000
0.038938 0.370720 -0.492854 0.300000 0.000000 0.600000
-0.176068 0.239706 -0.352520 0.600000 0.300000 0.000000
-0.210660 0.126589 -0.321988 0.300000 0.000000 0.600000
-0.293980 -0.167660 0.044142 0.000000 0.500000 0.500000
0.121852 0.285497 -0.433207 0.300000 0.000000 0.600000
-0.255855 -0.230275 0.783728 0.000000 0.500000 0.500000
-0.521590 -0.231113 0.494194 0.000000 0.500000 0.500000
-0.034134 -0.232077 0.161194 0.000000 0.500000 0.500000
-0.247345 0.413183 -0.478735 0.300000 0.000000 0.600000
-0.500118 -0.230904 0.566293 0.000000 0.500000 0.500000
-0.274902 -0.230920 0.560954 0.000000 0.500000 0.500000
-0.124300 -0.231821 0.249602 0.000000 0.500000 0.500000
-0.149661 0.246551 -0.362828 0.300000 0.000000 0.600000
-0.246862 -0.226033 0.812226 0.000000 0.500000 0.500000
-0.360555 -0.166405 0.527351 0.000000 0.500000 0.500000
0.464773 0.048333 -0.217021 0.600000 0.300000 0.000000
0.092021 -0.232491 0.018721 0.000000 0.500000 0.500000
0.538906 -0.169698 0.243120 0.000000 0.500000 0.500000
-0.276076 -0.167566 0.384990 0.500000 0.500000 0.000000
0.073853 -0.044780 -0.151093 0.600000 0.300000 0.000000
-0.011989 -0.066706 -0.135569 0.600000 0.300000 0.000000
0.541957 -0.215292 0.675668 0.000000 0.500000 0.500000
-0.291623 0.616050 -0.610447 0.300000 0.000000 0.600000
-0.072213 -0.167725 0.285647 0.500000 0.500000 0.000000
0.450398 0.395697 -0.510335 0.300000 0.000000 0.600000
0.431748 0.182342 -0.318165 0.300000 0.000000 0.600000
-0.387017 0.091896 -0.297707 0.300000 0.000000 0.600000
0.341680 -0.047206 -0.149376 0.600000 0.300000 0.000000
0.092701 -0.167657 0.331339 0.500000 0.500000 0.000000
-0.134316 0.153766 -0.298287 0.300000 0.000000 0.600000
-0.545808 0.021679 -0.225136 0.300000 0.000000 0.600000
0.537741 -0.005922 -0.229244 0.300000 0.000000 0.600000
-0.501923 0.437121 -0.492297 0.600000 0.300000 0.000000
-0.100764 -0.231432 0.384478 0.000000 0.500000 0.500000
0.455770 -0.064025 -0.188578 0.300000 0.000000 0.600000
0.141852 -0.167565 0.385808 0.500000 0.500000 0.000000
0.406553 0.087180 -0.294405 0.300000 0.000000 0.600000
-0.375686 -0.035469 -0.166657 0.300000 0.000000 0.600000
-0.424943 -0.231511 0.356880 0.000000 0.500000 0.500000
0.092878 0.220212 -0.387514 0.300000 0.000000 0.600000
0.534453 0.405692 -0.473525 0.300000 0.000000 0.600000
-0.422338 -0.080460 -0.125830 0.600000 0.300000 0.000000
-0.196860 -0.165897 0.581474 0.000000 0.500000 0.500000
-0.183508 -0.230897 0.569074 0.000000 0.500000 0.500000
-0.288198 0.079498 -0.239087 0.600000 0.300000 0.000000
-0.146934 0.411936 -0.474466 0.600000 0.300000 0.000000
-0.331906 0.598176 -0.586598 0.300000 0.000000 0.600000
-0.295471 -0.166064 0.697055 0.000000 0.500000 0.500000
0.175184 -0.168306 0.045470 0.000000 0.500000 0.500000
-0.498203 0.582069 -0.582514 0.300000 0.000000 0.600000
-0.001622 -0.167671 0.322556 0.500000 0.500000 0.000000
-0.148026 0.529352 -0.596880 0.300000 0.000000 0.600000
-0.107254 0.026830 -0.252167 0.300000 0.000000 0.600000
0.397614 0.387122 -0.504334 0.300000 0.000000 0.600000
0.539998 -0.133150 -0.121913 0.300000 0.000000 0.600000
0.182495 0.427928 -0.532894 0.300000 0.000000 0.600000
0.529617 0.586543 -0.583738 0.300000 0.000000 0.600000
-0.495730 0.203538 -0.326912 0.600000 0.300000 0.000000
0.047526 0.252851 -0.367210 0.300000 0.000000 0.600000
-0.526646 0.581093 -0.610080 0.300000 0.000000 0.600000
-0.505409 0.352305 -0.479966 0.300000 0.000000 0.600000
0.379337 0.084603 -0.292602 0.300000 0.000000 0.600000
0.532749 -0.230092 0.751699 0.000000 0.500000 0.500000
0.462291 0.616526 -0.591033 0.300000 0.000000 0.600000
0.055676 0.472521 -0.520011 0.300000 0.000000 0.600000
-0.169981 0.047181 -0.266410 0.300000 0.000000 0.600000
0.057889 -0.072142 -0.131720 0.600000 0.300000 0.000000
-0.002279 0.224778 -0.390710 0.300000 0.000000 0.600000
0.504141 -0.166535 0.361291 0.000000 0.500000 0.500000
-0.323512 -0.166716 0.644123 0.000000 0.500000 0.500000
0.323610 0.033209 -0.214429 0.300000 0.000000 0.600000
0.430986 0.554160 -0.604977 0.300000 0.000000 0.600000
-0.518056 -0.010342 -0.184135 0.300000 0.000000 0.600000
-0.469005 0.463209 -0.557587 0.300000 0.000000 0.600000
-0.496409 -0.182290 0.777164 0.000000 0.500000 0.500000
-0.361602 -0.231533 0.349379 0.000000 0.500000 0.500000
-0.011501 0.348560 -0.477345 0.300000 0.000000 0.600000
0.113612 -0.097889 -0.113490 0.600000 0.300000 0.000000
-0.465815 -0.029248 -0.170985 0.300000 0.000000 0.600000
0.461134 0.132126 -0.283235 0.300000 0.000000 0.600000
0.338365 -0.167703 0.303804 0.500000 0.500000 0.000000
0.387671 -0.230409 0.737629 0.000000 0.500000 0.500000
-0.151772 -0.167576 0.378921 0.500000 0.500000 0.000000
0.311243 0.126393 -0.279247 0.300000 0.000000 0.600000
-0.091144 0.612751 -0.611552 0.300000 0.000000 0.600000
0.207242 -0.230954 0.549353 0.000000 0.500000 0.500000
0.042031 -0.020001 -0.168638 0.600000 0.300000 0.000000
0.102373 -0.167580 0.376913 0.500000 0.500000 0.000000
0.177184 0.298174 -0.398737 0.300000 0.000000 0.600000
-0.411533 -0.166942 0.220555 0.500000 0.500000 0.000000
0.278502 -0.167357 0.305777 0.000000 0.500000 0.500000
-0.458235 -0.167950 0.156813 0.500000 0.500000 0.000000
-0.086542 -0.166343 0.427247 0.000000 0.500000 0.500000
0.473879 -0.144475 -0.130638 0.300000 0.000000 0.600000
-0.400369 -0.166301 0.441771 0.000000 0.500000 0.500000
0.300083 -0.167834 0.221462 0.500000 0.500000 0.000000
-0.390987 0.181644 -0.311410 0.600000 0.300000 0.000000
0.396079 0.470231 -0.562501 0.300000 0.000000 0.600000
-0.225900 -0.231970 0.198363 0.000000 0.500000 0.500000
0.539998 0.610977 -0.608748 0.300000 0.000000 0.600000
-0.394602 0.500724 -0.539629 0.300000 0.000000 0.600000
0.505204 -0.231862 0.235718 0.000000 0.500000 0.500000
0.211163 -0.221458 0.816989 0.000000 0.500000 0.500000
-0.540991 -0.230586 0.166976 0.000000 0.500000 0.500000
0.290379 -0.167814 0.264983 0.000000 0.500000 0.500000
-0.204813 0.586024 -0.610665 0.300000 0.000000 0.600000
-0.079323 0.030472 -0.204374 0.600000 0.300000 0.000000
0.269609 0.397422 -0.467772 0.300000 0.000000 0.600000
-0.424357 0.611322 -0.611571 0.300000 0.000000 0.600000
0.337016 0.437900 -0.495928 0.300000 0.000000 0.600000
-0.489696 -0.167990 0.132831 0.500000 0.500000 0.000000
-0.162077 -0.232127 0.143816 0.000000 0.500000 0.500000
-0.277255 0.405593 -0.517262 0.300000 0.000000 0.600000
0.001437 -0.232588 -0.015081 0.000000 0.500000 0.500000
0.357983 0.201034 -0.374092 0.300000 0.000000 0.600000
0.075413 -0.167012 0.196432 0.500000 0.500000 0.000000
0.161924 -0.232307 0.082064 0.000000 0.500000 0.500000
0.156784 -0.231257 0.444970 0.000000 0.500000 0.500000
-0.307660 0.455555 -0.552230 0.300000 0.000000 0.600000
0.450738 0.093328 -0.248879 0.600000 0.300000 0.000000
-0.538243 0.061636 -0.276528 0.300000 0.000000 0.600000
-0.095487 -0.168028 0.109905 0.500000 0.500000 0.000000
-0.395705 0.314737 -0.410258 0.300000 0.000000 0.600000
-0.190222 -0.231691 0.294877 0.000000 0.500000 0.500000
-0.272183 -0.169129 0.018885 0.500000 0.000000 0.500000
-0.021355 0.319618 -0.457088 0.300000 0.000000 0.600000
0.231935 0.096874 -0.258714 0.300000 0.000000 0.600000
-0.226370 0.235103 -0.349261 0.600000 0.300000 0.000000
-0.480490 0.377492 -0.453910 0.300000 0.000000 0.600000
-0.448283 -0.179608 -0.068165 0.000000 1.000000 0.000000
-0.311208 -0.208085 0.820051 0.000000 0.500000 0.500000
0.539998 0.367279 -0.468448 0.300000 0.000000 0.600000
0.264759 0.103639 -0.263420 0.300000 0.000000 0.600000
-0.035824 0.111282 -0.261591 0.600000 0.300000 0.000000
0.342399 -0.167276 0.716437 0.000000 0.500000 0.500000
0.284842 -0.166024 0.537528 0.000000 0.500000 0.500000
-0.336624 -0.097819 -0.113540 0.600000 0.300000 0.000000
-0.467781 0.592661 -0.611184 0.300000 0.000000 0.600000
-0.047931 0.474081 -0.521096 0.300000 0.000000 0.600000
-0.309318 -0.057368 -0.193237 0.300000 0.000000 0.600000
-0.352724 -0.231646 0.310441 0.000000 0.500000 0.500000
-0.253546 -0.230740 0.623286 0.000000 0.500000 0.500000
-0.104399 0.082889 -0.248986 0.300000 0.000000 0.600000
0.272684 0.472927 -0.517650 0.600000 0.300000 0.000000
0.307290 0.335323 -0.420221 0.600000 0.300000 0.000000
0.193757 0.055700 -0.272373 0.300000 0.000000 0.600000
0.306542 0.315528 -0.454226 0.300000 0.000000 0.600000
0.077455 0.017733 -0.203664 0.300000 0.000000 0.600000
0.506679 -0.230530 0.695405 0.000000 0.500000 0.500000
-0.083010 0.343181 -0.425784 0.600000 0.300000 0.000000
-0.340928 0.199446 -0.330062 0.300000 0.000000 0.600000
0.078448 0.130424 -0.324672 0.300000 0.000000 0.600000
0.288950 -0.167812 0.239123 0.500000 0.500000 0.000000
0.439907 0.213308 -0.333829 0.600000 0.300000 0.000000
0.191689 -0.166253 0.467193 0.000000 0.500000 0.500000
-0.103786 -0.168001 0.126473 0.500000 0.500000 0.000000
-0.110900 0.397230 -0.464053 0.600000 0.300000 0.000000
0.006498 0.462043 -0.509944 0.600000 0.300000 0.000000
0.146794 -0.167804 0.243546 0.500000 0.500000 0.000000
-0.068101 0.513494 -0.589829 0.300000 0.000000 0.600000
0.174324 -0.161635 -0.080986 0.300000 0.000000 0.600000
-0.339405 -0.166961 0.214137 0.500000 0.500000 0.000000
0.354725 -0.232668 -0.042477 0.000000 0.500000 0.500000
0.023100 0.345262 -0.431490 0.300000 0.000000 0.600000
0.357353 -0.231683 -0.114384 0.000000 1.000000 0.000000
0.465525 -0.166130 0.500877 0.000000 0.500000 0.500000
-0.505066 -0.167391 0.065306 0.000000 0.500000 0.500000
0.458266 -0.165646 0.668329 0.000000 0.500000 0.500000
0.539779 0.001841 -0.192610 0.300000 0.000000 0.600000
-0.545237 -0.226813 0.432829 0.000000 0.500000 0.500000
-0.303108 -0.230468 0.717302 0.000000 0.500000 0.500000
0.001412 0.388356 -0.461466 0.300000 0.000000 0.600000
0.282622 -0.232045 0.172504 0.000000 0.500000 0.500000
-0.326494 0.040030 -0.211142 0.600000 0.300000 0.000000
0.136848 -0.166688 0.577037 0.600000 0.000000 0.300000
0.126104 -0.175031 -0.104838 0.300000 0.000000 0.600000
0.196610 -0.231354 0.411142 0.000000 0.500000 0.500000
0.380999 0.306858 -0.404777 0.300000 0.000000 0.600000
0.252429 0.083293 -0.291685 0.300000 0.000000 0.600000
-0.342050 -0.166806 0.567160 0.000000 0.500000 0.500000
-0.208117 -0.167631 0.346473 0.500000 0.500000 0.000000
-0.140501 -0.167254 0.281404 0.500000 0.500000 0.000000
-0.474199 0.119486 -0.317016 0.300000 0.000000 0.600000
-0.010328 -0.232008 0.185120 0.000000 0.500000 0.500000
-0.359494 -0.166192 0.611291 0.000000 0.500000 0.500000
-0.245345 -0.175714 -0.118677 0.000000 1.000000 0.000000
-0.399811 0.335814 -0.468424 0.300000 0.000000 0.600000
0.169314 0.452227 -0.505894 0.300000 0.000000 0.600000
-0.155172 -0.232664 -0.041234 0.000000 0.500000 0.500000
-0.330841 -0.075928 -0.129039 0.600000 0.300000 0.000000
-0.107721 -0.117228 -0.109786 0.300000 0.000000 0.600000
-0.067040 -0.196967 -0.124465 0.000000 1.000000 0.000000
0.399663 0.275337 -0.377749 0.600000 0.300000 0.000000
0.165960 0.500895 -0.583031 0.300000 0.000000 0.600000
0.223454 0.334458 -0.423975 0.300000 0.000000 0.600000
0.064719 0.317546 -0.407634 0.600000 0.300000 0.000000
0.196322 -0.168003 0.124815 0.500000 0.500000 0.000000
0.285710 -0.231445 0.380035 0.000000 0.500000 0.500000
-0.463657 0.486493 -0.573883 0.300000 0.000000 0.600000
-0.482260 0.523401 -0.594497 0.300000 0.000000 0.600000
0.539998 0.049185 -0.251149 0.300000 0.000000 0.600000
-0.471195 -0.064363 -0.137227 0.600000 0.300000 0.000000
-0.407618 0.257394 -0.413538 0.300000 0.000000 0.600000
-0.453821 -0.165634 0.671630 0.000000 0.500000 0.500000
0.146063 0.368011 -0.447314 0.300000 0.000000 0.600000
0.263876 0.608095 -0.588505 0.300000 0.000000 0.600000
-0.531362 -0.082449 -0.175683 0.300000 0.000000 0.600000
0.006956 -0.087169 -0.172379 0.300000 0.000000 0.600000
-0.365768 0.489979 -0.576163 0.300000 0.000000 0.600000
-0.264423 -0.230612 0.667551 0.000000 0.500000 0.500000
-0.423470 -0.188052 0.789804 0.000000 0.500000 0.500000
-0.247756 -0.156301 -0.082608 0.300000 0.000000 0.600000
0.530299 -0.167452 0.115063 0.000000 0.500000 0.500000
0.390496 0.522115 -0.593956 0.300000 0.000000 0.600000
-0.328922 -0.231813 0.252265 0.000000 0.500000 0.500000
0.514598 0.428635 -0.489484 0.300000 0.000000 0.600000
0.443894 0.138314 -0.330194 0.300000 0.000000 0.600000
0.258098 -0.231108 0.496434 0.000000 0.500000 0.500000
-0.140291 -0.163487 -0.115014 0.300000 0.000000 0.600000
-0.101258 -0.167502 0.315063 0.500000 0.500000 0.000000
0.254819 -0.232012 0.183832 0.000000 0.500000 0.500000
0.415164 -0.064610 -0.137052 0.600000 0.300000 0.000000
0.101593 -0.166540 -0.112410 0.300000 0.000000 0.600000
-0.133826 0.488205 -0.528467 0.600000 0.300000 0.000000
0.447789 -0.166349 0.425179 0.000000 0.500000 0.500000
-0.505891 0.158064 -0.294714 0.600000 0.300000 0.000000
0.007517 0.281965 -0.387462 0.300000 0.000000 0.600000
0.102823 -0.101862 -0.162096 0.300000 0.000000 0.600000
-0.522863 -0.167296 0.098637 0.000000 0.500000 0.500000
-0.040988 -0.008907 -0.185134 0.300000 0.000000 0.600000
0.307427 -0.024687 -0.216110 0.300000 0.000000 0.600000
0.162351 -0.168004 0.124421 0.500000 0.500000 0.000000
-0.167576 0.222056 -0.388805 0.300000 0.000000 0.600000
-0.428260 -0.166771 0.279715 0.500000 0.500000 0.000000
-0.048413 -0.151835 -0.124711 0.300000 0.000000 0.600000
-0.355388 -0.166964 0.384080 0.500000 0.500000 0.000000
-0.198600 -0.063182 -0.138064 0.600000 0.300000 0.000000
0.017312 0.341267 -0.472240 0.300000 0.000000 0.600000
0.226840 -0.168095 0.071407 0.500000 0.000000 0.500000
0.064701 0.359969 -0.437671 0.600000 0.300000 0.000000
-0.418732 -0.107972 -0.106351 0.600000 0.300000 0.000000
0.297405 -0.167960 0.150613 0.500000 0.500000 0.000000
0.453752 -0.172458 -0.048221 0.000000 0.500000 0.500000
-0.065581 -0.113877 -0.112117 0.300000 0.000000 0.600000
-0.545563 0.485028 -0.572858 0.300000 0.000000 0.600000
0.256377 -0.230859 0.582048 0.000000 0.500000 0.500000
0.212609 -0.086796 -0.121344 0.600000 0.300000 0.000000
0.447357 -0.168184 -0.034141 0.000000 0.500000 0.500000
-0.040426 -0.231162 0.477622 0.000000 0.500000 0.500000
-0.530092 -0.232183 0.112829 0.000000 0.500000 0.500000
-0.329128 0.027006 -0.201920 0.600000 0.300000 0.000000
-0.108629 0.586095 -0.583616 0.300000 0.000000 0.600000
0.321243 -0.166428 0.397877 0.000000 0.500000 0.500000
0.056870 0.456836 -0.506257 0.600000 0.300000 0.000000
0.398580 0.358046 -0.440383 0.300000 0.000000 0.600000
0.270238 -0.166486 0.378066 0.000000 0.500000 0.500000
-0.396594 -0.145375 -0.129918 0.300000 0.000000 0.600000
0.116980 0.087976 -0.294963 0.300000 0.000000 0.600000
-0.259371 -0.127454 -0.143779 0.300000 0.000000 0.600000
0.145748 -0.231388 0.399743 0.000000 0.500000 0.500000
0.319463 -0.101957 -0.120409 0.300000 0.000000 0.600000
-0.333019 -0.040384 -0.154206 0.600000 0.300000 0.000000
-0.318365 -0.231762 0.270153 0.000000 0.500000 0.500000
-0.455994 0.037542 -0.217443 0.300000 0.000000 0.600000
0.087477 0.427128 -0.485222 0.600000 0.300000 0.000000
-0.378454 -0.089549 -0.119395 0.600000 0.300000 0.000000
-0.507598 -0.161753 -0.116486 0.300000 0.000000 0.600000
-0.318871 0.551776 -0.604370 0.300000 0.000000 0.600000
-0.199816 0.554704 -0.572386 0.300000 0.000000 0.600000
0.239597 -0.073722 -0.181791 0.300000 0.000000 0.600000
0.212568 -0.165634 0.672777 0.000000 0.500000 0.500000
-0.180308 -0.031727 -0.160335 0.600000 0.300000 0.000000
0.058677 0.186436 -0.363874 0.300000 0.000000 0.600000
-0.099882 0.111443 -0.261705 0.600000 0.300000 0.000000
0.449974 -0.168062 0.163346 0.000000 0.500000 0.500000
-0.089197 -0.074397 -0.139580 0.300000 0.000000 0.600000
0.150448 0.415002 -0.476636 0.600000 0.300000 0.000000
0.510465 0.008185 -0.239117 0.300000 0.000000 0.600000
0.539998 0.507573 -0.553507 0.300000 0.000000 0.600000
-0.506570 0.499358 -0.582167 0.300000 0.000000 0.600000
-0.131625 0.381835 -0.456930 0.300000 0.000000 0.600000
-0.055330 -0.231807 0.254637 0.000000 0.500000 0.500000
-0.353480 -0.159731 -0.118182 0.300000 0.000000 0.600000
0.440111 0.531784 -0.597853 0.300000 0.000000 0.600000
0.521167 0.300890 -0.400626 0.300000 0.000000 0.600000
0.214811 -0.232201 -0.113433 0.000000 1.000000 0.000000
-0.019350 -0.168009 0.121524 0.500000 0.500000 0.000000
0.142433 0.490332 -0.576393 0.300000 0.000000 0.600000
-0.113179 -0.166396 0.408759 0.500000 0.500000 0.000000
-0.186556 0.158413 -0.294961 0.600000 0.300000 0.000000
0.172883 -0.167716 0.298738 0.500000 0.500000 0.000000
0.240017 -0.231727 0.282427 0.000000 0.500000 0.500000
-0.416813 0.606860 -0.588282 0.300000 0.000000 0.600000
-0.031732 0.471006 -0.518957 0.300000 0.000000 0.600000
-0.041251 0.018713 -0.204346 0.300000 0.000000 0.600000
0.494246 0.547652 -0.569103 0.300000 0.000000 0.600000
-0.104279 0.360353 -0.441988 0.300000 0.000000 0.600000
0.403197 0.052442 -0.219930 0.600000 0.300000 0.000000
-0.033427 -0.051752 -0.146157 0.600000 0.300000 0.000000
0.203348 -0.025278 -0.164901 0.600000 0.300000 0.000000
0.076104 0.297237 -0.398084 0.300000 0.000000 0.600000
-0.414433 0.433687 -0.492998 0.300000 0.000000 0.600000
-0.463927 0.195679 -0.321347 0.600000 0.300000 0.000000
0.267463 0.303687 -0.402571 0.300000 0.000000 0.600000
-0.187578 -0.231186 0.469389 0.000000 0.500000 0.500000
0.076904 0.598918 -0.586769 0.300000 0.000000 0.600000
-0.531908 0.430705 -0.490924 0.300000 0.000000 0.600000
-0.243305 -0.167579 0.377272 0.500000 0.500000 0.000000
0.506772 0.339823 -0.471229 0.300000 0.000000 0.600000
0.279691 0.306044 -0.447588 0.300000 0.000000 0.600000
-0.016013 0.357341 -0.435811 0.600000 0.300000 0.000000
0.374294 0.375896 -0.496477 0.300000 0.000000 0.600000
-0.500219 0.540313 -0.600887 0.300000 0.000000 0.600000
0.389220 -0.167257 0.222351 0.000000 0.500000 0.500000
-0.299237 0.223598 -0.341115 0.600000 0.300000 0.000000
-0.144599 0.238028 -0.399984 0.300000 0.000000 0.600000
0.034518 0.244242 -0.361222 0.300000 0.000000 0.600000
-0.284068 -0.230585 0.676961 0.000000 0.500000 0.500000
-0.205981 0.100150 -0.303483 0.300000 0.000000 0.600000
-0.483219 -0.029942 -0.161599 0.600000 0.300000 0.000000
-0.469068 -0.165623 0.677654 0.000000 0.500000 0.500000
-0.033303 0.256581 -0.412969 0.300000 0.000000 0.600000
-0.128457 -0.232706 -0.055733 0.000000 0.500000 0.500000
-0.048915 0.091496 -0.297426 0.300000 0.000000 0.600000
-0.010188 -0.230792 0.605199 0.000000 0.500000 0.500000
0.000051 0.405697 -0.473529 0.300000 0.000000 0.600000
-0.155937 0.178462 -0.315466 0.300000 0.000000 0.600000
-0.129455 -0.168088 0.057488 0.500000 0.000000 0.500000
0.323437 -0.230292 0.778170 0.000000 0.500000 0.500000
0.539969 -0.227748 0.044348 0.000000 0.500000 0.500000
-0.290460 -0.232599 -0.018717 0.000000 0.500000 0.500000
0.210700 -0.230570 0.682060 0.000000 0.500000 0.500000
-0.340976 -0.230308 0.772302 0.000000 0.500000 0.500000
-0.017940 -0.167549 0.026984 0.000000 0.500000 0.500000
0.249136 0.116915 -0.315217 0.300000 0.000000 0.600000
0.259801 0.351751 -0.479578 0.300000 0.000000 0.600000
0.295726 0.322551 -0.415692 0.300000 0.000000 0.600000
0.003638 -0.230154 0.798517 0.000000 0.500000 0.500000
-0.098069 -0.231681 0.298206 0.000000 0.500000 0.500000
-0.113855 -0.130276 -0.090558 0.600000 0.300000 0.000000
0.078067 0.225534 -0.348209 0.300000 0.000000 0.600000
-0.085822 -0.221772 -0.122055 0.000000 1.000000 0.000000
0.465173 -0.124367 -0.094742 0.600000 0.300000 0.000000
0.425505 -0.229943 0.799547 0.000000 0.500000 0.500000
0.367023 0.589918 -0.611040 0.300000 0.000000 0.600000
-0.292722 -0.125362 -0.094038 0.600000 0.300000 0.000000
0.320074 -0.231329 0.420074 0.000000 0.500000 0.500000
-0.430312 0.131769 -0.325613 0.300000 0.000000 0.600000
0.212993 0.046965 -0.216052 0.600000 0.300000 0.000000
0.131395 -0.055159 -0.194783 0.300000 0.000000 0.600000
-0.222284 0.111551 -0.311462 0.300000 0.000000 0.600000
-0.343234 0.569783 -0.578447 0.300000 0.000000 0.600000
-0.369309 0.020094 -0.247452 0.300000 0.000000 0.600000
-0.527188 0.581560 -0.582354 0.300000 0.000000 0.600000
0.303114 0.403110 -0.515524 0.300000 0.000000 0.600000
-0.352581 -0.167992 0.131845 0.500000 0.500000 0.000000
0.320376 -0.167633 0.345575 0.500000 0.500000 0.000000
0.167773 -0.133970 -0.138839 0.300000 0.000000 0.600000
0.331500 0.489183 -0.529159 0.600000 0.300000 0.000000
0.539998 -0.040432 -0.187138 0.300000 0.000000 0.600000
0.510471 -0.232799 -0.087954 0.000000 1.000000 0.000000
-0.135045 0.365467 -0.489178 0.300000 0.000000 0.600000
0.526114 -0.166184 0.552987 0.000000 0.500000 0.500000
-0.062296 0.251512 -0.360880 0.600000 0.300000 0.000000
0.027238 0.546494 -0.602902 0.300000 0.000000 0.600000
-0.079871 0.439757 -0.494164 0.600000 0.300000 0.000000
-0.515861 -0.183359 0.779637 0.000000 0.500000 0.500000
0.417542 0.599278 -0.611532 0.300000 0.000000 0.600000
0.025694 -0.166586 0.343872 0.500000 0.500000 0.000000
0.423377 0.064983 -0.236531 0.300000 0.000000 0.600000
