0.439017 -0.141423 0.344879 0.300000 0.600000 0.000000
0.249394 0.508977 -0.603528 0.300000 0.000000 0.600000
0.361441 -0.182735 0.445459 0.300000 0.600000 0.000000
0.134276 -0.137452 0.080839 0.000000 0.500000 0.500000
0.159990 -0.182735 -0.065112 0.300000 0.600000 0.000000
-0.232916 -0.137452 0.323664 0.000000 0.500000 0.500000
-0.360525 -0.126400 0.516025 0.300000 0.600000 0.000000
-0.333148 -0.162658 -0.117037 0.300000 0.600000 0.000000
-0.548213 -0.126400 0.514281 0.300000 0.600000 0.000000
0.357665 -0.182735 0.735536 0.300000 0.600000 0.000000
-0.450749 -0.141423 0.243517 0.300000 0.600000 0.000000
0.361889 -0.182735 0.350034 0.300000 0.600000 0.000000
-0.284981 -0.182735 -0.033678 0.300000 0.600000 0.000000
-0.346360 0.208136 -0.399848 0.600000 0.000000 0.300000
0.134699 0.324737 -0.497156 0.300000 0.000000 0.600000
-0.364861 0.359596 -0.517281 0.300000 0.000000 0.600000
0.057028 -0.173517 -0.209486 0.300000 0.000000 0.600000
-0.558159 -0.182735 0.348818 0.300000 0.600000 0.000000
0.248422 -0.182735 0.578317 0.300000 0.600000 0.000000
0.066161 -0.182735 0.361989 0.300000 0.600000 0.000000
-0.265627 -0.141423 0.133074 0.300000 0.600000 0.000000
-0.457208 -0.182735 0.407045 0.300000 0.600000 0.000000
0.274026 -0.182735 0.207729 0.300000 0.600000 0.000000
-0.320992 -0.182735 0.566179 0.300000 0.600000 0.000000
0.470630 -0.141423 0.017750 0.300000 0.600000 0.000000
0.150407 -0.141423 0.442259 0.300000 0.600000 0.000000
0.499107 -0.126400 0.567509 0.300000 0.600000 0.000000
-0.124127 -0.126400 0.672446 0.300000 0.600000 0.000000
0.515994 -0.182735 0.035977 0.300000 0.600000 0.000000
-0.181260 -0.141423 0.458521 0.300000 0.600000 0.000000
0.296153 0.602876 -0.624330 0.300000 0.000000 0.600000
0.184180 0.339126 -0.475476 0.600000 0.000000 0.300000
-0.148845 -0.141423 -0.030240 0.300000 0.600000 0.000000
0.359752 0.574620 -0.641424 0.300000 0.000000 0.600000
0.093325 -0.126400 0.705399 0.300000 0.600000 0.000000
-0.294049 -0.135784 0.021174 0.000000 0.500000 0.500000
-0.248063 0.158434 -0.401144 0.300000 0.000000 0.600000
-0.356044 -0.182735 0.010871 0.300000 0.600000 0.000000
-0.442367 -0.081724 -0.231925 0.300000 0.000000 0.600000
0.446954 -0.182735 -0.165482 0.300000 0.600000 0.000000
-0.212031 -0.141423 0.044399 0.300000 0.600000 0.000000
-0.515602 0.619247 -0.633277 0.300000 0.000000 0.600000
-0.329496 -0.126400 -0.067470 0.300000 0.600000 0.000000
-0.367730 -0.182735 -0.062202 0.300000 0.600000 0.000000
-0.361088 -0.086605 -0.227894 0.300000 0.000000 0.600000
-0.360850 -0.189050 -0.194411 0.300000 0.000000 0.600000
-0.285896 -0.182735 0.214661 0.300000 0.600000 0.000000
-0.239019 -0.182735 0.276598 0.300000 0.600000 0.000000
0.433458 0.322641 -0.495946 0.300000 0.000000 0.600000
-0.346632 0.290984 -0.448837 0.600000 0.000000 0.300000
0.378111 -0.139039 0.206055 0.000000 0.500000 0.500000
0.546170 -0.126400 0.260258 0.300000 0.600000 0.000000
-0.293395 0.102807 -0.339040 0.600000 0.000000 0.300000
0.457087 0.000152 -0.279156 0.600000 0.000000 0.300000
0.020434 0.411874 -0.547461 0.300000 0.000000 0.600000
-0.160051 -0.182690 0.745841 0.300000 0.600000 0.000000
0.063348 -0.126400 0.680968 0.300000 0.600000 0.000000
0.558623 -0.181570 0.710831 0.300000 0.600000 0.000000
0.167777 0.467419 -0.550700 0.600000 0.000000 0.300000
0.373133 0.422891 -0.523837 0.600000 0.000000 0.300000
0.321172 0.159963 -0.373195 0.600000 0.000000 0.300000
0.374817 -0.182735 0.094457 0.300000 0.600000 0.000000
-0.082870 0.336950 -0.475377 0.600000 0.000000 0.300000
-0.382960 0.222524 -0.408429 0.600000 0.000000 0.300000
0.105201 -0.020138 -0.269210 0.600000 0.000000 0.300000
-0.208872 -0.105454 -0.248786 0.300000 0.000000 0.600000
0.389375 -0.136433 0.319203 0.000000 0.500000 0.500000
-0.482186 -0.126400 -0.064155 0.300000 0.600000 0.000000
-0.068800 -0.141423 0.168670 0.300000 0.600000 0.000000
0.349063 -0.131110 -0.130780 0.300000 0.600000 0.000000
0.070110 -0.030949 -0.291805 0.300000 0.000000 0.600000
0.279906 -0.141423 0.200896 0.000000 0.500000 0.500000
0.539392 -0.189136 -0.194173 0.300000 0.000000 0.600000
-0.185011 0.475801 -0.584378 0.300000 0.000000 0.600000
0.116960 -0.182735 0.432406 0.300000 0.600000 0.000000
-0.410718 -0.126400 0.714958 0.300000 0.600000 0.000000
-0.246320 -0.155632 -0.130904 0.500000 0.000000 0.500000
0.117854 -0.141423 0.311412 0.300000 0.600000 0.000000
-0.497383 -0.126400 0.720933 0.300000 0.600000 0.000000
-0.000664 -0.182735 0.089865 0.300000 0.600000 0.000000
0.438339 -0.031676 -0.262550 0.600000 0.000000 0.300000
0.313225 -0.182735 -0.069987 0.300000 0.600000 0.000000
-0.056825 -0.126400 -0.061116 0.300000 0.600000 0.000000
0.380827 -0.182735 0.473624 0.300000 0.600000 0.000000
-0.454762 -0.155957 -0.185842 0.300000 0.000000 0.600000
-0.549301 -0.143761 0.341224 0.300000 0.600000 0.000000
-0.531023 0.330465 -0.467029 0.300000 0.000000 0.600000
-0.400602 0.341918 -0.478242 0.600000 0.000000 0.300000
-0.203575 -0.137472 0.293589 0.000000 0.500000 0.500000
0.381951 -0.182735 0.447938 0.300000 0.600000 0.000000
0.325451 -0.141423 0.456627 0.300000 0.600000 0.000000
0.319672 -0.064642 -0.272346 0.300000 0.000000 0.600000
-0.004999 -0.126400 0.628254 0.300000 0.600000 0.000000
-0.364804 -0.141423 0.208565 0.300000 0.600000 0.000000
-0.305984 -0.182735 0.206459 0.300000 0.600000 0.000000
-0.479852 -0.133975 -0.199148 0.300000 0.000000 0.600000
0.022288 -0.126400 0.743525 0.300000 0.600000 0.000000
0.053003 0.019470 -0.320907 0.300000 0.000000 0.600000
0.366463 0.377606 -0.497693 0.600000 0.000000 0.300000
0.543658 -0.126400 0.714067 0.300000 0.600000 0.000000
0.282010 0.000687 -0.281221 0.600000 0.000000 0.300000
-0.061623 -0.141423 0.381160 0.000000 0.500000 0.500000
0.225786 0.550067 -0.595330 0.300000 0.000000 0.600000
-0.149526 0.057617 -0.314098 0.600000 0.000000 0.300000
-0.571835 -0.170818 0.704031 0.300000 0.600000 0.000000
-0.451727 -0.182735 -0.091228 0.300000 0.600000 0.000000
-0.375389 0.466567 -0.579037 0.300000 0.000000 0.600000
0.400831 -0.126400 0.638151 0.300000 0.600000 0.000000
0.451704 -0.133436 -0.198726 0.300000 0.000000 0.600000
0.185387 -0.182735 0.490660 0.300000 0.600000 0.000000
0.258116 -0.135574 -0.117037 0.300000 0.600000 0.000000
0.560264 -0.049499 -0.265434 0.300000 0.000000 0.600000
-0.238455 -0.143450 0.761791 0.300000 0.600000 0.000000
-0.104868 -0.126400 0.620835 0.300000 0.600000 0.000000
-0.007411 -0.182735 0.559607 0.300000 0.600000 0.000000
0.118495 0.399150 -0.540120 0.300000 0.000000 0.600000
-0.211500 -0.182735 0.631641 0.300000 0.600000 0.000000
0.123095 0.427734 -0.527786 0.600000 0.000000 0.300000
-0.456057 0.326001 -0.469043 0.600000 0.000000 0.300000
0.136562 -0.182735 0.431200 0.300000 0.600000 0.000000
0.500211 -0.182735 0.109265 0.300000 0.600000 0.000000
-0.232416 0.063339 -0.317320 0.600000 0.000000 0.300000
0.520446 -0.182735 0.611898 0.300000 0.600000 0.000000
0.224352 0.352089 -0.482957 0.600000 0.000000 0.300000
-0.032308 -0.126400 0.523529 0.300000 0.600000 0.000000
-0.477696 -0.126400 -0.121279 0.300000 0.600000 0.000000
0.525376 -0.126400 0.600269 0.300000 0.600000 0.000000
-0.534451 0.469867 -0.547773 0.300000 0.000000 0.600000
-0.331165 -0.190753 -0.180230 0.300000 0.000000 0.600000
-0.340408 -0.126400 0.688285 0.300000 0.600000 0.000000
0.129271 0.093190 -0.334630 0.600000 0.000000 0.300000
-0.345269 -0.126400 0.637864 0.300000 0.600000 0.000000
0.238024 -0.126400 0.638535 0.300000 0.600000 0.000000
-0.555189 -0.126400 0.353095 0.300000 0.600000 0.000000
-0.572759 0.143797 -0.372775 0.300000 0.000000 0.600000
0.025764 -0.141423 0.069698 0.300000 0.600000 0.000000
-0.168136 -0.126400 0.751484 0.300000 0.600000 0.000000
-0.571835 -0.181041 0.256868 0.300000 0.600000 0.000000
0.406252 -0.126400 0.664173 0.300000 0.600000 0.000000
0.505377 -0.126400 0.615012 0.300000 0.600000 0.000000
-0.303784 -0.126265 -0.159873 0.500000 0.000000 0.500000
0.248622 -0.126400 0.527579 0.300000 0.600000 0.000000
0.290341 0.416972 -0.550404 0.300000 0.000000 0.600000
-0.560042 -0.182735 0.033209 0.300000 0.600000 0.000000
0.464084 -0.141423 0.276608 0.300000 0.600000 0.000000
0.483488 -0.141423 0.257844 0.300000 0.600000 0.000000
0.022583 -0.141423 0.269424 0.000000 0.500000 0.500000
-0.171025 0.401011 -0.541194 0.300000 0.000000 0.600000
-0.155381 -0.135434 -0.231476 0.300000 0.000000 0.600000
0.201463 0.604586 -0.649580 0.300000 0.000000 0.600000
-0.318258 -0.141423 0.390226 0.300000 0.600000 0.000000
-0.571835 -0.174681 -0.093103 0.300000 0.600000 0.000000
-0.067220 -0.141423 0.416726 0.300000 0.600000 0.000000
0.005424 -0.126400 0.655109 0.300000 0.600000 0.000000
-0.471492 -0.141423 0.365866 0.300000 0.600000 0.000000
0.356312 -0.070756 -0.268816 0.300000 0.000000 0.600000
0.010172 -0.182735 0.015710 0.300000 0.600000 0.000000
-0.472164 -0.182735 0.555764 0.300000 0.600000 0.000000
-0.335239 -0.141423 -0.018343 0.300000 0.600000 0.000000
-0.141081 -0.137452 0.185708 0.000000 0.500000 0.500000
0.418958 0.192228 -0.420652 0.300000 0.000000 0.600000
-0.469674 -0.182735 0.067318 0.300000 0.600000 0.000000
0.558623 -0.181809 -0.020176 0.300000 0.600000 0.000000
0.467266 -0.182735 0.686971 0.300000 0.600000 0.000000
0.014693 -0.137452 0.335819 0.000000 0.500000 0.500000
0.152841 0.615645 -0.630878 0.300000 0.000000 0.600000
-0.393997 -0.126400 -0.091239 0.300000 0.600000 0.000000
0.286084 0.511719 -0.605111 0.300000 0.000000 0.600000
-0.039850 -0.141423 0.012641 0.300000 0.600000 0.000000
0.037258 -0.136045 -0.117037 0.300000 0.600000 0.000000
-0.285725 -0.141423 0.238316 0.300000 0.600000 0.000000
0.036668 0.344817 -0.479916 0.600000 0.000000 0.300000
-0.417052 -0.182735 0.149282 0.300000 0.600000 0.000000
0.341411 -0.141423 0.185863 0.300000 0.600000 0.000000
-0.230189 0.503462 -0.571504 0.600000 0.000000 0.300000
-0.476899 -0.182735 0.025032 0.300000 0.600000 0.000000
0.396535 -0.182735 0.168534 0.300000 0.600000 0.000000
0.185979 -0.144178 -0.117037 0.300000 0.600000 0.000000
0.334489 0.288350 -0.446160 0.600000 0.000000 0.300000
-0.006907 0.240844 -0.444383 0.300000 0.000000 0.600000
0.213704 -0.182735 -0.034730 0.300000 0.600000 0.000000
-0.564163 -0.126400 0.224480 0.300000 0.600000 0.000000
-0.321509 0.015221 -0.318456 0.300000 0.000000 0.600000
0.450031 0.291821 -0.478146 0.300000 0.000000 0.600000
0.198357 -0.182735 0.559300 0.300000 0.600000 0.000000
0.482731 -0.182735 0.257017 0.300000 0.600000 0.000000
-0.011628 0.463486 -0.577263 0.300000 0.000000 0.600000
0.541101 0.135720 -0.353698 0.300000 0.000000 0.600000
-0.060032 -0.141423 0.314466 0.000000 0.500000 0.500000
0.558623 -0.165850 -0.063921 0.300000 0.600000 0.000000
0.264741 -0.182735 0.385872 0.300000 0.600000 0.000000
-0.550087 -0.126400 0.125303 0.300000 0.600000 0.000000
-0.009356 -0.015927 -0.271641 0.600000 0.000000 0.300000
0.117832 -0.141423 0.096139 0.300000 0.600000 0.000000
0.287038 -0.005903 -0.306277 0.300000 0.000000 0.600000
-0.406984 -0.182735 0.297552 0.300000 0.600000 0.000000
-0.424204 0.273045 -0.438482 0.600000 0.000000 0.300000
0.487266 -0.131761 0.289834 0.300000 0.600000 0.000000
-0.418958 -0.182735 0.007325 0.300000 0.600000 0.000000
-0.417432 -0.182735 0.469865 0.300000 0.600000 0.000000
-0.266315 -0.182735 0.329067 0.300000 0.600000 0.000000
0.183144 -0.182735 0.603793 0.300000 0.600000 0.000000
-0.369482 -0.182735 0.373778 0.300000 0.600000 0.000000
-0.306862 -0.141423 0.056451 0.300000 0.600000 0.000000
0.459745 -0.182735 0.121764 0.300000 0.600000 0.000000
-0.361498 -0.126400 0.759292 0.300000 0.600000 0.000000
-0.022110 -0.130283 -0.117037 0.300000 0.600000 0.000000
0.102814 -0.179709 0.754666 0.300000 0.600000 0.000000
-0.417996 -0.126400 0.635903 0.300000 0.600000 0.000000
0.519872 -0.014791 -0.266798 0.300000 0.000000 0.600000
-0.302819 0.245275 -0.451282 0.300000 0.000000 0.600000
-0.205535 0.144085 -0.362871 0.600000 0.000000 0.300000
0.339330 -0.139031 -0.163450 0.500000 0.000000 0.500000
-0.175439 -0.141423 0.346881 0.000000 0.500000 0.500000
-0.494701 0.283788 -0.473510 0.300000 0.000000 0.600000
0.430943 -0.141423 0.295799 0.300000 0.600000 0.000000
-0.451408 -0.042058 -0.285388 0.300000 0.000000 0.600000
-0.421259 -0.141423 0.468380 0.300000 0.600000 0.000000
0.204908 -0.182735 0.273784 0.300000 0.600000 0.000000
0.501445 -0.182735 -0.069599 0.300000 0.600000 0.000000
-0.461610 -0.133911 0.432454 0.000000 0.500000 0.500000
0.158979 -0.182735 0.319815 0.300000 0.600000 0.000000
0.463722 -0.141423 -0.015150 0.300000 0.600000 0.000000
-0.031203 -0.182735 0.141688 0.300000 0.600000 0.000000
0.503821 -0.126400 0.182447 0.300000 0.600000 0.000000
-0.494040 -0.049953 -0.248902 0.300000 0.000000 0.600000
0.558623 -0.176995 -0.118118 0.300000 0.600000 0.000000
-0.149040 0.582928 -0.645894 0.300000 0.000000 0.600000
-0.354974 -0.182735 0.608834 0.300000 0.600000 0.000000
-0.373350 -0.141423 0.245164 0.300000 0.600000 0.000000
0.350359 -0.126400 0.524352 0.300000 0.600000 0.000000
-0.052539 -0.141423 0.038321 0.300000 0.600000 0.000000
-0.190630 -0.044475 -0.255158 0.600000 0.000000 0.300000
-0.401828 -0.117700 -0.207816 0.300000 0.000000 0.600000
-0.514053 -0.182735 0.289943 0.300000 0.600000 0.000000
-0.060557 -0.141423 0.453003 0.300000 0.600000 0.000000
0.321167 -0.182735 0.433840 0.300000 0.600000 0.000000
-0.396440 -0.140699 0.380948 0.000000 0.500000 0.500000
-0.270083 0.307228 -0.458211 0.600000 0.000000 0.300000
0.440265 0.089488 -0.332488 0.600000 0.000000 0.300000
0.469413 -0.141423 0.082011 0.300000 0.600000 0.000000
-0.060278 0.164035 -0.375545 0.600000 0.000000 0.300000
-0.389381 0.383392 -0.531013 0.300000 0.000000 0.600000
0.558623 -0.153559 -0.094705 0.300000 0.600000 0.000000
0.191695 -0.182735 0.725723 0.300000 0.600000 0.000000
-0.007380 -0.182735 0.112564 0.300000 0.600000 0.000000
0.090208 0.463446 -0.577240 0.300000 0.000000 0.600000
-0.036275 -0.137452 0.161936 0.000000 0.500000 0.500000
-0.026911 0.016569 -0.319233 0.300000 0.000000 0.600000
-0.340116 -0.182735 0.650977 0.300000 0.600000 0.000000
-0.437893 0.025020 -0.294123 0.600000 0.000000 0.300000
0.383415 0.392011 -0.506008 0.600000 0.000000 0.300000
-0.416935 0.237499 -0.417799 0.600000 0.000000 0.300000
0.285021 -0.182735 0.122249 0.300000 0.600000 0.000000
-0.329775 0.147767 -0.364997 0.600000 0.000000 0.300000
-0.022321 -0.182735 0.196120 0.300000 0.600000 0.000000
-0.492094 0.358374 -0.484949 0.300000 0.000000 0.600000
0.398433 0.619058 -0.643049 0.300000 0.000000 0.600000
-0.343623 -0.137154 0.351199 0.000000 0.500000 0.500000
0.541263 0.190163 -0.385136 0.300000 0.000000 0.600000
-0.274185 -0.132964 -0.184793 0.300000 0.000000 0.600000
0.107229 -0.128509 -0.038168 0.300000 0.600000 0.000000
0.057501 0.187865 -0.389303 0.600000 0.000000 0.300000
-0.563325 -0.126400 0.023256 0.300000 0.600000 0.000000
-0.334128 0.092891 -0.333300 0.600000 0.000000 0.300000
-0.076223 0.498064 -0.597226 0.300000 0.000000 0.600000
0.266339 -0.140761 0.498894 0.300000 0.600000 0.000000
-0.114405 -0.162138 -0.216062 0.300000 0.000000 0.600000
-0.555947 -0.182735 0.215829 0.300000 0.600000 0.000000
0.168610 -0.142610 -0.117037 0.300000 0.600000 0.000000
0.165472 -0.182735 0.131650 0.300000 0.600000 0.000000
0.439009 -0.126405 -0.038168 0.300000 0.600000 0.000000
0.111189 -0.182735 0.080224 0.300000 0.600000 0.000000
0.494394 -0.139005 -0.229414 0.300000 0.000000 0.600000
0.148416 -0.137452 0.153985 0.000000 0.500000 0.500000
-0.461683 0.296006 -0.451735 0.600000 0.000000 0.300000
-0.057388 -0.178075 0.756675 0.300000 0.600000 0.000000
0.025335 0.368907 -0.522656 0.300000 0.000000 0.600000
-0.409951 -0.126400 -0.139125 0.300000 0.600000 0.000000
-0.002663 0.336012 -0.501860 0.300000 0.000000 0.600000
-0.015398 -0.141423 0.214373 0.300000 0.600000 0.000000
-0.316658 -0.141423 0.326834 0.300000 0.600000 0.000000
-0.200762 -0.137452 0.152187 0.000000 0.500000 0.500000
0.423319 -0.182735 0.060804 0.300000 0.600000 0.000000
-0.290763 -0.135238 0.437097 0.000000 0.500000 0.500000
0.459861 -0.182735 0.414202 0.300000 0.600000 0.000000
-0.475960 -0.126400 -0.102430 0.300000 0.600000 0.000000
0.525104 -0.126400 0.511192 0.300000 0.600000 0.000000
-0.317373 -0.182735 0.346920 0.300000 0.600000 0.000000
-0.153073 0.614403 -0.646022 0.300000 0.000000 0.600000
-0.497647 0.073763 -0.319583 0.300000 0.000000 0.600000
-0.308279 -0.142678 -0.133291 0.500000 0.000000 0.500000
0.305283 -0.123865 -0.238155 0.300000 0.000000 0.600000
-0.337332 -0.146799 -0.224912 0.300000 0.000000 0.600000
-0.404473 0.574317 -0.641249 0.300000 0.000000 0.600000
-0.041999 0.037782 -0.302648 0.600000 0.000000 0.300000
0.538621 -0.176195 0.758373 0.300000 0.600000 0.000000
-0.429241 -0.163634 -0.215199 0.300000 0.000000 0.600000
0.275306 -0.141423 0.165747 0.000000 0.500000 0.500000
0.349618 -0.182735 0.637525 0.300000 0.600000 0.000000
-0.231505 -0.182735 -0.006776 0.300000 0.600000 0.000000
0.508120 0.404909 -0.543440 0.300000 0.000000 0.600000
0.036257 -0.141423 0.259120 0.000000 0.500000 0.500000
-0.266205 0.141229 -0.391211 0.300000 0.000000 0.600000
-0.514362 -0.182735 0.417962 0.300000 0.600000 0.000000
0.006653 0.544741 -0.593194 0.300000 0.000000 0.600000
-0.422214 0.098956 -0.366799 0.300000 0.000000 0.600000
-0.551129 -0.182735 0.481998 0.300000 0.600000 0.000000
-0.239656 0.520909 -0.581581 0.600000 0.000000 0.300000
0.099689 -0.182735 0.292432 0.300000 0.600000 0.000000
-0.240331 -0.027070 -0.265210 0.600000 0.000000 0.300000
-0.535649 -0.126400 -0.142934 0.300000 0.600000 0.000000
-0.091965 -0.021892 -0.297047 0.300000 0.000000 0.600000
-0.120555 -0.137667 0.392167 0.000000 0.500000 0.500000
0.451800 -0.144405 0.761791 0.300000 0.600000 0.000000
0.498833 -0.126400 0.745491 0.300000 0.600000 0.000000
0.210828 0.088910 -0.332155 0.600000 0.000000 0.300000
0.500105 -0.181766 0.750644 0.300000 0.600000 0.000000
0.003418 -0.141423 -0.020752 0.300000 0.600000 0.000000
-0.305540 -0.182011 0.749921 0.300000 0.600000 0.000000
0.250406 -0.182735 0.691457 0.300000 0.600000 0.000000
-0.154604 0.213600 -0.433004 0.300000 0.000000 0.600000
-0.429192 -0.160614 -0.182822 0.300000 0.000000 0.600000
-0.428312 -0.182735 0.491905 0.300000 0.600000 0.000000
0.307083 0.379790 -0.528936 0.300000 0.000000 0.600000
-0.571835 -0.147855 0.633736 0.300000 0.600000 0.000000
0.316424 -0.181125 -0.156266 0.500000 0.000000 0.500000
-0.426339 0.014871 -0.318254 0.300000 0.000000 0.600000
0.142119 -0.141423 0.112527 0.300000 0.600000 0.000000
-0.309680 -0.141423 0.478118 0.300000 0.600000 0.000000
0.042082 0.352573 -0.513224 0.300000 0.000000 0.600000
-0.276417 -0.182735 0.344239 0.300000 0.600000 0.000000
-0.256527 0.619818 -0.633681 0.300000 0.000000 0.600000
-0.138850 -0.182735 -0.094536 0.300000 0.600000 0.000000
0.230882 -0.182735 0.086962 0.300000 0.600000 0.000000
-0.126629 -0.141423 0.162082 0.000000 0.500000 0.500000
-0.202679 -0.141423 0.205216 0.000000 0.500000 0.500000
0.328001 -0.141423 0.386798 0.300000 0.600000 0.000000
-0.496432 0.588953 -0.615375 0.300000 0.000000 0.600000
-0.323728 -0.138097 -0.002018 0.000000 0.500000 0.500000
0.069122 -0.141423 0.072471 0.300000 0.600000 0.000000
0.018874 0.604789 -0.624519 0.300000 0.000000 0.600000
-0.011050 -0.137452 0.175459 0.000000 0.500000 0.500000
0.100324 -0.137452 0.310269 0.000000 0.500000 0.500000
-0.514296 -0.157211 -0.173372 0.300000 0.600000 0.000000
0.326794 0.606629 -0.626321 0.300000 0.000000 0.600000
-0.177619 -0.182735 0.472641 0.300000 0.600000 0.000000
0.400767 -0.135823 0.231089 0.000000 0.500000 0.500000
0.281996 -0.182735 0.684977 0.300000 0.600000 0.000000
-0.242776 -0.182735 0.661589 0.300000 0.600000 0.000000
-0.332400 -0.182735 0.592952 0.300000 0.600000 0.000000
0.064400 -0.084474 -0.229665 0.300000 0.000000 0.600000
0.197897 -0.171033 -0.210928 0.300000 0.000000 0.600000
-0.329884 0.611894 -0.628613 0.300000 0.000000 0.600000
0.546166 0.094007 -0.363888 0.300000 0.000000 0.600000
-0.065544 -0.137630 0.147339 0.000000 0.500000 0.500000
-0.020514 -0.037935 -0.258933 0.600000 0.000000 0.300000
-0.394313 -0.126400 0.689435 0.300000 0.600000 0.000000
-0.533670 -0.182735 -0.026989 0.300000 0.600000 0.000000
0.381316 -0.182735 0.592280 0.300000 0.600000 0.000000
-0.006614 0.116758 -0.377076 0.300000 0.000000 0.600000
0.255718 0.034849 -0.329786 0.300000 0.000000 0.600000
0.307187 0.214454 -0.433499 0.300000 0.000000 0.600000
-0.147870 -0.182735 0.381189 0.300000 0.600000 0.000000
0.258513 -0.140327 0.031654 0.000000 0.500000 0.500000
0.138705 -0.141423 0.333353 0.300000 0.600000 0.000000
-0.498776 -0.141423 0.018302 0.300000 0.600000 0.000000
-0.559365 -0.126400 0.188772 0.300000 0.600000 0.000000
-0.368459 0.339847 -0.477048 0.600000 0.000000 0.300000
0.359708 -0.182735 -0.047082 0.300000 0.600000 0.000000
0.545804 -0.126400 -0.105854 0.300000 0.600000 0.000000
-0.386970 -0.182735 0.134931 0.300000 0.600000 0.000000
-0.561966 0.056072 -0.341826 0.300000 0.000000 0.600000
-0.145759 -0.141423 0.372325 0.300000 0.600000 0.000000
-0.393856 0.618332 -0.632667 0.300000 0.000000 0.600000
-0.347347 0.096909 -0.365616 0.300000 0.000000 0.600000
0.088931 -0.131416 -0.175935 0.500000 0.000000 0.500000
0.126278 -0.126400 0.724264 0.300000 0.600000 0.000000
-0.043629 -0.126205 -0.159430 0.500000 0.000000 0.500000
0.318340 0.109023 -0.372610 0.300000 0.000000 0.600000
0.112969 -0.141423 0.282567 0.300000 0.600000 0.000000
0.445827 -0.069595 -0.240492 0.600000 0.000000 0.300000
-0.255307 -0.126400 0.533359 0.300000 0.600000 0.000000
0.521283 0.025378 -0.289998 0.300000 0.000000 0.600000
0.269670 -0.126400 0.635452 0.300000 0.600000 0.000000
-0.382671 -0.126400 0.529469 0.300000 0.600000 0.000000
0.136227 -0.182735 0.017361 0.300000 0.600000 0.000000
-0.025154 -0.129768 -0.171492 0.500000 0.000000 0.500000
0.150630 -0.138154 0.498894 0.300000 0.600000 0.000000
-0.103436 0.435426 -0.561061 0.300000 0.000000 0.600000
-0.322598 -0.126400 0.678115 0.300000 0.600000 0.000000
-0.268224 -0.124770 -0.237633 0.300000 0.000000 0.600000
-0.130071 0.384133 -0.531440 0.300000 0.000000 0.600000
-0.175230 -0.138818 0.202371 0.000000 0.500000 0.500000
-0.445525 -0.141423 0.484992 0.300000 0.600000 0.000000
0.121094 -0.182735 0.395211 0.300000 0.600000 0.000000
0.242683 0.004278 -0.283291 0.600000 0.000000 0.300000
0.007366 -0.134913 -0.231777 0.300000 0.000000 0.600000
-0.137624 -0.126400 0.750593 0.300000 0.600000 0.000000
0.217987 0.497263 -0.567925 0.600000 0.000000 0.300000
-0.480807 -0.182735 -0.014150 0.300000 0.600000 0.000000
-0.147926 -0.167936 -0.136694 0.500000 0.000000 0.500000
0.240457 0.480614 -0.587162 0.300000 0.000000 0.600000
-0.064756 -0.182735 0.137096 0.300000 0.600000 0.000000
0.430479 -0.126400 0.647730 0.300000 0.600000 0.000000
-0.260658 -0.126400 -0.044716 0.300000 0.600000 0.000000
-0.571076 -0.115775 -0.237925 0.300000 0.000000 0.600000
-0.557971 -0.164198 0.377977 0.300000 0.600000 0.000000
0.335878 0.461916 -0.576357 0.300000 0.000000 0.600000
0.196133 -0.141423 0.261964 0.300000 0.600000 0.000000
0.372534 0.268207 -0.434519 0.600000 0.000000 0.300000
-0.544145 -0.126400 0.292502 0.300000 0.600000 0.000000
-0.234285 -0.126400 0.604953 0.300000 0.600000 0.000000
0.541564 -0.126400 0.138765 0.300000 0.600000 0.000000
0.127299 0.246307 -0.421872 0.600000 0.000000 0.300000
0.511389 0.041582 -0.333678 0.300000 0.000000 0.600000
0.390177 -0.141423 0.367856 0.300000 0.600000 0.000000
-0.128788 -0.044624 -0.255072 0.600000 0.000000 0.300000
-0.435582 -0.182735 0.285018 0.300000 0.600000 0.000000
-0.200345 -0.141423 0.318449 0.300000 0.600000 0.000000
-0.063989 -0.141423 -0.036432 0.300000 0.600000 0.000000
-0.301277 -0.141423 0.255586 0.000000 0.500000 0.500000
-0.153496 -0.126400 0.661235 0.300000 0.600000 0.000000
-0.262997 -0.182735 0.038756 0.300000 0.600000 0.000000
-0.027249 -0.141092 0.498894 0.300000 0.600000 0.000000
-0.311432 0.488241 -0.562720 0.600000 0.000000 0.300000
-0.567494 -0.141054 -0.122017 0.300000 0.600000 0.000000
-0.525044 -0.182735 0.392269 0.300000 0.600000 0.000000
-0.336442 0.546194 -0.593208 0.300000 0.000000 0.600000
-0.513640 0.103883 -0.369643 0.300000 0.000000 0.600000
-0.229806 -0.141423 0.044753 0.300000 0.600000 0.000000
-0.171653 -0.182735 0.155941 0.300000 0.600000 0.000000
0.037200 -0.182735 -0.007420 0.300000 0.600000 0.000000
-0.228636 0.579733 -0.644369 0.300000 0.000000 0.600000
-0.335212 0.196432 -0.423079 0.300000 0.000000 0.600000
-0.571835 -0.161403 0.739024 0.300000 0.600000 0.000000
0.459780 -0.166961 0.761734 0.300000 0.600000 0.000000
-0.380883 -0.182735 -0.016001 0.300000 0.600000 0.000000
0.165663 -0.141423 0.110478 0.000000 0.500000 0.500000
0.061549 -0.174796 0.759308 0.300000 0.600000 0.000000
-0.378353 0.205451 -0.398299 0.600000 0.000000 0.300000
0.558623 -0.163064 -0.034212 0.300000 0.600000 0.000000
0.558623 -0.128459 -0.052311 0.300000 0.600000 0.000000
-0.027767 0.472162 -0.553436 0.600000 0.000000 0.300000
0.489868 -0.126400 0.384001 0.300000 0.600000 0.000000
-0.185587 -0.126400 0.563588 0.300000 0.600000 0.000000
0.136223 -0.153464 0.761791 0.300000 0.600000 0.000000
0.018519 -0.182735 0.567063 0.300000 0.600000 0.000000
0.262774 -0.141423 0.376816 0.300000 0.600000 0.000000
0.488301 -0.126400 0.730783 0.300000 0.600000 0.000000
0.063943 -0.182735 0.419703 0.300000 0.600000 0.000000
-0.528823 -0.182735 -0.160980 0.300000 0.600000 0.000000
-0.299846 -0.182735 0.397425 0.300000 0.600000 0.000000
-0.159449 -0.182735 0.643135 0.300000 0.600000 0.000000
0.448932 -0.182735 0.004397 0.300000 0.600000 0.000000
-0.154949 -0.182735 0.719281 0.300000 0.600000 0.000000
-0.032676 -0.182735 0.110650 0.300000 0.600000 0.000000
0.475847 0.580236 -0.644659 0.300000 0.000000 0.600000
-0.284077 -0.182735 0.439189 0.300000 0.600000 0.000000
-0.032522 0.073249 -0.351957 0.300000 0.000000 0.600000
-0.121781 -0.141423 0.467751 0.300000 0.600000 0.000000
-0.549301 -0.169229 0.332751 0.300000 0.600000 0.000000
-0.349174 -0.182735 0.734883 0.300000 0.600000 0.000000
0.076749 -0.126400 0.521741 0.300000 0.600000 0.000000
0.384512 -0.135823 0.239845 0.000000 0.500000 0.500000
0.425006 0.546955 -0.593752 0.300000 0.000000 0.600000
-0.248543 -0.141423 0.471997 0.300000 0.600000 0.000000
-0.044688 -0.137452 0.190382 0.000000 0.500000 0.500000
0.294207 -0.141423 -0.010995 0.300000 0.600000 0.000000
0.212485 -0.141423 0.215781 0.300000 0.600000 0.000000
0.559476 0.270634 -0.440287 0.300000 0.000000 0.600000
0.202900 -0.164695 -0.133710 0.500000 0.000000 0.500000
0.506265 0.080318 -0.321702 0.300000 0.000000 0.600000
0.279771 0.453195 -0.542491 0.600000 0.000000 0.300000
-0.357139 0.603467 -0.649851 0.300000 0.000000 0.600000
-0.303681 -0.182735 -0.079870 0.300000 0.600000 0.000000
0.487656 0.419552 -0.551894 0.300000 0.000000 0.600000
0.310681 -0.159565 -0.117037 0.300000 0.600000 0.000000
-0.406324 -0.182735 -0.039765 0.300000 0.600000 0.000000
0.213926 -0.125687 -0.155614 0.500000 0.000000 0.500000
0.529433 -0.182735 0.493106 0.300000 0.600000 0.000000
-0.322840 0.175529 -0.381011 0.600000 0.000000 0.300000
0.549362 -0.182735 0.081742 0.300000 0.600000 0.000000
-0.406981 0.013776 -0.317622 0.300000 0.000000 0.600000
-0.004767 -0.126400 0.756937 0.300000 0.600000 0.000000
0.403343 -0.140048 -0.194488 0.300000 0.000000 0.600000
-0.231732 0.362478 -0.490115 0.600000 0.000000 0.300000
-0.040306 -0.182735 0.676786 0.300000 0.600000 0.000000
-0.416583 0.597710 -0.620432 0.300000 0.000000 0.600000
0.452849 0.079862 -0.325707 0.600000 0.000000 0.300000
0.138149 -0.164362 -0.214780 0.300000 0.000000 0.600000
0.148800 -0.182735 0.095071 0.300000 0.600000 0.000000
0.489029 -0.126400 0.611756 0.300000 0.600000 0.000000
-0.206600 0.083336 -0.357779 0.300000 0.000000 0.600000
0.085164 -0.182735 0.349938 0.300000 0.600000 0.000000
-0.416447 -0.126400 -0.058576 0.300000 0.600000 0.000000
0.430587 -0.011020 -0.303330 0.300000 0.000000 0.600000
-0.312038 -0.173778 -0.209334 0.300000 0.000000 0.600000
-0.074120 0.547486 -0.625785 0.300000 0.000000 0.600000
-0.063083 -0.126400 0.631421 0.300000 0.600000 0.000000
-0.336165 -0.182735 0.355189 0.300000 0.600000 0.000000
-0.020896 0.039696 -0.303752 0.600000 0.000000 0.300000
-0.556812 -0.143230 -0.084862 0.300000 0.600000 0.000000
0.182960 0.198961 -0.424539 0.300000 0.000000 0.600000
0.527621 -0.182735 -0.016610 0.300000 0.600000 0.000000
0.408302 -0.141423 0.216186 0.300000 0.600000 0.000000
-0.571835 -0.180317 0.656518 0.300000 0.600000 0.000000
-0.171311 -0.182735 0.661205 0.300000 0.600000 0.000000
0.028460 -0.137667 0.390201 0.000000 0.500000 0.500000
-0.571835 -0.136839 0.070946 0.300000 0.600000 0.000000
0.113592 0.097452 -0.337103 0.600000 0.000000 0.300000
0.100618 -0.011596 -0.302997 0.300000 0.000000 0.600000
0.361187 0.207051 -0.400375 0.600000 0.000000 0.300000
0.018802 -0.141423 0.487914 0.300000 0.600000 0.000000
0.252927 -0.182735 0.401183 0.300000 0.600000 0.000000
-0.219124 -0.126400 0.754078 0.300000 0.600000 0.000000
0.540068 -0.182735 0.408656 0.300000 0.600000 0.000000
0.195483 0.063012 -0.346043 0.300000 0.000000 0.600000
-0.448772 -0.126400 0.643879 0.300000 0.600000 0.000000
0.345697 0.104103 -0.340941 0.600000 0.000000 0.300000
-0.051525 0.449600 -0.540414 0.600000 0.000000 0.300000
-0.558610 -0.167217 0.134278 0.300000 0.600000 0.000000
0.405021 0.106980 -0.342602 0.600000 0.000000 0.300000
-0.531035 0.447232 -0.567879 0.300000 0.000000 0.600000
-0.283450 -0.141423 0.053128 0.300000 0.600000 0.000000
0.048779 0.018116 -0.291295 0.600000 0.000000 0.300000
-0.562453 0.172864 -0.409267 0.300000 0.000000 0.600000
0.054463 -0.126400 0.600798 0.300000 0.600000 0.000000
0.560333 0.518705 -0.592192 0.300000 0.000000 0.600000
-0.541130 -0.126400 0.164411 0.300000 0.600000 0.000000
0.352345 0.247092 -0.422326 0.600000 0.000000 0.300000
0.536653 -0.126400 -0.012626 0.300000 0.600000 0.000000
-0.130340 -0.126400 0.634242 0.300000 0.600000 0.000000
0.194940 0.322686 -0.495972 0.300000 0.000000 0.600000
0.546168 0.142487 -0.391888 0.300000 0.000000 0.600000
0.150989 -0.182735 0.706601 0.300000 0.600000 0.000000
0.182695 -0.132739 -0.181129 0.500000 0.000000 0.500000
0.167340 -0.182735 0.702995 0.300000 0.600000 0.000000
-0.021071 -0.029743 -0.292503 0.300000 0.000000 0.600000
0.222181 -0.182735 0.482589 0.300000 0.600000 0.000000
-0.461481 -0.126400 -0.156684 0.300000 0.600000 0.000000
-0.076694 0.060794 -0.315933 0.600000 0.000000 0.300000
-0.541089 -0.182735 0.255733 0.300000 0.600000 0.000000
-0.078231 -0.156235 -0.219466 0.300000 0.000000 0.600000
-0.368202 -0.031806 -0.291310 0.300000 0.000000 0.600000
-0.319370 -0.141423 0.459222 0.300000 0.600000 0.000000
0.076836 -0.141423 0.287434 0.300000 0.600000 0.000000
0.455103 0.052382 -0.309569 0.600000 0.000000 0.300000
0.391829 -0.126400 -0.072573 0.300000 0.600000 0.000000
0.356568 -0.126400 -0.100506 0.300000 0.600000 0.000000
-0.536397 -0.126400 0.074395 0.300000 0.600000 0.000000
-0.035892 -0.141423 0.044008 0.300000 0.600000 0.000000
0.139783 -0.182735 0.521430 0.300000 0.600000 0.000000
-0.160429 -0.141423 0.381860 0.300000 0.600000 0.000000
0.484818 -0.141423 0.336061 0.300000 0.600000 0.000000
0.124467 0.456074 -0.572982 0.300000 0.000000 0.600000
0.074713 0.407425 -0.544892 0.300000 0.000000 0.600000
-0.078257 -0.141423 0.065519 0.300000 0.600000 0.000000
-0.214700 -0.182735 0.575711 0.300000 0.600000 0.000000
-0.125028 0.172519 -0.409272 0.300000 0.000000 0.600000
-0.067433 -0.182735 0.154510 0.300000 0.600000 0.000000
0.261005 -0.141423 0.291937 0.300000 0.600000 0.000000
-0.359567 -0.141423 0.488794 0.300000 0.600000 0.000000
0.102236 0.218523 -0.406898 0.600000 0.000000 0.300000
-0.327034 -0.126400 0.641179 0.300000 0.600000 0.000000
-0.278052 0.589768 -0.615846 0.300000 0.000000 0.600000
-0.554743 -0.163187 0.414968 0.300000 0.600000 0.000000
-0.128524 -0.182735 0.695850 0.300000 0.600000 0.000000
0.526978 -0.182735 0.704797 0.300000 0.600000 0.000000
0.386342 0.305865 -0.456270 0.600000 0.000000 0.300000
0.466426 0.333921 -0.470470 0.600000 0.000000 0.300000
-0.470580 -0.126400 0.522397 0.300000 0.600000 0.000000
-0.027503 0.501064 -0.598958 0.300000 0.000000 0.600000
0.435791 -0.182735 0.157352 0.300000 0.600000 0.000000
0.360414 -0.182735 0.120118 0.300000 0.600000 0.000000
-0.316256 0.529565 -0.586582 0.300000 0.000000 0.600000
-0.085661 0.473734 -0.554343 0.600000 0.000000 0.300000
-0.481064 0.271591 -0.466468 0.300000 0.000000 0.600000
0.402076 -0.182735 0.436039 0.300000 0.600000 0.000000
-0.208835 -0.182735 0.457112 0.300000 0.600000 0.000000
0.259276 0.252940 -0.455704 0.300000 0.000000 0.600000
-0.081270 -0.126400 0.731542 0.300000 0.600000 0.000000
0.373559 -0.182735 0.332932 0.300000 0.600000 0.000000
0.530723 0.351996 -0.512891 0.300000 0.000000 0.600000
0.049897 -0.141423 0.082598 0.300000 0.600000 0.000000
-0.297883 0.083985 -0.328168 0.600000 0.000000 0.300000
-0.259415 -0.189064 -0.194374 0.300000 0.000000 0.600000
0.317415 0.015160 -0.289588 0.600000 0.000000 0.300000
-0.088571 -0.182735 0.511166 0.300000 0.600000 0.000000
0.356257 -0.141423 0.289318 0.300000 0.600000 0.000000
-0.527922 0.051275 -0.304936 0.300000 0.000000 0.600000
-0.070371 -0.136928 0.027359 0.000000 0.500000 0.500000
-0.195096 -0.182735 0.431242 0.300000 0.600000 0.000000
0.050949 -0.182735 0.190660 0.300000 0.600000 0.000000
-0.269977 0.432222 -0.559211 0.300000 0.000000 0.600000
0.383839 -0.182735 0.031147 0.300000 0.600000 0.000000
-0.171597 -0.141423 0.090613 0.300000 0.600000 0.000000
0.051220 -0.182735 0.093475 0.300000 0.600000 0.000000
-0.095489 -0.182735 0.155295 0.300000 0.600000 0.000000
0.475977 -0.182735 0.123328 0.300000 0.600000 0.000000
-0.375682 -0.053895 -0.278549 0.300000 0.000000 0.600000
-0.077985 0.243287 -0.421288 0.600000 0.000000 0.300000
0.361330 0.612617 -0.629492 0.300000 0.000000 0.600000
-0.174070 0.032785 -0.299764 0.600000 0.000000 0.300000
-0.528636 -0.126883 -0.202146 0.300000 0.000000 0.600000
0.522405 -0.126400 0.057668 0.300000 0.600000 0.000000
-0.139835 -0.126400 0.730311 0.300000 0.600000 0.000000
0.412583 -0.171577 -0.210611 0.300000 0.000000 0.600000
0.390603 -0.182735 -0.066377 0.300000 0.600000 0.000000
-0.158089 -0.182735 0.236406 0.300000 0.600000 0.000000
-0.041624 0.094671 -0.335489 0.600000 0.000000 0.300000
-0.570525 -0.126400 0.335345 0.300000 0.600000 0.000000
0.120977 -0.182735 0.677580 0.300000 0.600000 0.000000
0.082341 0.284874 -0.470354 0.300000 0.000000 0.600000
0.269007 -0.182735 0.300198 0.300000 0.600000 0.000000
-0.278279 -0.126400 0.744122 0.300000 0.600000 0.000000
0.531838 -0.126400 0.320376 0.300000 0.600000 0.000000
-0.363730 0.497537 -0.568082 0.600000 0.000000 0.300000
-0.167567 -0.141423 0.449739 0.300000 0.600000 0.000000
-0.067276 -0.182735 0.241847 0.300000 0.600000 0.000000
-0.381527 -0.188977 -0.194605 0.300000 0.000000 0.600000
-0.071686 -0.137452 0.280284 0.000000 0.500000 0.500000
0.369626 -0.141423 0.140520 0.300000 0.600000 0.000000
-0.368942 -0.182735 0.584991 0.300000 0.600000 0.000000
0.186922 -0.161848 -0.117037 0.300000 0.600000 0.000000
0.142080 0.139038 -0.389949 0.300000 0.000000 0.600000
0.123597 0.174054 -0.410156 0.300000 0.000000 0.600000
0.248523 -0.141423 0.454780 0.300000 0.600000 0.000000
-0.410850 0.517315 -0.608342 0.300000 0.000000 0.600000
-0.110484 -0.126400 0.576996 0.300000 0.600000 0.000000
-0.019832 -0.141423 0.450235 0.300000 0.600000 0.000000
0.069605 -0.126400 -0.108416 0.300000 0.600000 0.000000
0.505704 -0.182735 0.161819 0.300000 0.600000 0.000000
0.120495 -0.126400 0.533211 0.300000 0.600000 0.000000
-0.216844 -0.126400 0.584761 0.300000 0.600000 0.000000
-0.213498 -0.126400 0.694226 0.300000 0.600000 0.000000
0.138524 -0.126400 -0.039354 0.300000 0.600000 0.000000
0.126688 0.423540 -0.554198 0.300000 0.000000 0.600000
0.165471 0.244036 -0.420561 0.600000 0.000000 0.300000
-0.294514 -0.182735 0.645664 0.300000 0.600000 0.000000
0.389653 -0.141423 0.011343 0.300000 0.600000 0.000000
0.019370 -0.126400 0.692975 0.300000 0.600000 0.000000
-0.017202 -0.156639 0.761791 0.300000 0.600000 0.000000
-0.571835 -0.177804 -0.140925 0.300000 0.600000 0.000000
-0.521716 0.367600 -0.488560 0.300000 0.000000 0.600000
-0.355970 -0.126400 0.589784 0.300000 0.600000 0.000000
-0.395290 -0.127230 -0.038168 0.300000 0.600000 0.000000
-0.089948 -0.182735 -0.097552 0.300000 0.600000 0.000000
-0.268184 -0.182735 0.132417 0.300000 0.600000 0.000000
-0.139770 -0.126400 0.702999 0.300000 0.600000 0.000000
0.550359 -0.133212 -0.232644 0.300000 0.000000 0.600000
-0.359898 -0.126400 0.545635 0.300000 0.600000 0.000000
0.081703 -0.151201 -0.117037 0.300000 0.600000 0.000000
0.431968 -0.126400 0.572831 0.300000 0.600000 0.000000
0.258676 -0.141423 -0.014178 0.300000 0.600000 0.000000
-0.402471 0.118469 -0.348079 0.600000 0.000000 0.300000
-0.561502 0.544800 -0.590527 0.300000 0.000000 0.600000
0.327860 -0.141423 0.174265 0.000000 0.500000 0.500000
0.003562 -0.182735 0.590743 0.300000 0.600000 0.000000
-0.458703 -0.138973 0.122508 0.000000 0.500000 0.500000
-0.398506 -0.017801 -0.299415 0.300000 0.000000 0.600000
-0.329540 -0.141423 0.141752 0.300000 0.600000 0.000000
-0.046927 -0.126400 -0.045992 0.300000 0.600000 0.000000
-0.368347 0.158552 -0.371222 0.600000 0.000000 0.300000
-0.002352 -0.182735 0.400338 0.300000 0.600000 0.000000
0.149971 -0.182735 0.180123 0.300000 0.600000 0.000000
0.440415 0.243251 -0.420108 0.600000 0.000000 0.300000
-0.555547 -0.190591 -0.184138 0.300000 0.000000 0.600000
0.358881 -0.126400 0.743598 0.300000 0.600000 0.000000
-0.546609 -0.151515 -0.173372 0.300000 0.600000 0.000000
-0.220698 -0.141423 0.277917 0.300000 0.600000 0.000000
-0.293178 0.163616 -0.374145 0.600000 0.000000 0.300000
-0.391295 -0.182735 0.261085 0.300000 0.600000 0.000000
0.146842 -0.137838 0.234926 0.000000 0.500000 0.500000
0.002308 -0.182735 -0.083434 0.300000 0.600000 0.000000
-0.399581 0.003929 -0.281935 0.600000 0.000000 0.300000
-0.199416 -0.182735 0.595714 0.300000 0.600000 0.000000
0.345170 0.510120 -0.604188 0.300000 0.000000 0.600000
0.543267 -0.182735 0.248167 0.300000 0.600000 0.000000
-0.019473 -0.182735 -0.112587 0.300000 0.600000 0.000000
0.154461 -0.182735 0.556748 0.300000 0.600000 0.000000
0.167851 -0.141423 0.401253 0.000000 0.500000 0.500000
-0.468246 0.526373 -0.584735 0.600000 0.000000 0.300000
0.235664 -0.182735 0.012591 0.300000 0.600000 0.000000
0.350573 0.034228 -0.300597 0.600000 0.000000 0.300000
-0.255368 -0.137452 0.169124 0.000000 0.500000 0.500000
-0.384151 -0.182735 -0.148726 0.300000 0.600000 0.000000
-0.224801 0.445568 -0.538086 0.600000 0.000000 0.300000
-0.139185 -0.128291 -0.167715 0.500000 0.000000 0.500000
0.175438 -0.182735 0.186648 0.300000 0.600000 0.000000
-0.127414 -0.126400 0.603841 0.300000 0.600000 0.000000
-0.086259 0.003849 -0.283042 0.600000 0.000000 0.300000
-0.571835 -0.140931 0.553104 0.300000 0.600000 0.000000
-0.271995 -0.182735 0.536745 0.300000 0.600000 0.000000
-0.068235 -0.016849 -0.271109 0.600000 0.000000 0.300000
-0.320102 -0.182735 0.532616 0.300000 0.600000 0.000000
-0.417744 -0.141423 0.041674 0.300000 0.600000 0.000000
0.288560 -0.139686 0.351281 0.000000 0.500000 0.500000
0.435425 0.402402 -0.512008 0.600000 0.000000 0.300000
0.292374 -0.138186 0.126173 0.000000 0.500000 0.500000
0.314652 -0.182735 0.378418 0.300000 0.600000 0.000000
-0.180196 0.055951 -0.341970 0.300000 0.000000 0.600000
-0.571835 -0.155838 0.682231 0.300000 0.600000 0.000000
-0.277722 -0.126400 -0.063018 0.300000 0.600000 0.000000
0.283712 0.236355 -0.416350 0.600000 0.000000 0.300000
0.204880 -0.182547 0.747557 0.300000 0.600000 0.000000
0.208738 0.451536 -0.541533 0.600000 0.000000 0.300000
0.019967 -0.182735 0.364050 0.300000 0.600000 0.000000
0.037995 -0.182735 0.621008 0.300000 0.600000 0.000000
-0.281050 -0.049731 -0.252123 0.600000 0.000000 0.300000
0.453637 -0.182735 0.298845 0.300000 0.600000 0.000000
-0.128664 0.583644 -0.646181 0.300000 0.000000 0.600000
-0.120786 -0.137452 0.279373 0.000000 0.500000 0.500000
0.136914 -0.126400 0.682050 0.300000 0.600000 0.000000
-0.326290 0.448372 -0.568537 0.300000 0.000000 0.600000
-0.068791 -0.126400 -0.083226 0.300000 0.600000 0.000000
0.037680 -0.182735 0.173846 0.300000 0.600000 0.000000
0.027219 0.098204 -0.337538 0.600000 0.000000 0.300000
-0.352385 -0.126400 0.659544 0.300000 0.600000 0.000000
0.297155 0.157723 -0.400734 0.300000 0.000000 0.600000
-0.248066 -0.182735 -0.078489 0.300000 0.600000 0.000000
0.051124 -0.141423 0.318443 0.000000 0.500000 0.500000
0.255645 -0.182735 0.602847 0.300000 0.600000 0.000000
-0.192931 -0.126400 0.698785 0.300000 0.600000 0.000000
0.254890 -0.174489 -0.117037 0.300000 0.600000 0.000000
0.082669 -0.182735 0.065566 0.300000 0.600000 0.000000
-0.034998 0.178624 -0.383951 0.600000 0.000000 0.300000
-0.195850 -0.137452 0.230592 0.000000 0.500000 0.500000
0.352891 -0.182735 0.059965 0.300000 0.600000 0.000000
-0.524416 -0.126400 0.598406 0.300000 0.600000 0.000000
0.209505 0.347409 -0.510243 0.300000 0.000000 0.600000
-0.567438 -0.182735 0.730554 0.300000 0.600000 0.000000
-0.522761 -0.126400 -0.075896 0.300000 0.600000 0.000000
-0.571199 -0.158072 0.275968 0.300000 0.600000 0.000000
-0.236481 -0.137659 0.203300 0.000000 0.500000 0.500000
0.272457 -0.126400 0.653261 0.300000 0.600000 0.000000
-0.313539 0.342557 -0.478611 0.600000 0.000000 0.300000
-0.203272 -0.182735 0.046285 0.300000 0.600000 0.000000
0.230756 -0.141423 0.287981 0.300000 0.600000 0.000000
0.204365 -0.126400 0.504901 0.300000 0.600000 0.000000
0.486130 -0.126400 -0.074764 0.300000 0.600000 0.000000
0.452423 -0.182735 -0.115203 0.300000 0.600000 0.000000
-0.362614 -0.141423 0.084936 0.000000 0.500000 0.500000
0.119276 0.135501 -0.387906 0.300000 0.000000 0.600000
-0.291645 -0.141423 0.370958 0.300000 0.600000 0.000000
-0.168207 -0.141423 0.486579 0.300000 0.600000 0.000000
-0.571835 -0.177081 0.573381 0.300000 0.600000 0.000000
0.549138 -0.126400 0.446384 0.300000 0.600000 0.000000
0.113637 -0.159984 -0.132166 0.500000 0.000000 0.500000
0.419423 0.345442 -0.509107 0.300000 0.000000 0.600000
-0.089691 -0.141423 0.240420 0.300000 0.600000 0.000000
0.539397 -0.177505 -0.207163 0.300000 0.000000 0.600000
-0.237590 -0.182735 0.399594 0.300000 0.600000 0.000000
-0.555129 -0.142700 -0.227278 0.300000 0.000000 0.600000
0.154602 -0.126400 -0.102633 0.300000 0.600000 0.000000
-0.035072 -0.137452 0.081422 0.000000 0.500000 0.500000
0.519337 0.242091 -0.416040 0.300000 0.000000 0.600000
-0.183551 -0.182735 0.105900 0.300000 0.600000 0.000000
0.408423 0.147897 -0.366227 0.600000 0.000000 0.300000
-0.357967 0.226655 -0.440551 0.300000 0.000000 0.600000
0.379308 0.209686 -0.430736 0.300000 0.000000 0.600000
-0.136036 0.148027 -0.365570 0.600000 0.000000 0.300000
-0.360779 0.013249 -0.287330 0.600000 0.000000 0.300000
0.112352 0.250429 -0.452071 0.300000 0.000000 0.600000
-0.191145 -0.182735 0.365870 0.300000 0.600000 0.000000
-0.413934 -0.182735 0.525969 0.300000 0.600000 0.000000
0.020732 -0.139306 -0.001617 0.000000 0.500000 0.500000
0.398537 -0.141423 0.254095 0.300000 0.600000 0.000000
-0.257027 0.445776 -0.567038 0.300000 0.000000 0.600000
-0.294937 -0.141423 0.188836 0.300000 0.600000 0.000000
-0.134753 -0.160751 -0.117037 0.300000 0.600000 0.000000
0.397374 -0.182735 0.667885 0.300000 0.600000 0.000000
0.447772 -0.182735 0.270671 0.300000 0.600000 0.000000
0.076249 -0.135784 0.031166 0.000000 0.500000 0.500000
-0.548677 -0.182735 0.121691 0.300000 0.600000 0.000000
0.140205 0.583016 -0.645929 0.300000 0.000000 0.600000
0.028049 -0.126400 0.637389 0.300000 0.600000 0.000000
0.238276 -0.182735 -0.098820 0.300000 0.600000 0.000000
0.106097 -0.182735 0.625359 0.300000 0.600000 0.000000
-0.400235 0.440704 -0.535275 0.600000 0.000000 0.300000
-0.295070 -0.182735 -0.046765 0.300000 0.600000 0.000000
0.464652 -0.126400 0.576114 0.300000 0.600000 0.000000
-0.231212 0.192222 -0.390664 0.600000 0.000000 0.300000
-0.022164 -0.182735 0.029449 0.300000 0.600000 0.000000
-0.235928 -0.180913 -0.205168 0.300000 0.000000 0.600000
0.142081 0.060056 -0.344333 0.300000 0.000000 0.600000
0.265368 -0.182735 0.540425 0.300000 0.600000 0.000000
0.025326 -0.141423 0.131587 0.300000 0.600000 0.000000
-0.279946 -0.149073 -0.131522 0.500000 0.000000 0.500000
-0.351309 -0.141423 0.000861 0.000000 0.500000 0.500000
0.413261 -0.107922 -0.213249 0.300000 0.000000 0.600000
0.161143 -0.141423 -0.003863 0.300000 0.600000 0.000000
-0.071125 -0.182735 0.313012 0.300000 0.600000 0.000000
0.238409 -0.182735 0.151795 0.300000 0.600000 0.000000
-0.542827 -0.170088 -0.173372 0.300000 0.600000 0.000000
0.507257 -0.182735 -0.043114 0.300000 0.600000 0.000000
-0.571835 -0.129960 0.480089 0.300000 0.600000 0.000000
0.470406 -0.182735 0.047191 0.300000 0.600000 0.000000
0.336736 0.217280 -0.435138 0.300000 0.000000 0.600000
0.369627 -0.144536 0.761791 0.300000 0.600000 0.000000
0.092439 -0.130470 0.761791 0.300000 0.600000 0.000000
0.558623 -0.151892 0.274200 0.300000 0.600000 0.000000
0.551841 0.083581 -0.324199 0.300000 0.000000 0.600000
0.033907 0.370864 -0.494956 0.600000 0.000000 0.300000
0.341023 -0.158440 -0.117037 0.300000 0.600000 0.000000
-0.495149 -0.141423 0.334176 0.300000 0.600000 0.000000
-0.237476 -0.131408 -0.233800 0.300000 0.000000 0.600000
0.548428 -0.126400 0.111758 0.300000 0.600000 0.000000
-0.197168 -0.126400 0.603904 0.300000 0.600000 0.000000
-0.237983 -0.137667 0.421946 0.000000 0.500000 0.500000
0.446523 -0.141423 0.133677 0.300000 0.600000 0.000000
-0.073240 -0.182735 0.565601 0.300000 0.600000 0.000000
0.344129 -0.171590 -0.210604 0.300000 0.000000 0.600000
0.064391 -0.132552 -0.189155 0.300000 0.000000 0.600000
-0.116334 -0.188843 -0.172766 0.300000 0.000000 0.600000
0.055693 0.144625 -0.392647 0.300000 0.000000 0.600000
0.210160 -0.102983 -0.250212 0.300000 0.000000 0.600000
0.273891 -0.182735 -0.023691 0.300000 0.600000 0.000000
-0.151414 -0.141423 0.095772 0.300000 0.600000 0.000000
0.275505 -0.182735 0.072423 0.300000 0.600000 0.000000
0.132761 -0.182735 0.288470 0.300000 0.600000 0.000000
-0.260900 -0.126400 -0.083229 0.300000 0.600000 0.000000
-0.318493 0.397561 -0.510367 0.600000 0.000000 0.300000
0.488059 -0.182735 0.689594 0.300000 0.600000 0.000000
-0.566323 -0.158686 0.172854 0.300000 0.600000 0.000000
0.349063 -0.165480 -0.167249 0.300000 0.600000 0.000000
0.530549 -0.126400 0.422557 0.300000 0.600000 0.000000
0.496249 -0.126400 0.015980 0.300000 0.600000 0.000000
-0.014120 -0.141423 0.387945 0.000000 0.500000 0.500000
0.492617 -0.110589 -0.211494 0.300000 0.000000 0.600000
-0.526886 -0.182735 0.059124 0.300000 0.600000 0.000000
0.183609 -0.126400 0.582709 0.300000 0.600000 0.000000
0.400029 -0.046098 -0.283052 0.300000 0.000000 0.600000
0.284910 -0.031328 -0.262750 0.600000 0.000000 0.300000
-0.108944 0.578351 -0.643573 0.300000 0.000000 0.600000
-0.254953 -0.020754 -0.297706 0.300000 0.000000 0.600000
-0.442384 -0.182735 0.665932 0.300000 0.600000 0.000000
-0.478690 -0.141423 0.268428 0.300000 0.600000 0.000000
-0.390997 -0.141423 0.452729 0.300000 0.600000 0.000000
-0.193204 0.538656 -0.620680 0.300000 0.000000 0.600000
0.346311 -0.126400 0.572159 0.300000 0.600000 0.000000
-0.008027 -0.058934 -0.275642 0.300000 0.000000 0.600000
0.483284 -0.182735 0.307718 0.300000 0.600000 0.000000
0.054350 -0.126400 0.694252 0.300000 0.600000 0.000000
-0.348465 -0.182735 0.124884 0.300000 0.600000 0.000000
0.254899 -0.182735 0.001602 0.300000 0.600000 0.000000
-0.184738 -0.175974 -0.117037 0.300000 0.600000 0.000000
0.077025 -0.182735 0.670865 0.300000 0.600000 0.000000
0.150192 0.128742 -0.355163 0.600000 0.000000 0.300000
-0.396716 -0.140930 0.415952 0.000000 0.500000 0.500000
-0.415036 -0.182735 -0.113797 0.300000 0.600000 0.000000
0.099492 -0.141423 0.363736 0.300000 0.600000 0.000000
0.358449 -0.182735 0.087895 0.300000 0.600000 0.000000
0.535497 0.365140 -0.520481 0.300000 0.000000 0.600000
-0.276342 0.363662 -0.519628 0.300000 0.000000 0.600000
-0.466946 -0.182735 0.212243 0.300000 0.600000 0.000000
-0.449464 -0.126400 0.510697 0.300000 0.600000 0.000000
-0.107662 0.349938 -0.511703 0.300000 0.000000 0.600000
-0.009786 0.329977 -0.471343 0.600000 0.000000 0.300000
-0.327983 -0.085888 -0.228490 0.300000 0.000000 0.600000
0.286662 -0.144977 -0.225964 0.300000 0.000000 0.600000
