-0.351303 -0.058010 -0.165861 0.300000 0.000000 0.600000
0.180592 -0.188933 0.400452 0.300000 0.600000 0.000000
0.417720 0.360185 -0.604693 0.300000 0.000000 0.600000
-0.098112 -0.132477 0.476319 0.000000 0.500000 0.500000
-0.108580 0.359611 -0.558873 0.300000 0.000000 0.600000
-0.519904 0.370732 -0.564475 0.300000 0.000000 0.600000
0.606984 -0.188933 0.110832 0.300000 0.600000 0.000000
-0.593852 0.375467 -0.619975 0.300000 0.000000 0.600000
-0.456438 -0.172889 -0.059292 0.500000 0.000000 0.500000
-0.489804 0.259758 -0.504266 0.300000 0.000000 0.600000
-0.437858 0.345303 -0.589811 0.300000 0.000000 0.600000
0.577889 -0.137210 0.625315 0.300000 0.600000 0.000000
0.378317 -0.090990 -0.123271 0.300000 0.000000 0.600000
0.482726 0.277215 -0.475860 0.600000 0.000000 0.300000
0.254609 0.423525 -0.649190 0.300000 0.000000 0.600000
-0.316475 -0.188933 0.071296 0.300000 0.600000 0.000000
0.018610 0.157865 -0.402373 0.300000 0.000000 0.600000
-0.548434 0.262365 -0.467358 0.300000 0.000000 0.600000
-0.567531 -0.188933 0.721846 0.300000 0.600000 0.000000
-0.106392 -0.133432 -0.074968 0.300000 0.000000 0.600000
0.234373 0.193242 -0.437750 0.300000 0.000000 0.600000
-0.616241 0.078367 -0.292464 0.300000 0.000000 0.600000
0.086026 -0.110043 -0.134465 0.300000 0.000000 0.600000
0.210890 0.404777 -0.589824 0.600000 0.000000 0.300000
-0.057302 -0.134891 0.539607 0.000000 0.500000 0.500000
0.108019 0.203811 -0.448319 0.300000 0.000000 0.600000
-0.621641 -0.132073 -0.005822 0.300000 0.600000 0.000000
0.612270 0.170345 -0.414853 0.300000 0.000000 0.600000
-0.100178 -0.139769 0.776102 0.300000 0.600000 0.000000
-0.396552 0.243797 -0.438331 0.600000 0.000000 0.300000
0.210037 0.072621 -0.283930 0.300000 0.000000 0.600000
-0.396934 0.211310 -0.407758 0.600000 0.000000 0.300000
0.145921 0.416376 -0.612901 0.300000 0.000000 0.600000
0.111148 -0.006641 -0.237867 0.300000 0.000000 0.600000
-0.018583 -0.057726 -0.186782 0.300000 0.000000 0.600000
-0.021258 0.136126 -0.380634 0.300000 0.000000 0.600000
0.536236 0.051901 -0.296409 0.300000 0.000000 0.600000
0.415583 -0.165954 -0.065603 0.300000 0.000000 0.600000
-0.122009 -0.188933 0.355392 0.300000 0.600000 0.000000
0.673551 -0.012379 -0.106888 0.300000 0.000000 0.600000
0.419349 0.043529 -0.249863 0.600000 0.000000 0.300000
0.083108 -0.188933 0.682946 0.300000 0.600000 0.000000
0.182975 -0.108402 -0.106886 0.300000 0.000000 0.600000
0.333998 -0.124348 0.049306 0.300000 0.600000 0.000000
0.370123 -0.188933 0.589482 0.300000 0.600000 0.000000
0.329980 -0.172001 0.796916 0.300000 0.600000 0.000000
-0.107363 0.000365 -0.244873 0.300000 0.000000 0.600000
-0.191117 0.146273 -0.346553 0.600000 0.000000 0.300000
-0.319417 0.122169 -0.335423 0.300000 0.000000 0.600000
0.278278 -0.154302 0.809858 0.300000 0.600000 0.000000
-0.014273 0.029341 -0.236512 0.600000 0.000000 0.300000
0.290896 0.296757 -0.541265 0.300000 0.000000 0.600000
0.485822 0.402691 -0.600023 0.300000 0.000000 0.600000
-0.175378 0.144419 -0.388927 0.300000 0.000000 0.600000
-0.508495 -0.177333 -0.050200 0.500000 0.000000 0.500000
-0.164185 -0.136899 0.674179 0.300000 0.600000 0.000000
-0.299236 0.398962 -0.590433 0.600000 0.000000 0.300000
-0.511544 -0.121634 0.122938 0.000000 0.500000 0.500000
-0.315318 0.072205 -0.316713 0.300000 0.000000 0.600000
-0.241589 -0.136135 0.653803 0.300000 0.600000 0.000000
-0.448008 0.247942 -0.492450 0.300000 0.000000 0.600000
-0.620669 0.052047 -0.283824 0.300000 0.000000 0.600000
0.151690 -0.047641 -0.164066 0.600000 0.000000 0.300000
0.607084 -0.123466 0.019885 0.300000 0.600000 0.000000
-0.620669 -0.012141 -0.118788 0.300000 0.000000 0.600000
0.103705 -0.188933 0.596864 0.300000 0.600000 0.000000
-0.472046 0.089457 -0.293085 0.600000 0.000000 0.300000
-0.414600 0.100306 -0.344814 0.300000 0.000000 0.600000
-0.226211 0.375879 -0.568711 0.600000 0.000000 0.300000
0.652358 0.081416 -0.297071 0.300000 0.000000 0.600000
0.664479 -0.005699 -0.203537 0.300000 0.000000 0.600000
-0.616059 0.017369 -0.231933 0.300000 0.000000 0.600000
-0.642808 0.384630 -0.610595 0.300000 0.000000 0.600000
0.390759 0.196333 -0.399744 0.600000 0.000000 0.300000
-0.373284 -0.131354 -0.097719 0.300000 0.000000 0.600000
-0.289844 0.107956 -0.352464 0.300000 0.000000 0.600000
0.431255 0.404368 -0.600993 0.300000 0.000000 0.600000
-0.147241 -0.131404 0.479833 0.000000 0.500000 0.500000
0.294663 -0.133689 -0.110819 0.300000 0.000000 0.600000
0.550762 -0.067725 -0.145165 0.600000 0.000000 0.300000
-0.011809 -0.184061 -0.029146 0.500000 0.000000 0.500000
-0.491755 0.001930 -0.210716 0.600000 0.000000 0.300000
0.312394 0.335687 -0.536966 0.300000 0.000000 0.600000
-0.162603 -0.090321 -0.123901 0.300000 0.000000 0.600000
0.495245 0.239275 -0.434075 0.600000 0.000000 0.300000
-0.092471 -0.134196 0.523841 0.000000 0.500000 0.500000
0.608260 0.390319 -0.576219 0.600000 0.000000 0.300000
-0.606154 -0.018461 -0.191526 0.600000 0.000000 0.300000
0.584884 0.321222 -0.565730 0.300000 0.000000 0.600000
0.658999 0.245992 -0.442584 0.600000 0.000000 0.300000
-0.291777 0.415001 -0.645429 0.300000 0.000000 0.600000
0.575212 -0.128695 0.344856 0.000000 0.500000 0.500000
-0.239806 -0.188933 0.496237 0.300000 0.600000 0.000000
0.528361 0.007385 -0.215849 0.600000 0.000000 0.300000
0.304691 0.212310 -0.420252 0.300000 0.000000 0.600000
0.546067 -0.187106 -0.016069 0.500000 0.000000 0.500000
-0.433987 -0.124513 0.236280 0.000000 0.500000 0.500000
0.121583 0.095859 -0.299110 0.600000 0.000000 0.300000
0.427336 -0.182728 -0.033743 0.500000 0.000000 0.500000
0.611225 0.182013 -0.386876 0.300000 0.000000 0.600000
0.319511 -0.139428 0.603930 0.300000 0.600000 0.000000
0.679749 0.216273 -0.405337 0.300000 0.000000 0.600000
-0.043521 0.371249 -0.615757 0.300000 0.000000 0.600000
-0.179691 0.401482 -0.637371 0.300000 0.000000 0.600000
-0.216918 -0.101122 -0.143386 0.300000 0.000000 0.600000
0.530147 -0.188933 0.545876 0.300000 0.600000 0.000000
0.163234 0.348726 -0.593234 0.300000 0.000000 0.600000
-0.318684 -0.132632 -0.076456 0.300000 0.000000 0.600000
0.670101 -0.115206 -0.129302 0.300000 0.000000 0.600000
0.663427 0.045885 -0.282890 0.300000 0.000000 0.600000
0.154929 0.273310 -0.477658 0.300000 0.000000 0.600000
0.400229 -0.022334 -0.222174 0.300000 0.000000 0.600000
-0.036440 -0.015157 -0.229351 0.300000 0.000000 0.600000
-0.335802 0.023141 -0.267649 0.300000 0.000000 0.600000
-0.253203 -0.188933 0.620273 0.300000 0.600000 0.000000
-0.252023 -0.036058 -0.174967 0.600000 0.000000 0.300000
0.663427 0.282761 -0.474167 0.300000 0.000000 0.600000
0.073569 -0.042840 -0.175272 0.300000 0.000000 0.600000
0.343904 -0.188933 0.198444 0.300000 0.600000 0.000000
-0.641139 -0.096688 -0.137656 0.300000 0.000000 0.600000
-0.028410 -0.125420 0.279284 0.000000 0.500000 0.500000
-0.333446 -0.186201 0.756813 0.300000 0.600000 0.000000
-0.073654 -0.137985 0.694285 0.300000 0.600000 0.000000
-0.573059 0.088258 -0.298645 0.300000 0.000000 0.600000
-0.592263 -0.188933 0.590815 0.300000 0.600000 0.000000
0.279758 0.039481 -0.283989 0.300000 0.000000 0.600000
0.293665 -0.188933 0.183898 0.300000 0.600000 0.000000
0.653556 -0.183943 0.765637 0.300000 0.600000 0.000000
-0.011001 -0.188933 0.227444 0.300000 0.600000 0.000000
0.624256 0.411714 -0.602434 0.600000 0.000000 0.300000
-0.569001 -0.125884 0.274428 0.000000 0.500000 0.500000
0.343947 -0.140539 -0.091395 0.300000 0.000000 0.600000
0.134082 -0.090799 -0.123451 0.300000 0.000000 0.600000
-0.584793 0.139414 -0.346180 0.600000 0.000000 0.300000
-0.093807 -0.188933 0.451773 0.300000 0.600000 0.000000
-0.158869 0.368039 -0.612547 0.300000 0.000000 0.600000
0.235676 0.031736 -0.276244 0.300000 0.000000 0.600000
0.002042 0.042796 -0.287304 0.300000 0.000000 0.600000
-0.391112 -0.034270 -0.210238 0.300000 0.000000 0.600000
-0.622509 -0.169030 0.570942 0.300000 0.600000 0.000000
0.448655 0.035432 -0.253797 0.300000 0.000000 0.600000
0.463183 0.255482 -0.461488 0.300000 0.000000 0.600000
-0.372019 0.053583 -0.266014 0.300000 0.000000 0.600000
0.352675 0.050115 -0.294623 0.300000 0.000000 0.600000
0.351745 -0.095901 -0.118650 0.300000 0.000000 0.600000
-0.295373 0.186080 -0.390096 0.600000 0.000000 0.300000
-0.576703 -0.108150 -0.107123 0.300000 0.000000 0.600000
-0.038170 0.341262 -0.541605 0.300000 0.000000 0.600000
0.294829 -0.121633 0.137691 0.000000 0.500000 0.500000
0.373138 0.063290 -0.307798 0.300000 0.000000 0.600000
-0.299239 -0.138988 0.750316 0.300000 0.600000 0.000000
-0.642808 0.339150 -0.530460 0.300000 0.000000 0.600000
0.232869 0.113261 -0.321567 0.600000 0.000000 0.300000
-0.512564 -0.091076 -0.153432 0.300000 0.000000 0.600000
-0.518822 0.033849 -0.252915 0.300000 0.000000 0.600000
-0.317694 0.339232 -0.583740 0.300000 0.000000 0.600000
0.344050 -0.188933 0.301068 0.300000 0.600000 0.000000
0.491509 0.060086 -0.265444 0.600000 0.000000 0.300000
0.623145 -0.188933 0.213816 0.300000 0.600000 0.000000
0.679007 0.123268 -0.318831 0.300000 0.000000 0.600000
-0.404129 -0.139049 0.584559 0.000000 0.500000 0.500000
-0.425405 0.141054 -0.348330 0.300000 0.000000 0.600000
0.381320 -0.135439 -0.109069 0.300000 0.000000 0.600000
0.329423 0.168130 -0.412638 0.300000 0.000000 0.600000
-0.048180 0.123828 -0.331512 0.600000 0.000000 0.300000
0.099179 -0.128894 0.363708 0.000000 0.500000 0.500000
-0.032004 0.072200 -0.276845 0.600000 0.000000 0.300000
0.099657 0.178908 -0.383954 0.300000 0.000000 0.600000
0.684590 0.170057 -0.367571 0.300000 0.000000 0.600000
0.647638 0.278825 -0.523332 0.300000 0.000000 0.600000
0.181700 -0.136238 0.639038 0.300000 0.600000 0.000000
0.286554 -0.187087 -0.016160 0.500000 0.000000 0.500000
-0.468975 0.299596 -0.544104 0.300000 0.000000 0.600000
0.249949 -0.139040 0.582542 0.000000 0.500000 0.500000
-0.066912 -0.130973 0.469460 0.000000 0.500000 0.500000
0.158996 -0.122417 0.173034 0.000000 0.500000 0.500000
-0.094472 -0.107512 -0.036918 0.500000 0.000000 0.500000
0.043109 -0.031740 -0.185718 0.300000 0.000000 0.600000
-0.621520 0.291018 -0.447037 0.300000 0.000000 0.600000
-0.260248 0.024984 -0.232412 0.600000 0.000000 0.300000
0.414350 -0.188933 0.061183 0.300000 0.600000 0.000000
-0.077301 0.365396 -0.609904 0.300000 0.000000 0.600000
0.216102 -0.061044 -0.183464 0.300000 0.000000 0.600000
0.224387 -0.138283 0.727156 0.300000 0.600000 0.000000
-0.502589 0.410944 -0.642316 0.300000 0.000000 0.600000
0.311370 -0.188933 0.087392 0.300000 0.600000 0.000000
-0.281402 0.147820 -0.354090 0.600000 0.000000 0.300000
0.277655 -0.100100 -0.114698 0.300000 0.000000 0.600000
0.628184 0.038786 -0.283294 0.300000 0.000000 0.600000
0.159007 -0.188933 0.432584 0.300000 0.600000 0.000000
0.471795 0.164712 -0.363906 0.600000 0.000000 0.300000
-0.603495 0.407428 -0.639919 0.300000 0.000000 0.600000
0.195340 -0.188933 0.070876 0.300000 0.600000 0.000000
-0.352139 -0.040493 -0.204015 0.300000 0.000000 0.600000
-0.085894 -0.123501 0.215210 0.000000 0.500000 0.500000
-0.590779 0.240302 -0.484810 0.300000 0.000000 0.600000
0.255070 0.357025 -0.601533 0.300000 0.000000 0.600000
-0.012688 -0.023349 -0.186926 0.600000 0.000000 0.300000
0.042648 0.072333 -0.283051 0.600000 0.000000 0.300000
0.627557 0.364476 -0.608984 0.300000 0.000000 0.600000
0.573064 0.084659 -0.288570 0.600000 0.000000 0.300000
0.515533 0.378161 -0.571466 0.300000 0.000000 0.600000
-0.176153 0.233840 -0.478348 0.300000 0.000000 0.600000
0.425172 -0.130339 0.437700 0.000000 0.500000 0.500000
0.062143 -0.123504 0.195897 0.000000 0.500000 0.500000
0.434412 -0.188933 0.237422 0.300000 0.600000 0.000000
0.603346 -0.188933 0.373684 0.300000 0.600000 0.000000
-0.448208 0.077559 -0.287970 0.600000 0.000000 0.300000
-0.585686 0.287494 -0.532002 0.300000 0.000000 0.600000
0.515408 0.142105 -0.342630 0.600000 0.000000 0.300000
0.634588 0.151289 -0.357962 0.300000 0.000000 0.600000
-0.331137 -0.140225 0.790984 0.300000 0.600000 0.000000
0.150676 -0.127718 0.355770 0.000000 0.500000 0.500000
-0.620610 -0.180964 0.379617 0.300000 0.600000 0.000000
0.338079 -0.188933 0.616515 0.300000 0.600000 0.000000
-0.339963 -0.017494 -0.227014 0.300000 0.000000 0.600000
-0.214444 0.196091 -0.393436 0.600000 0.000000 0.300000
0.450477 0.089729 -0.334237 0.300000 0.000000 0.600000
0.599846 -0.134883 0.548937 0.000000 0.500000 0.500000
-0.270215 -0.174989 0.792332 0.300000 0.600000 0.000000
0.318767 -0.006642 -0.237866 0.300000 0.000000 0.600000
-0.523525 0.231366 -0.475874 0.300000 0.000000 0.600000
0.148335 -0.188933 0.651647 0.300000 0.600000 0.000000
-0.217876 0.045549 -0.258453 0.300000 0.000000 0.600000
-0.124294 -0.014553 -0.229955 0.300000 0.000000 0.600000
-0.322312 0.376557 -0.621065 0.300000 0.000000 0.600000
-0.114357 0.110413 -0.318888 0.600000 0.000000 0.300000
-0.229497 -0.126030 0.072740 0.300000 0.600000 0.000000
0.557840 -0.089501 -0.124672 0.300000 0.000000 0.600000
-0.031056 -0.142139 -0.102369 0.300000 0.000000 0.600000
-0.391624 -0.188933 0.421364 0.300000 0.600000 0.000000
0.162902 -0.007165 -0.237343 0.300000 0.000000 0.600000
0.185360 -0.137860 0.713194 0.300000 0.600000 0.000000
0.592873 -0.173967 -0.057871 0.500000 0.000000 0.500000
-0.497943 -0.126258 -0.071746 0.500000 0.000000 0.500000
0.576006 -0.188933 0.057403 0.300000 0.600000 0.000000
0.297648 0.090062 -0.293655 0.600000 0.000000 0.300000
-0.475050 -0.121277 0.000948 0.500000 0.000000 0.500000
-0.548989 0.419938 -0.647704 0.300000 0.000000 0.600000
-0.459495 0.173271 -0.417779 0.300000 0.000000 0.600000
0.069864 0.050961 -0.295469 0.300000 0.000000 0.600000
-0.424701 -0.188932 0.003479 0.300000 0.600000 0.000000
-0.041126 -0.139286 0.748662 0.300000 0.600000 0.000000
-0.083829 0.150214 -0.356951 0.300000 0.000000 0.600000
0.048532 -0.085288 -0.159220 0.300000 0.000000 0.600000
-0.100456 -0.073109 -0.171399 0.300000 0.000000 0.600000
-0.183681 -0.036184 -0.180929 0.600000 0.000000 0.300000
-0.032842 -0.188933 0.257722 0.300000 0.600000 0.000000
-0.620669 0.466524 -0.622638 0.300000 0.000000 0.600000
0.063079 -0.140981 0.797298 0.300000 0.600000 0.000000
0.077300 -0.140900 -0.103608 0.300000 0.000000 0.600000
-0.634513 -0.105480 -0.094945 0.300000 0.000000 0.600000
0.105306 -0.133672 0.528729 0.000000 0.500000 0.500000
0.663427 0.141218 -0.344347 0.300000 0.000000 0.600000
0.510653 0.084869 -0.288768 0.600000 0.000000 0.300000
-0.460660 -0.046608 -0.165038 0.600000 0.000000 0.300000
0.306257 0.086794 -0.331302 0.300000 0.000000 0.600000
-0.639428 0.044868 -0.246488 0.300000 0.000000 0.600000
-0.364386 0.250624 -0.456309 0.300000 0.000000 0.600000
0.676711 -0.081996 -0.043515 0.300000 0.000000 0.600000
-0.105601 -0.137197 0.679693 0.300000 0.600000 0.000000
-0.081859 -0.127703 -0.084546 0.300000 0.000000 0.600000
0.541934 -0.126269 0.294235 0.000000 0.500000 0.500000
-0.508206 0.330238 -0.525759 0.600000 0.000000 0.300000
0.473627 -0.188933 0.556868 0.300000 0.600000 0.000000
0.680754 0.262100 -0.451468 0.300000 0.000000 0.600000
0.274443 -0.122785 0.175867 0.000000 0.500000 0.500000
-0.005819 0.117656 -0.362164 0.300000 0.000000 0.600000
0.362474 -0.074052 -0.145292 0.600000 0.000000 0.300000
0.494543 -0.124209 0.044734 0.300000 0.600000 0.000000
0.669925 -0.041482 -0.163789 0.300000 0.000000 0.600000
0.516853 -0.166148 0.803068 0.300000 0.600000 0.000000
-0.466662 0.157313 -0.368496 0.300000 0.000000 0.600000
-0.512905 0.039559 -0.284067 0.300000 0.000000 0.600000
-0.538630 -0.146585 0.811029 0.300000 0.600000 0.000000
-0.195538 -0.132604 0.483737 0.000000 0.500000 0.500000
-0.306730 0.293685 -0.538193 0.300000 0.000000 0.600000
0.057192 -0.116423 -0.011455 0.500000 0.000000 0.500000
-0.642808 0.095354 -0.311510 0.300000 0.000000 0.600000
0.400112 -0.122122 0.116445 0.000000 0.500000 0.500000
-0.593108 -0.188933 0.485112 0.300000 0.600000 0.000000
0.280927 -0.154162 -0.090346 0.300000 0.000000 0.600000
-0.167715 -0.173812 -0.058076 0.500000 0.000000 0.500000
-0.258156 0.261788 -0.455261 0.600000 0.000000 0.300000
-0.498554 0.363071 -0.607579 0.300000 0.000000 0.600000
-0.141860 -0.123004 0.108760 0.000000 0.500000 0.500000
0.331696 -0.135150 0.554003 0.000000 0.500000 0.500000
-0.541670 -0.138559 0.613195 0.300000 0.600000 0.000000
-0.622705 0.153307 -0.319068 0.300000 0.000000 0.600000
0.183294 0.359820 -0.559678 0.300000 0.000000 0.600000
-0.125913 -0.121737 0.141818 0.000000 0.500000 0.500000
0.630123 0.310052 -0.512234 0.300000 0.000000 0.600000
0.205565 0.259184 -0.503692 0.300000 0.000000 0.600000
-0.000873 0.159439 -0.370496 0.300000 0.000000 0.600000
0.634608 0.434215 -0.650563 0.300000 0.000000 0.600000
-0.271856 -0.007194 -0.202129 0.600000 0.000000 0.300000
0.092355 0.266979 -0.466227 0.600000 0.000000 0.300000
-0.531649 -0.073165 -0.140045 0.600000 0.000000 0.300000
0.580092 0.153987 -0.365366 0.300000 0.000000 0.600000
-0.320395 -0.024138 -0.186184 0.600000 0.000000 0.300000
0.099899 -0.124254 0.234256 0.000000 0.500000 0.500000
-0.049930 -0.188933 0.321085 0.300000 0.600000 0.000000
0.098034 -0.064873 -0.147849 0.600000 0.000000 0.300000
-0.125793 -0.188933 0.452682 0.300000 0.600000 0.000000
-0.175962 -0.188933 0.268618 0.300000 0.600000 0.000000
0.665199 -0.163503 0.462879 0.300000 0.600000 0.000000
0.417300 -0.188933 0.106005 0.300000 0.600000 0.000000
0.013519 -0.111458 -0.103984 0.300000 0.000000 0.600000
-0.420701 -0.138951 0.749136 0.300000 0.600000 0.000000
-0.536380 -0.017153 -0.192757 0.600000 0.000000 0.300000
-0.557286 0.268545 -0.513053 0.300000 0.000000 0.600000
0.279196 0.362901 -0.556497 0.600000 0.000000 0.300000
0.148521 -0.117173 -0.064938 0.500000 0.000000 0.500000
0.148746 0.035383 -0.248279 0.600000 0.000000 0.300000
-0.091703 -0.094383 -0.120079 0.300000 0.000000 0.600000
0.149401 0.175552 -0.420060 0.300000 0.000000 0.600000
0.190151 0.124883 -0.333112 0.300000 0.000000 0.600000
0.084745 0.426132 -0.622083 0.300000 0.000000 0.600000
-0.354325 0.314031 -0.516587 0.300000 0.000000 0.600000
0.495120 0.155887 -0.400395 0.300000 0.000000 0.600000
-0.106782 -0.188933 0.039844 0.300000 0.600000 0.000000
0.606771 -0.103175 -0.141333 0.300000 0.000000 0.600000
0.525623 0.414547 -0.611180 0.300000 0.000000 0.600000
0.507215 0.201082 -0.398132 0.600000 0.000000 0.300000
-0.055782 -0.177083 0.787249 0.300000 0.600000 0.000000
0.080211 0.141470 -0.348114 0.600000 0.000000 0.300000
0.290462 0.430149 -0.650252 0.300000 0.000000 0.600000
0.613855 -0.130557 0.435541 0.000000 0.500000 0.500000
-0.388476 0.235740 -0.480248 0.300000 0.000000 0.600000
-0.488894 0.212512 -0.457020 0.300000 0.000000 0.600000
-0.362563 0.408899 -0.605865 0.300000 0.000000 0.600000
-0.615925 -0.140425 0.610684 0.300000 0.600000 0.000000
-0.087494 -0.138648 0.578874 0.000000 0.500000 0.500000
0.607580 0.297163 -0.500713 0.300000 0.000000 0.600000
0.545801 -0.188933 0.691376 0.300000 0.600000 0.000000
0.284525 -0.117661 -0.008685 0.500000 0.000000 0.500000
-0.443126 -0.015084 -0.200785 0.600000 0.000000 0.300000
-0.204754 -0.058775 -0.185733 0.300000 0.000000 0.600000
0.564597 0.278039 -0.482716 0.300000 0.000000 0.600000
0.430361 -0.062017 -0.182491 0.300000 0.000000 0.600000
0.373843 -0.135375 0.514204 0.000000 0.500000 0.500000
-0.236176 -0.188933 0.313653 0.300000 0.600000 0.000000
0.327486 -0.188933 0.352368 0.300000 0.600000 0.000000
-0.361682 0.438155 -0.627317 0.600000 0.000000 0.300000
-0.398739 -0.125575 0.068724 0.300000 0.600000 0.000000
-0.254314 0.066791 -0.278444 0.300000 0.000000 0.600000
-0.545989 0.446427 -0.647855 0.300000 0.000000 0.600000
-0.407059 -0.058245 -0.186263 0.300000 0.000000 0.600000
-0.138836 -0.172249 0.796588 0.300000 0.600000 0.000000
-0.569063 -0.048412 -0.163340 0.600000 0.000000 0.300000
-0.053993 0.024880 -0.269388 0.300000 0.000000 0.600000
0.663427 0.392950 -0.604495 0.300000 0.000000 0.600000
-0.450491 -0.188933 0.372606 0.300000 0.600000 0.000000
-0.297499 -0.073885 -0.170623 0.300000 0.000000 0.600000
-0.535715 -0.188933 0.580740 0.300000 0.600000 0.000000
0.463659 -0.161610 -0.070267 0.500000 0.000000 0.500000
0.560523 -0.158852 0.807679 0.300000 0.600000 0.000000
0.545873 -0.123419 0.018262 0.300000 0.600000 0.000000
0.531016 -0.000524 -0.243984 0.300000 0.000000 0.600000
0.448879 0.118724 -0.363232 0.300000 0.000000 0.600000
0.035868 0.203121 -0.447629 0.300000 0.000000 0.600000
-0.562891 0.100620 -0.345128 0.300000 0.000000 0.600000
0.427083 -0.126861 0.292091 0.000000 0.500000 0.500000
0.612012 0.329999 -0.574507 0.300000 0.000000 0.600000
-0.411549 -0.188933 0.717112 0.300000 0.600000 0.000000
-0.158940 0.002785 -0.247293 0.300000 0.000000 0.600000
0.602744 -0.107748 -0.034282 0.500000 0.000000 0.500000
-0.321708 -0.129514 0.388949 0.000000 0.500000 0.500000
0.477897 -0.131964 0.452459 0.000000 0.500000 0.500000
0.369584 0.033210 -0.277718 0.300000 0.000000 0.600000
0.027702 0.405036 -0.590068 0.600000 0.000000 0.300000
-0.620669 -0.098618 -0.121112 0.300000 0.000000 0.600000
-0.599495 0.123156 -0.331487 0.300000 0.000000 0.600000
0.052325 0.123044 -0.367552 0.300000 0.000000 0.600000
0.316891 -0.064177 -0.180331 0.300000 0.000000 0.600000
-0.526378 0.089470 -0.333978 0.300000 0.000000 0.600000
-0.162427 0.184920 -0.394476 0.300000 0.000000 0.600000
-0.009228 -0.188933 0.048827 0.300000 0.600000 0.000000
0.663427 -0.166887 -0.020224 0.300000 0.000000 0.600000
0.606553 -0.188933 0.489547 0.300000 0.600000 0.000000
0.394798 0.419922 -0.647698 0.300000 0.000000 0.600000
0.303789 -0.133133 0.511192 0.000000 0.500000 0.500000
-0.624858 0.012541 -0.257049 0.300000 0.000000 0.600000
0.060280 -0.068633 -0.175875 0.300000 0.000000 0.600000
0.008293 -0.138596 0.706037 0.300000 0.600000 0.000000
-0.552418 0.356682 -0.551253 0.300000 0.000000 0.600000
0.058076 0.356698 -0.601206 0.300000 0.000000 0.600000
0.663427 0.153427 -0.389746 0.300000 0.000000 0.600000
0.632191 -0.124841 0.065561 0.300000 0.600000 0.000000
-0.096673 -0.047962 -0.196546 0.300000 0.000000 0.600000
0.380303 0.001379 -0.210197 0.600000 0.000000 0.300000
0.309846 -0.024120 -0.220388 0.300000 0.000000 0.600000
-0.578631 -0.138656 0.739433 0.300000 0.600000 0.000000
-0.055123 -0.031183 -0.186243 0.300000 0.000000 0.600000
-0.341338 -0.012598 -0.197044 0.600000 0.000000 0.300000
-0.133915 0.259138 -0.452767 0.600000 0.000000 0.300000
-0.586291 -0.126575 0.301628 0.000000 0.500000 0.500000
0.273588 0.315753 -0.560261 0.300000 0.000000 0.600000
0.605785 0.195875 -0.440383 0.300000 0.000000 0.600000
-0.626050 -0.035660 -0.208848 0.300000 0.000000 0.600000
0.685009 0.423091 -0.578933 0.300000 0.000000 0.600000
-0.642808 0.262613 -0.415713 0.300000 0.000000 0.600000
-0.488710 -0.122487 0.168455 0.000000 0.500000 0.500000
0.209140 -0.188511 -0.004267 0.300000 0.600000 0.000000
-0.532543 -0.108825 -0.106487 0.300000 0.000000 0.600000
0.041293 -0.188933 0.154086 0.300000 0.600000 0.000000
0.475143 0.216976 -0.419171 0.600000 0.000000 0.300000
0.389204 -0.045338 -0.199171 0.300000 0.000000 0.600000
-0.430005 -0.095922 -0.118630 0.300000 0.000000 0.600000
-0.622973 0.115744 -0.360252 0.300000 0.000000 0.600000
0.502771 -0.188933 0.019282 0.300000 0.600000 0.000000
0.156704 -0.123004 0.107527 0.000000 0.500000 0.500000
-0.171608 -0.122360 -0.122148 0.300000 0.000000 0.600000
0.424237 0.365986 -0.564872 0.300000 0.000000 0.600000
-0.073949 0.079910 -0.324418 0.300000 0.000000 0.600000
0.009849 -0.084314 -0.129554 0.300000 0.000000 0.600000
0.022057 0.299263 -0.490528 0.600000 0.000000 0.300000
-0.368361 -0.125471 0.053369 0.300000 0.600000 0.000000
-0.124797 -0.101449 -0.113429 0.300000 0.000000 0.600000
-0.327181 -0.188933 0.163472 0.300000 0.600000 0.000000
0.226104 -0.127164 0.328038 0.000000 0.500000 0.500000
0.467280 -0.136131 0.505895 0.000000 0.500000 0.500000
0.269472 -0.124284 -0.120224 0.300000 0.000000 0.600000
0.024350 0.226473 -0.470981 0.300000 0.000000 0.600000
-0.407419 -0.188933 0.575660 0.300000 0.600000 0.000000
0.368474 -0.123775 0.195562 0.000000 0.500000 0.500000
0.406460 -0.108963 -0.050052 0.500000 0.000000 0.500000
0.258949 0.095074 -0.339582 0.300000 0.000000 0.600000
0.229148 -0.188933 0.460147 0.300000 0.600000 0.000000
-0.199254 0.426382 -0.649756 0.300000 0.000000 0.600000
0.239365 0.338044 -0.539185 0.300000 0.000000 0.600000
-0.431056 0.189079 -0.398390 0.300000 0.000000 0.600000
0.138683 -0.170092 -0.062982 0.500000 0.000000 0.500000
0.192067 0.342468 -0.531187 0.600000 0.000000 0.300000
-0.330844 0.143735 -0.388243 0.300000 0.000000 0.600000
0.204015 0.377059 -0.563740 0.600000 0.000000 0.300000
0.008908 -0.066402 -0.178106 0.300000 0.000000 0.600000
-0.373638 -0.122172 0.150098 0.000000 0.500000 0.500000
0.315322 -0.131113 0.430564 0.000000 0.500000 0.500000
0.345659 0.083347 -0.287335 0.600000 0.000000 0.300000
-0.369908 0.012931 -0.232622 0.300000 0.000000 0.600000
-0.642808 0.197218 -0.399397 0.300000 0.000000 0.600000
0.641853 -0.011543 -0.232965 0.300000 0.000000 0.600000
-0.599460 0.005040 -0.213643 0.600000 0.000000 0.300000
-0.408323 -0.016827 -0.227681 0.300000 0.000000 0.600000
0.538139 -0.109970 -0.105410 0.300000 0.000000 0.600000
0.586018 0.254643 -0.460698 0.300000 0.000000 0.600000
-0.013520 -0.119993 -0.094842 0.300000 0.000000 0.600000
0.356993 -0.129401 0.375299 0.000000 0.500000 0.500000
0.058447 -0.092975 -0.121403 0.300000 0.000000 0.600000
0.439952 0.370204 -0.614712 0.300000 0.000000 0.600000
0.559706 -0.188933 0.236322 0.300000 0.600000 0.000000
-0.452387 0.285223 -0.529731 0.300000 0.000000 0.600000
0.215848 0.263677 -0.468592 0.300000 0.000000 0.600000
0.027052 0.007035 -0.251543 0.300000 0.000000 0.600000
0.287661 0.167574 -0.373288 0.300000 0.000000 0.600000
-0.302879 0.369596 -0.562797 0.600000 0.000000 0.300000
-0.195202 -0.137573 0.688706 0.300000 0.600000 0.000000
0.316599 0.151769 -0.396277 0.300000 0.000000 0.600000
0.385711 0.208414 -0.452922 0.300000 0.000000 0.600000
-0.230057 0.334674 -0.523852 0.600000 0.000000 0.300000
-0.050817 0.437665 -0.650109 0.300000 0.000000 0.600000
-0.255990 -0.113302 -0.102175 0.300000 0.000000 0.600000
0.351016 -0.054931 -0.189577 0.300000 0.000000 0.600000
-0.289714 0.028830 -0.242112 0.600000 0.000000 0.300000
0.685305 0.072446 -0.241772 0.300000 0.000000 0.600000
0.118358 -0.137920 0.715180 0.300000 0.600000 0.000000
0.108570 0.452749 -0.644644 0.300000 0.000000 0.600000
-0.286733 0.127022 -0.335125 0.300000 0.000000 0.600000
-0.112231 -0.135975 0.649948 0.300000 0.600000 0.000000
0.663427 0.027958 -0.252456 0.300000 0.000000 0.600000
0.676711 -0.164942 -0.070267 0.300000 0.000000 0.600000
-0.605159 0.366494 -0.559878 0.600000 0.000000 0.300000
-0.559703 0.321383 -0.517426 0.600000 0.000000 0.300000
-0.292618 -0.188933 0.718670 0.300000 0.600000 0.000000
-0.492608 -0.188933 0.400232 0.300000 0.600000 0.000000
0.601815 -0.188933 0.169413 0.300000 0.600000 0.000000
0.299651 0.387703 -0.631465 0.300000 0.000000 0.600000
-0.172531 0.104138 -0.348646 0.300000 0.000000 0.600000
0.636150 0.373245 -0.566840 0.300000 0.000000 0.600000
0.016831 -0.124239 0.232199 0.000000 0.500000 0.500000
-0.615725 -0.129297 -0.071937 0.500000 0.000000 0.500000
0.081209 -0.188932 0.007363 0.300000 0.600000 0.000000
0.060546 0.246516 -0.453051 0.300000 0.000000 0.600000
0.022965 -0.188933 0.608387 0.300000 0.600000 0.000000
0.299008 0.334375 -0.578883 0.300000 0.000000 0.600000
-0.444835 -0.142918 -0.101590 0.300000 0.000000 0.600000
-0.268950 0.201889 -0.405581 0.300000 0.000000 0.600000
0.339934 0.197727 -0.442235 0.300000 0.000000 0.600000
0.545350 0.136178 -0.380686 0.300000 0.000000 0.600000
-0.140160 -0.188933 0.298782 0.300000 0.600000 0.000000
0.540023 -0.188933 0.265926 0.300000 0.600000 0.000000
0.277230 -0.187404 0.751089 0.300000 0.600000 0.000000
-0.359281 -0.130151 0.409970 0.000000 0.500000 0.500000
-0.277496 0.160480 -0.404988 0.300000 0.000000 0.600000
-0.144498 -0.084538 -0.159970 0.300000 0.000000 0.600000
-0.543906 -0.132790 0.494152 0.000000 0.500000 0.500000
0.007798 -0.128015 0.341159 0.000000 0.500000 0.500000
0.663427 0.123370 -0.282408 0.300000 0.000000 0.600000
-0.269269 0.261928 -0.506436 0.300000 0.000000 0.600000
-0.265704 -0.126037 0.286984 0.000000 0.500000 0.500000
0.181748 -0.123744 0.217235 0.000000 0.500000 0.500000
0.326178 0.048951 -0.293459 0.300000 0.000000 0.600000
-0.323655 -0.188499 -0.004415 0.300000 0.600000 0.000000
-0.049296 -0.188933 0.506581 0.300000 0.600000 0.000000
-0.642808 0.252182 -0.462279 0.300000 0.000000 0.600000
0.114151 0.340038 -0.584546 0.300000 0.000000 0.600000
0.345229 -0.188933 0.144516 0.300000 0.600000 0.000000
0.028704 0.094112 -0.338620 0.300000 0.000000 0.600000
0.321196 -0.188177 -0.008460 0.300000 0.600000 0.000000
0.301742 -0.188933 0.155084 0.300000 0.600000 0.000000
-0.154917 0.015265 -0.223265 0.600000 0.000000 0.300000
0.203586 -0.031302 -0.190995 0.300000 0.000000 0.600000
0.048184 -0.111528 -0.103916 0.300000 0.000000 0.600000
0.218024 0.150568 -0.362756 0.300000 0.000000 0.600000
0.480937 -0.140076 0.786111 0.300000 0.600000 0.000000
0.310043 -0.129861 0.401034 0.000000 0.500000 0.500000
-0.004441 0.445237 -0.648347 0.300000 0.000000 0.600000
-0.014091 -0.162806 -0.069711 0.500000 0.000000 0.500000
-0.590191 -0.130269 0.405006 0.000000 0.500000 0.500000
-0.379327 -0.131160 0.440846 0.000000 0.500000 0.500000
0.184664 -0.122121 0.154139 0.000000 0.500000 0.500000
-0.047654 0.168510 -0.413018 0.300000 0.000000 0.600000
0.377615 -0.131597 0.452865 0.000000 0.500000 0.500000
0.470147 0.128926 -0.373434 0.300000 0.000000 0.600000
-0.462038 -0.188933 0.627577 0.300000 0.600000 0.000000
0.411081 -0.081540 -0.135066 0.600000 0.000000 0.300000
-0.145996 0.336734 -0.532480 0.300000 0.000000 0.600000
-0.553701 -0.001850 -0.207158 0.600000 0.000000 0.300000
-0.027958 -0.056785 -0.155461 0.600000 0.000000 0.300000
-0.252409 0.440280 -0.649764 0.300000 0.000000 0.600000
0.421143 -0.122435 0.180697 0.000000 0.500000 0.500000
-0.270705 -0.166994 -0.066052 0.300000 0.000000 0.600000
-0.315146 -0.188933 0.612353 0.300000 0.600000 0.000000
-0.517491 0.142809 -0.354847 0.300000 0.000000 0.600000
0.512904 0.312871 -0.557379 0.300000 0.000000 0.600000
-0.291734 -0.129486 0.390540 0.000000 0.500000 0.500000
-0.441210 0.069263 -0.313771 0.300000 0.000000 0.600000
0.273688 -0.188933 0.026950 0.300000 0.600000 0.000000
0.653870 0.237767 -0.482275 0.300000 0.000000 0.600000
0.133418 0.197264 -0.406700 0.300000 0.000000 0.600000
0.476093 0.355883 -0.549892 0.600000 0.000000 0.300000
-0.506132 -0.188933 0.619527 0.300000 0.600000 0.000000
-0.030789 -0.124016 -0.120492 0.300000 0.000000 0.600000
-0.536629 0.229996 -0.425343 0.600000 0.000000 0.300000
0.541023 0.178020 -0.422529 0.300000 0.000000 0.600000
-0.413888 0.069928 -0.280788 0.600000 0.000000 0.300000
0.106961 0.363343 -0.607851 0.300000 0.000000 0.600000
0.014315 0.434705 -0.630151 0.300000 0.000000 0.600000
-0.045171 -0.188933 0.569751 0.300000 0.600000 0.000000
-0.237516 0.125915 -0.334084 0.300000 0.000000 0.600000
-0.278343 -0.139830 0.778108 0.300000 0.600000 0.000000
0.405589 -0.137037 0.686105 0.300000 0.600000 0.000000
0.342903 0.316172 -0.560680 0.300000 0.000000 0.600000
0.189328 -0.123165 0.014144 0.300000 0.600000 0.000000
-0.609547 -0.124513 0.115209 0.300000 0.600000 0.000000
0.184535 0.031047 -0.275555 0.300000 0.000000 0.600000
-0.336456 0.173667 -0.418175 0.300000 0.000000 0.600000
0.483131 -0.037911 -0.173222 0.600000 0.000000 0.300000
-0.460995 -0.188731 -0.001509 0.300000 0.600000 0.000000
0.088297 0.078250 -0.322758 0.300000 0.000000 0.600000
-0.521068 0.081851 -0.285927 0.600000 0.000000 0.300000
-0.567575 0.172937 -0.417445 0.300000 0.000000 0.600000
-0.411714 0.040084 -0.246621 0.600000 0.000000 0.300000
0.132771 0.079083 -0.323591 0.300000 0.000000 0.600000
0.244072 -0.114282 -0.015500 0.500000 0.000000 0.500000
0.287685 -0.188933 0.480928 0.300000 0.600000 0.000000
0.563280 -0.181640 -0.037496 0.500000 0.000000 0.500000
-0.453204 -0.000375 -0.244133 0.300000 0.000000 0.600000
-0.252358 0.323549 -0.513383 0.600000 0.000000 0.300000
-0.284823 -0.099781 -0.114998 0.300000 0.000000 0.600000
0.645762 0.329473 -0.573981 0.300000 0.000000 0.600000
0.007487 -0.188933 0.723661 0.300000 0.600000 0.000000
-0.221196 -0.130842 0.445483 0.000000 0.500000 0.500000
0.048074 0.435089 -0.629903 0.300000 0.000000 0.600000
-0.042085 -0.129900 0.399182 0.000000 0.500000 0.500000
0.396125 0.279214 -0.483214 0.300000 0.000000 0.600000
0.374336 0.264941 -0.464310 0.600000 0.000000 0.300000
-0.179917 -0.136305 0.565812 0.000000 0.500000 0.500000
0.663427 0.364728 -0.489067 0.300000 0.000000 0.600000
-0.212995 0.340355 -0.584863 0.300000 0.000000 0.600000
-0.514626 -0.188933 0.729797 0.300000 0.600000 0.000000
0.208749 -0.075152 -0.138176 0.600000 0.000000 0.300000
0.590961 -0.005457 -0.239051 0.300000 0.000000 0.600000
-0.454420 0.181447 -0.386344 0.300000 0.000000 0.600000
0.503801 -0.188933 0.066219 0.300000 0.600000 0.000000
-0.556227 -0.139021 0.751441 0.300000 0.600000 0.000000
0.097732 0.427468 -0.649899 0.300000 0.000000 0.600000
-0.621409 -0.177529 0.757225 0.300000 0.600000 0.000000
0.685567 0.408623 -0.608909 0.300000 0.000000 0.600000
0.663427 0.218714 -0.427182 0.300000 0.000000 0.600000
0.303753 -0.188933 0.547547 0.300000 0.600000 0.000000
0.379630 -0.115735 -0.128773 0.300000 0.000000 0.600000
-0.022690 0.006008 -0.226714 0.300000 0.000000 0.600000
-0.415704 0.291223 -0.489043 0.600000 0.000000 0.300000
-0.290574 0.001115 -0.245623 0.300000 0.000000 0.600000
-0.373358 -0.138724 0.719617 0.300000 0.600000 0.000000
0.663427 0.100435 -0.258691 0.300000 0.000000 0.600000
0.613732 0.257043 -0.462957 0.300000 0.000000 0.600000
0.602756 0.247966 -0.492474 0.300000 0.000000 0.600000
-0.620669 -0.055719 -0.126056 0.300000 0.000000 0.600000
0.331607 0.016077 -0.236190 0.300000 0.000000 0.600000
-0.447071 0.138673 -0.383181 0.300000 0.000000 0.600000
-0.605962 -0.075791 -0.137575 0.600000 0.000000 0.300000
0.392713 -0.188484 0.741085 0.300000 0.600000 0.000000
0.070013 0.272408 -0.476808 0.300000 0.000000 0.600000
0.161451 0.400619 -0.637001 0.300000 0.000000 0.600000
-0.545358 0.046622 -0.259462 0.300000 0.000000 0.600000
0.313689 -0.140701 0.794552 0.300000 0.600000 0.000000
0.321413 0.437827 -0.650087 0.300000 0.000000 0.600000
0.467724 -0.125072 0.073143 0.300000 0.600000 0.000000
-0.585688 0.182664 -0.380800 0.600000 0.000000 0.300000
0.224926 -0.137120 0.626442 0.300000 0.600000 0.000000
0.247765 -0.188933 0.141020 0.300000 0.600000 0.000000
0.681582 0.209328 -0.335483 0.300000 0.000000 0.600000
-0.344227 0.297071 -0.488465 0.600000 0.000000 0.300000
0.486008 -0.121832 -0.092598 0.300000 0.000000 0.600000
0.139948 -0.125392 0.278106 0.000000 0.500000 0.500000
0.363243 -0.188933 0.702688 0.300000 0.600000 0.000000
0.380064 0.157268 -0.401776 0.300000 0.000000 0.600000
0.513590 0.162162 -0.368195 0.300000 0.000000 0.600000
0.021134 -0.188933 0.667183 0.300000 0.600000 0.000000
0.578183 0.059452 -0.276401 0.300000 0.000000 0.600000
0.630153 -0.127362 0.314520 0.000000 0.500000 0.500000
-0.558539 0.137826 -0.338604 0.600000 0.000000 0.300000
0.417924 0.079548 -0.295920 0.300000 0.000000 0.600000
-0.000453 0.404891 -0.589931 0.600000 0.000000 0.300000
0.279559 -0.139326 0.761485 0.300000 0.600000 0.000000
-0.585885 -0.127884 0.348968 0.000000 0.500000 0.500000
-0.016082 -0.111212 -0.055796 0.500000 0.000000 0.500000
0.575148 -0.188933 0.125855 0.300000 0.600000 0.000000
-0.222289 -0.152951 -0.091557 0.300000 0.000000 0.600000
-0.233022 -0.138779 0.722681 0.300000 0.600000 0.000000
-0.393543 -0.033344 -0.177520 0.600000 0.000000 0.300000
-0.102661 0.004216 -0.212867 0.600000 0.000000 0.300000
0.037609 0.048201 -0.266420 0.300000 0.000000 0.600000
-0.417728 0.334606 -0.579114 0.300000 0.000000 0.600000
0.235468 0.287645 -0.532153 0.300000 0.000000 0.600000
-0.517627 -0.052606 -0.191902 0.300000 0.000000 0.600000
-0.500799 -0.073019 -0.171489 0.300000 0.000000 0.600000
0.631025 -0.131569 0.465995 0.000000 0.500000 0.500000
-0.102632 0.296626 -0.499599 0.300000 0.000000 0.600000
-0.057631 -0.129246 0.369440 0.000000 0.500000 0.500000
0.661443 0.440775 -0.623701 0.300000 0.000000 0.600000
-0.271616 -0.188933 0.596719 0.300000 0.600000 0.000000
-0.349805 -0.188933 0.439157 0.300000 0.600000 0.000000
-0.165569 0.228764 -0.435737 0.300000 0.000000 0.600000
0.107159 0.112559 -0.320907 0.600000 0.000000 0.300000
0.665328 -0.161739 0.738981 0.300000 0.600000 0.000000
-0.458452 0.122122 -0.330514 0.300000 0.000000 0.600000
0.488496 -0.059348 -0.185160 0.300000 0.000000 0.600000
0.107291 0.276645 -0.521153 0.300000 0.000000 0.600000
0.410992 0.200856 -0.445364 0.300000 0.000000 0.600000
-0.613631 0.405239 -0.602421 0.300000 0.000000 0.600000
0.464364 0.073985 -0.290078 0.300000 0.000000 0.600000
0.094808 -0.141223 -0.074369 0.300000 0.000000 0.600000
-0.113017 0.233430 -0.440128 0.300000 0.000000 0.600000
-0.590129 0.031124 -0.238190 0.600000 0.000000 0.300000
-0.482208 0.210235 -0.413435 0.300000 0.000000 0.600000
-0.201434 0.003433 -0.212130 0.600000 0.000000 0.300000
-0.403225 0.341662 -0.530429 0.600000 0.000000 0.300000
-0.579121 -0.182382 -0.034936 0.500000 0.000000 0.500000
-0.075440 -0.140264 0.792085 0.300000 0.600000 0.000000
-0.351486 0.254500 -0.499008 0.300000 0.000000 0.600000
-0.175367 -0.140580 0.799838 0.300000 0.600000 0.000000
0.064497 -0.124562 0.056380 0.300000 0.600000 0.000000
-0.459891 -0.188933 0.697569 0.300000 0.600000 0.000000
0.679052 -0.067763 -0.145130 0.300000 0.000000 0.600000
0.465978 -0.135104 -0.074324 0.500000 0.000000 0.500000
0.543366 0.102320 -0.311879 0.300000 0.000000 0.600000
-0.153587 -0.126649 0.283904 0.000000 0.500000 0.500000
0.367367 0.145526 -0.345851 0.600000 0.000000 0.300000
-0.435525 -0.123441 0.200221 0.000000 0.500000 0.500000
-0.211280 -0.111046 -0.105463 0.300000 0.000000 0.600000
0.419862 -0.179091 0.781796 0.300000 0.600000 0.000000
0.051109 -0.182770 0.770022 0.300000 0.600000 0.000000
-0.403700 -0.180960 -0.039622 0.500000 0.000000 0.500000
-0.621316 0.025843 -0.201479 0.300000 0.000000 0.600000
-0.455464 0.374200 -0.572603 0.300000 0.000000 0.600000
-0.068539 0.258870 -0.452515 0.600000 0.000000 0.300000
-0.642659 0.232238 -0.363819 0.300000 0.000000 0.600000
-0.416835 -0.137513 0.685080 0.300000 0.600000 0.000000
0.458203 -0.188933 0.401335 0.300000 0.600000 0.000000
0.482454 0.445872 -0.628497 0.300000 0.000000 0.600000
0.621238 -0.122807 0.111946 0.000000 0.500000 0.500000
-0.349857 0.213466 -0.409787 0.600000 0.000000 0.300000
-0.525198 0.399178 -0.596109 0.300000 0.000000 0.600000
0.110207 -0.077803 -0.166705 0.300000 0.000000 0.600000
0.386185 -0.138445 0.732494 0.300000 0.600000 0.000000
0.315027 -0.073123 -0.146773 0.300000 0.000000 0.600000
0.153098 -0.119736 -0.095155 0.300000 0.000000 0.600000
0.364287 0.052125 -0.257952 0.600000 0.000000 0.300000
-0.437993 0.321677 -0.566185 0.300000 0.000000 0.600000
0.337264 0.360725 -0.560529 0.300000 0.000000 0.600000
0.685567 -0.024572 -0.152941 0.300000 0.000000 0.600000
0.201816 -0.188933 0.211524 0.300000 0.600000 0.000000
0.197536 -0.123483 0.104339 0.000000 0.500000 0.500000
0.184719 -0.004778 -0.204403 0.600000 0.000000 0.300000
-0.465992 -0.184428 0.764297 0.300000 0.600000 0.000000
0.424200 0.329032 -0.530704 0.300000 0.000000 0.600000
0.401591 -0.169768 0.799607 0.300000 0.600000 0.000000
0.315788 0.121386 -0.365894 0.300000 0.000000 0.600000
0.626524 0.209989 -0.418067 0.300000 0.000000 0.600000
-0.525927 -0.141187 -0.074364 0.300000 0.000000 0.600000
0.357868 0.220573 -0.428636 0.300000 0.000000 0.600000
-0.129330 -0.139357 0.759218 0.300000 0.600000 0.000000
0.418451 -0.142965 -0.074540 0.300000 0.000000 0.600000
0.477593 -0.125743 0.287102 0.000000 0.500000 0.500000
-0.303998 -0.114236 -0.101218 0.300000 0.000000 0.600000
0.201289 0.192735 -0.437243 0.300000 0.000000 0.600000
0.042429 -0.124168 0.098902 0.300000 0.600000 0.000000
-0.080943 -0.188933 0.271274 0.300000 0.600000 0.000000
0.437619 0.054084 -0.265878 0.600000 0.000000 0.300000
0.040166 -0.125695 0.278741 0.000000 0.500000 0.500000
0.642564 -0.110454 -0.104954 0.300000 0.000000 0.600000
-0.159339 -0.127817 0.325463 0.000000 0.500000 0.500000
0.154283 -0.132471 0.488506 0.000000 0.500000 0.500000
-0.268106 -0.188933 0.169167 0.300000 0.600000 0.000000
-0.620669 0.354946 -0.482295 0.300000 0.000000 0.600000
0.201490 0.092969 -0.296390 0.600000 0.000000 0.300000
-0.342322 0.014294 -0.233904 0.300000 0.000000 0.600000
-0.249801 0.398120 -0.635930 0.300000 0.000000 0.600000
-0.220259 0.025254 -0.239354 0.300000 0.000000 0.600000
0.259581 0.284104 -0.482343 0.600000 0.000000 0.300000
0.685567 0.268926 -0.486736 0.300000 0.000000 0.600000
-0.107178 -0.131073 0.432351 0.000000 0.500000 0.500000
-0.238426 -0.063761 -0.180747 0.300000 0.000000 0.600000
-0.166634 0.323464 -0.567972 0.300000 0.000000 0.600000
0.029225 -0.013911 -0.195808 0.600000 0.000000 0.300000
-0.339255 -0.106074 -0.138434 0.300000 0.000000 0.600000
0.517971 0.330931 -0.531883 0.300000 0.000000 0.600000
0.291095 0.057068 -0.301576 0.300000 0.000000 0.600000
0.527102 -0.170564 -0.062359 0.500000 0.000000 0.500000
-0.023427 0.382129 -0.574592 0.600000 0.000000 0.300000
-0.116569 -0.186892 0.753524 0.300000 0.600000 0.000000
-0.613662 -0.135995 0.399815 0.300000 0.600000 0.000000
0.663427 0.177327 -0.327764 0.300000 0.000000 0.600000
-0.199447 -0.188933 0.407255 0.300000 0.600000 0.000000
-0.138107 -0.188933 0.104508 0.300000 0.600000 0.000000
-0.279232 0.092632 -0.302154 0.600000 0.000000 0.300000
-0.609662 0.227311 -0.471819 0.300000 0.000000 0.600000
0.319269 -0.108130 -0.030014 0.500000 0.000000 0.500000
0.415190 0.002842 -0.247350 0.300000 0.000000 0.600000
0.410467 -0.136197 0.640737 0.300000 0.600000 0.000000
-0.018848 0.358309 -0.602817 0.300000 0.000000 0.600000
0.255340 0.128873 -0.342339 0.300000 0.000000 0.600000
0.662286 -0.129915 -0.081083 0.300000 0.000000 0.600000
-0.377882 -0.183201 -0.032111 0.500000 0.000000 0.500000
0.505632 -0.132972 0.483344 0.000000 0.500000 0.500000
0.459716 0.030819 -0.275327 0.300000 0.000000 0.600000
0.530749 0.052264 -0.258084 0.600000 0.000000 0.300000
-0.095209 0.402441 -0.593707 0.600000 0.000000 0.300000
-0.415776 -0.188933 0.460077 0.300000 0.600000 0.000000
-0.386161 0.038211 -0.250940 0.600000 0.000000 0.300000
0.384178 0.423843 -0.619928 0.300000 0.000000 0.600000
-0.581578 0.418347 -0.614756 0.300000 0.000000 0.600000
-0.102923 -0.188933 0.622472 0.300000 0.600000 0.000000
0.644203 -0.147962 -0.096546 0.300000 0.000000 0.600000
0.609412 -0.023291 -0.221217 0.300000 0.000000 0.600000
0.548709 0.074778 -0.319286 0.300000 0.000000 0.600000
0.580654 -0.032351 -0.190008 0.300000 0.000000 0.600000
0.241914 0.400377 -0.585684 0.600000 0.000000 0.300000
-0.581803 -0.140190 0.789846 0.300000 0.600000 0.000000
0.685567 -0.070745 -0.104579 0.300000 0.000000 0.600000
0.600183 0.069975 -0.281440 0.300000 0.000000 0.600000
0.133394 -0.124450 0.211047 0.000000 0.500000 0.500000
0.480771 -0.107317 -0.042015 0.500000 0.000000 0.500000
0.578657 -0.188933 0.153324 0.300000 0.600000 0.000000
0.617743 0.039763 -0.257873 0.300000 0.000000 0.600000
-0.029486 -0.132051 0.456429 0.000000 0.500000 0.500000
-0.392665 -0.188933 0.256491 0.300000 0.600000 0.000000
0.447734 -0.005832 -0.203411 0.600000 0.000000 0.300000
0.416147 0.175970 -0.420478 0.300000 0.000000 0.600000
-0.175469 -0.133719 0.537462 0.000000 0.500000 0.500000
-0.180884 -0.068662 -0.144284 0.600000 0.000000 0.300000
-0.540589 -0.134961 0.554829 0.000000 0.500000 0.500000
0.191641 -0.129893 0.400123 0.000000 0.500000 0.500000
-0.334959 0.108079 -0.352587 0.300000 0.000000 0.600000
0.476423 -0.137571 0.703679 0.300000 0.600000 0.000000
-0.223412 -0.188933 0.031501 0.300000 0.600000 0.000000
0.426092 -0.188933 0.728245 0.300000 0.600000 0.000000
0.685567 0.004514 -0.160341 0.300000 0.000000 0.600000
-0.146068 -0.112692 -0.102789 0.300000 0.000000 0.600000
-0.603227 0.340265 -0.535195 0.600000 0.000000 0.300000
0.517283 -0.116330 -0.128178 0.300000 0.000000 0.600000
-0.527846 -0.169906 -0.063228 0.500000 0.000000 0.500000
-0.321254 -0.188933 0.341763 0.300000 0.600000 0.000000
-0.178083 -0.188933 0.052043 0.300000 0.600000 0.000000
0.314977 -0.172982 -0.059169 0.500000 0.000000 0.500000
-0.514152 -0.005315 -0.203897 0.600000 0.000000 0.300000
0.045687 0.335005 -0.535717 0.300000 0.000000 0.600000
-0.247051 0.242025 -0.442744 0.600000 0.000000 0.300000
-0.227340 0.432300 -0.627279 0.300000 0.000000 0.600000
-0.591454 0.336771 -0.581279 0.300000 0.000000 0.600000
0.616398 -0.188933 0.034960 0.300000 0.600000 0.000000
-0.452503 -0.138857 0.746036 0.300000 0.600000 0.000000
-0.279686 -0.145921 -0.098587 0.300000 0.000000 0.600000
0.238150 0.080186 -0.284360 0.600000 0.000000 0.300000
-0.465196 -0.122099 0.146673 0.000000 0.500000 0.500000
-0.179672 -0.124679 0.242514 0.000000 0.500000 0.500000
-0.163219 0.298444 -0.501311 0.300000 0.000000 0.600000
0.179348 0.272795 -0.477781 0.300000 0.000000 0.600000
-0.441641 -0.188933 0.107848 0.300000 0.600000 0.000000
-0.292571 -0.050025 -0.168510 0.300000 0.000000 0.600000
-0.468996 -0.188933 0.553701 0.300000 0.600000 0.000000
0.506706 0.015292 -0.229371 0.600000 0.000000 0.300000
-0.485409 -0.188933 0.313379 0.300000 0.600000 0.000000
-0.566354 0.023579 -0.242642 0.300000 0.000000 0.600000
0.388020 0.077984 -0.322492 0.300000 0.000000 0.600000
0.238054 0.265846 -0.510354 0.300000 0.000000 0.600000
-0.071768 -0.026614 -0.217894 0.300000 0.000000 0.600000
0.109751 0.144730 -0.357262 0.300000 0.000000 0.600000
0.123314 -0.188709 0.738252 0.300000 0.600000 0.000000
-0.083684 0.347325 -0.591833 0.300000 0.000000 0.600000
-0.228634 0.151997 -0.363493 0.300000 0.000000 0.600000
0.543767 0.443818 -0.648935 0.300000 0.000000 0.600000
0.099231 -0.188933 0.053654 0.300000 0.600000 0.000000
0.111945 -0.107491 -0.042864 0.500000 0.000000 0.500000
-0.638356 -0.000401 -0.178420 0.300000 0.000000 0.600000
0.167461 0.208805 -0.416954 0.300000 0.000000 0.600000
-0.603236 0.358422 -0.602930 0.300000 0.000000 0.600000
0.325620 0.117328 -0.325395 0.600000 0.000000 0.300000
0.497474 0.112643 -0.357151 0.300000 0.000000 0.600000
0.475607 -0.188933 0.117466 0.300000 0.600000 0.000000
0.290019 0.124536 -0.369044 0.300000 0.000000 0.600000
-0.522394 0.146356 -0.390864 0.300000 0.000000 0.600000
0.551800 -0.093196 -0.151312 0.300000 0.000000 0.600000
0.351741 -0.164549 0.804755 0.300000 0.600000 0.000000
0.001682 -0.022690 -0.221818 0.300000 0.000000 0.600000
0.659621 -0.136158 0.330073 0.300000 0.600000 0.000000
-0.264761 0.242690 -0.487198 0.300000 0.000000 0.600000
0.528372 -0.052645 -0.159357 0.600000 0.000000 0.300000
-0.498416 0.167914 -0.378472 0.300000 0.000000 0.600000
-0.484906 -0.085195 -0.128725 0.300000 0.000000 0.600000
-0.167312 0.142625 -0.349809 0.300000 0.000000 0.600000
0.578269 0.393393 -0.591273 0.300000 0.000000 0.600000
0.121020 -0.127584 0.321629 0.000000 0.500000 0.500000
0.274355 -0.035714 -0.175290 0.600000 0.000000 0.300000
0.173096 0.075490 -0.286629 0.300000 0.000000 0.600000
-0.064743 0.044807 -0.289315 0.300000 0.000000 0.600000
0.448003 -0.087367 -0.157141 0.300000 0.000000 0.600000
-0.463344 -0.099061 -0.115676 0.300000 0.000000 0.600000
-0.076561 0.186180 -0.395662 0.300000 0.000000 0.600000
-0.408127 0.270629 -0.515137 0.300000 0.000000 0.600000
-0.182019 -0.188341 -0.006396 0.300000 0.600000 0.000000
0.685567 0.238855 -0.435874 0.300000 0.000000 0.600000
-0.396979 0.304973 -0.495902 0.600000 0.000000 0.300000
-0.564521 -0.136309 -0.094154 0.300000 0.000000 0.600000
0.220385 -0.125169 -0.088192 0.300000 0.000000 0.600000
-0.399881 -0.123164 0.188760 0.000000 0.500000 0.500000
-0.056870 -0.157878 -0.085592 0.300000 0.000000 0.600000
0.108283 -0.188933 0.009145 0.300000 0.600000 0.000000
0.281247 -0.126125 0.277395 0.000000 0.500000 0.500000
0.485411 0.301803 -0.546311 0.300000 0.000000 0.600000
0.199080 -0.133484 0.538413 0.000000 0.500000 0.500000
0.146214 -0.160843 0.807057 0.300000 0.600000 0.000000
0.633410 -0.131215 -0.113293 0.300000 0.000000 0.600000
-0.364999 -0.124745 0.029446 0.300000 0.600000 0.000000
0.552575 -0.128188 0.332181 0.000000 0.500000 0.500000
0.414373 -0.017662 -0.192278 0.600000 0.000000 0.300000
-0.084491 -0.074658 -0.138641 0.600000 0.000000 0.300000
