0.217500 -0.055152 0.523159 0.000000 0.000000 1.000000
-0.790641 0.031192 0.217035 0.000000 1.000000 0.000000
0.563529 -0.008025 0.283933 0.000000 0.500000 0.500000
0.520098 -0.056399 0.298296 0.000000 1.000000 0.000000
-0.049257 0.103902 0.144457 0.300000 0.600000 0.000000
0.220677 0.079925 -0.146773 0.300000 0.600000 0.000000
-0.495167 0.103902 -0.258719 0.300000 0.600000 0.000000
0.050013 0.063941 0.161907 1.000000 0.000000 0.000000
0.271454 -0.095906 0.445200 0.500000 0.000000 0.500000
-0.689065 0.079925 -0.282586 0.300000 0.600000 0.000000
-0.041797 0.032838 -0.387422 0.500000 0.000000 0.500000
0.344901 -0.103898 0.456224 0.500000 0.000000 0.500000
-0.194945 0.103902 0.220983 0.300000 0.600000 0.000000
-0.790641 0.042340 -0.276417 0.000000 1.000000 0.000000
-0.814198 0.103902 0.017564 0.300000 0.000000 0.600000
-0.830603 0.093666 -0.174190 0.300000 0.000000 0.600000
0.066607 0.079925 0.116792 0.300000 0.600000 0.000000
0.584037 0.006187 0.163588 0.000000 0.500000 0.500000
-0.391635 0.103902 0.139241 0.300000 0.600000 0.000000
-0.250544 0.103902 0.206422 0.300000 0.600000 0.000000
0.506751 0.055301 -0.387422 0.500000 0.000000 0.500000
-0.733719 0.079925 0.046464 0.300000 0.600000 0.000000
-0.774863 0.079925 -0.062437 0.300000 0.600000 0.000000
-0.555405 0.079925 0.048898 0.300000 0.600000 0.000000
0.451086 0.103902 -0.299539 0.300000 0.600000 0.000000
0.461912 0.103902 0.323273 0.300000 0.600000 0.000000
-0.750680 -0.333038 -0.406739 0.300000 0.000000 0.600000
-0.207521 0.079925 0.107410 0.300000 0.600000 0.000000
0.113496 -0.088520 -0.411399 0.500000 0.000000 0.500000
-0.208920 0.079925 -0.294769 0.300000 0.600000 0.000000
0.204841 0.057240 -0.411399 0.500000 0.000000 0.500000
0.091784 -0.007681 -0.172172 0.500000 0.500000 0.000000
0.056544 -0.092169 0.403980 1.000000 0.000000 0.000000
-0.553089 0.103902 -0.080530 0.300000 0.600000 0.000000
-0.362263 0.103902 -0.303940 0.300000 0.600000 0.000000
0.173430 0.005175 0.523159 0.000000 0.000000 1.000000
-0.238127 0.098528 -0.427383 0.600000 0.300000 0.000000
0.584037 0.064029 -0.054076 0.000000 0.500000 0.500000
0.261371 0.103902 -0.138199 0.300000 0.600000 0.000000
0.316267 -0.045599 0.499182 0.000000 0.000000 1.000000
-0.153708 0.103902 -0.304125 0.300000 0.600000 0.000000
0.151875 0.079925 0.094097 0.300000 0.600000 0.000000
0.432314 0.103902 -0.196246 0.300000 0.600000 0.000000
0.113926 0.039222 -0.387422 0.500000 0.000000 0.500000
-0.790641 0.042652 0.184703 0.000000 1.000000 0.000000
-0.149777 0.103902 -0.450718 0.600000 0.300000 0.000000
0.560060 -0.093802 -0.292962 0.000000 0.500000 0.500000
-0.176871 0.103902 -0.267361 0.300000 0.600000 0.000000
-0.798633 -0.247239 0.305543 0.600000 0.300000 0.000000
0.509758 0.028050 -0.172172 0.500000 0.500000 0.000000
-0.631257 0.027272 0.323894 1.000000 0.000000 0.000000
-0.406059 0.079925 -0.242275 0.300000 0.600000 0.000000
-0.798633 -0.100958 0.304749 0.600000 0.300000 0.000000
-0.031158 0.103902 -0.106082 0.300000 0.600000 0.000000
0.518678 -0.107061 -0.387422 0.500000 0.000000 0.500000
-0.384724 0.001750 -0.411399 0.500000 0.000000 0.500000
0.435000 -0.095168 -0.387422 0.500000 0.000000 0.500000
0.455527 0.103902 -0.350744 0.300000 0.600000 0.000000
-0.564241 0.103902 0.119805 0.300000 0.600000 0.000000
0.016617 0.015987 0.093817 0.800000 0.200000 0.500000
-0.808686 0.101179 0.341939 0.600000 0.000000 0.300000
-0.042220 -0.074593 -0.387422 0.500000 0.000000 0.500000
0.379260 -0.095906 0.032904 0.500000 0.000000 0.500000
0.004594 0.057597 -0.027430 0.800000 0.200000 0.500000
-0.528269 0.079925 -0.282523 0.300000 0.600000 0.000000
-0.766810 0.103902 -0.227265 0.300000 0.600000 0.000000
-0.694340 -0.111890 -0.391961 0.500000 0.000000 0.500000
-0.031197 0.103902 0.044700 0.300000 0.600000 0.000000
-0.641676 0.103902 0.337666 0.300000 0.600000 0.000000
0.584767 0.103902 0.358258 0.600000 0.000000 0.300000
0.028571 0.076140 0.189333 0.800000 0.200000 0.500000
-0.049903 0.079925 -0.176602 0.300000 0.600000 0.000000
-0.047543 0.103902 0.270534 0.300000 0.600000 0.000000
-0.731519 0.079925 -0.246078 0.300000 0.600000 0.000000
-0.777172 0.103902 -0.279594 0.300000 0.600000 0.000000
-0.152633 0.079925 -0.001148 0.300000 0.600000 0.000000
0.531085 0.079925 0.005507 0.300000 0.600000 0.000000
0.580578 -0.111890 0.077946 0.000000 0.500000 0.500000
0.548743 0.103902 -0.029990 0.300000 0.600000 0.000000
0.560060 -0.088209 -0.238520 0.000000 0.500000 0.500000
0.105052 -0.111890 -0.156094 0.500000 0.500000 0.000000
0.185020 0.103902 0.236628 0.300000 0.600000 0.000000
0.544075 -0.049155 0.170336 0.000000 1.000000 0.000000
0.495598 0.103902 -0.015741 0.300000 0.600000 0.000000
0.056544 -0.080932 -0.041545 1.000000 0.000000 0.000000
0.571149 -0.282258 0.331887 0.300000 0.600000 0.000000
0.584037 -0.025735 -0.237666 0.000000 0.500000 0.500000
0.185689 -0.103898 0.336145 0.500000 0.000000 0.500000
-0.277934 0.079925 -0.213312 0.300000 0.600000 0.000000
0.251113 0.079925 0.255278 0.300000 0.600000 0.000000
0.241681 0.079925 -0.319840 0.300000 0.600000 0.000000
0.532087 0.046074 -0.216486 0.600000 0.000000 0.300000
0.520098 -0.092092 0.464708 0.000000 1.000000 0.000000
0.090966 0.103902 0.301385 0.300000 0.600000 0.000000
-0.409743 0.103902 0.056623 0.300000 0.600000 0.000000
0.056544 -0.001699 0.424976 1.000000 0.000000 0.000000
-0.683847 0.029712 0.323894 1.000000 0.000000 0.000000
0.322433 0.079925 -0.084845 0.300000 0.600000 0.000000
-0.341384 0.079925 0.042273 0.300000 0.600000 0.000000
0.082326 0.079925 -0.255242 0.300000 0.600000 0.000000
0.568865 -0.350735 0.331887 0.300000 0.600000 0.000000
-0.639690 0.103902 -0.164491 0.300000 0.600000 0.000000
-0.083331 0.079925 -0.201002 0.300000 0.600000 0.000000
0.483891 0.103902 -0.227821 0.300000 0.600000 0.000000
-0.792457 -0.544699 -0.419391 0.300000 0.000000 0.600000
-0.233544 0.103902 0.027512 0.300000 0.600000 0.000000
-0.661609 0.079925 0.154634 0.300000 0.600000 0.000000
0.390532 0.079925 -0.245943 0.300000 0.600000 0.000000
-0.599941 0.103902 0.323012 0.300000 0.600000 0.000000
0.197391 0.079925 0.265763 0.300000 0.600000 0.000000
-0.453796 0.103902 0.211202 0.300000 0.600000 0.000000
-0.766664 0.064366 0.055578 0.000000 1.000000 0.000000
0.004594 0.056575 -0.269224 0.800000 0.200000 0.500000
-0.305623 0.022426 0.323894 1.000000 0.000000 0.000000
-0.815684 0.079925 0.358375 0.600000 0.000000 0.300000
-0.089889 0.013291 -0.411399 0.500000 0.000000 0.500000
0.032567 -0.022940 0.035491 1.000000 0.000000 0.000000
-0.750680 -0.498460 0.304926 0.600000 0.300000 0.000000
-0.632480 0.103902 0.118401 0.300000 0.600000 0.000000
-0.756383 -0.442077 0.283933 0.600000 0.300000 0.000000
-0.749779 0.079925 -0.308224 0.300000 0.600000 0.000000
0.495069 0.103902 0.292550 0.300000 0.600000 0.000000
-0.607862 0.103902 -0.209673 0.300000 0.600000 0.000000
0.554026 0.103902 0.235539 0.300000 0.600000 0.000000
0.565815 -0.195021 0.331887 0.300000 0.600000 0.000000
-0.512916 0.103902 -0.366153 0.300000 0.600000 0.000000
0.032567 -0.053690 0.054832 1.000000 0.000000 0.000000
-0.798633 -0.259752 -0.399158 0.300000 0.000000 0.600000
0.000067 0.079925 -0.127152 0.300000 0.600000 0.000000
0.056544 -0.013551 0.462794 1.000000 0.000000 0.000000
0.025270 0.103902 0.204673 0.300000 0.600000 0.000000
-0.672871 0.103902 0.363693 0.600000 0.000000 0.300000
0.309346 -0.092436 -0.411399 0.500000 0.000000 0.500000
0.566520 -0.457762 -0.371437 0.600000 0.000000 0.300000
0.098993 -0.057680 -0.387422 0.500000 0.000000 0.500000
0.056544 -0.002558 -0.129311 1.000000 0.000000 0.000000
0.573397 0.103902 -0.072822 0.300000 0.600000 0.000000
0.245365 0.079925 -0.230151 0.300000 0.600000 0.000000
0.056544 -0.066125 0.135424 1.000000 0.000000 0.000000
-0.090204 0.103902 -0.017631 0.300000 0.600000 0.000000
-0.750680 -0.449005 -0.399038 0.300000 0.000000 0.600000
-0.197299 0.103902 0.265995 0.300000 0.600000 0.000000
-0.745447 0.103902 0.206835 0.300000 0.600000 0.000000
-0.765487 0.079925 -0.023701 0.300000 0.600000 0.000000
-0.806626 0.087314 -0.078528 0.300000 0.000000 0.600000
-0.378268 0.103902 0.065913 0.300000 0.600000 0.000000
0.520098 -0.004491 -0.152542 0.500000 0.500000 0.000000
-0.448351 0.103902 0.263795 0.300000 0.600000 0.000000
-0.149997 0.103902 0.134838 0.300000 0.600000 0.000000
0.560060 0.058854 -0.131752 0.000000 0.500000 0.500000
-0.520079 0.103902 -0.121987 0.300000 0.600000 0.000000
-0.716573 0.079925 -0.085216 0.300000 0.600000 0.000000
0.146392 0.079925 -0.071869 0.300000 0.600000 0.000000
-0.237632 0.079925 0.193415 0.300000 0.600000 0.000000
-0.750680 -0.105090 -0.400679 0.300000 0.000000 0.600000
0.531760 0.079925 -0.398609 0.300000 0.600000 0.000000
0.346281 -0.021557 -0.387422 0.500000 0.000000 0.500000
0.623998 0.084988 0.002138 0.300000 0.000000 0.600000
0.167863 -0.014126 0.499182 0.000000 0.000000 1.000000
-0.662897 0.079925 0.086060 0.300000 0.600000 0.000000
-0.341019 -0.104956 -0.387422 0.500000 0.000000 0.500000
0.532087 0.021363 -0.336448 0.600000 0.000000 0.300000
-0.766664 0.040611 0.247665 0.000000 1.000000 0.000000
-0.395762 0.103902 -0.383075 0.300000 0.600000 0.000000
-0.398141 0.079925 -0.397351 0.300000 0.600000 0.000000
-0.783584 -0.065264 -0.371437 0.300000 0.000000 0.600000
-0.757656 -0.018169 0.283933 0.600000 0.300000 0.000000
0.124346 -0.085700 -0.148195 0.500000 0.500000 0.000000
0.135868 0.103902 0.363133 0.600000 0.000000 0.300000
0.247027 -0.095906 0.241383 0.500000 0.000000 0.500000
-0.225736 0.079925 -0.061892 0.300000 0.600000 0.000000
0.532087 -0.099708 -0.088401 0.500000 0.000000 0.500000
0.520098 -0.042131 0.041253 0.000000 1.000000 0.000000
0.048552 0.033474 -0.105266 1.000000 0.000000 0.000000
-0.317601 0.103902 0.089562 0.300000 0.600000 0.000000
0.520098 0.052721 -0.059188 0.000000 1.000000 0.000000
0.192352 -0.095906 -0.127281 0.500000 0.000000 0.500000
-0.056299 0.079925 0.095459 0.300000 0.600000 0.000000
-0.432586 0.079925 0.158428 0.300000 0.600000 0.000000
0.167334 0.079925 -0.242979 0.300000 0.600000 0.000000
-0.152024 0.053184 0.323894 1.000000 0.000000 0.000000
-0.012081 0.103902 0.026058 0.300000 0.600000 0.000000
0.049194 -0.111890 0.240251 1.000000 0.000000 0.000000
0.496956 -0.088143 -0.387422 0.500000 0.000000 0.500000
-0.366263 0.079925 -0.065157 0.300000 0.600000 0.000000
0.217512 0.079925 -0.272607 0.300000 0.600000 0.000000
0.004594 0.058215 0.135365 0.800000 0.200000 0.500000
-0.790015 0.103902 0.113247 0.300000 0.600000 0.000000
0.223999 0.079925 -0.407874 0.300000 0.600000 0.000000
0.424924 -0.011727 -0.148195 0.500000 0.500000 0.000000
0.072621 -0.101176 0.523159 0.000000 0.000000 1.000000
0.520098 0.004627 0.047155 0.000000 1.000000 0.000000
0.311905 0.079925 0.095589 0.300000 0.600000 0.000000
0.584037 -0.068934 0.225557 0.000000 0.500000 0.500000
0.584037 -0.089821 0.242626 0.000000 0.500000 0.500000
0.339682 0.079925 0.159743 0.300000 0.600000 0.000000
0.056544 -0.082765 0.444331 1.000000 0.000000 0.000000
0.286847 0.079925 -0.081908 0.300000 0.600000 0.000000
0.028571 0.038932 0.136514 0.800000 0.200000 0.500000
-0.706033 -0.015994 -0.387422 0.500000 0.000000 0.500000
0.520098 0.051763 0.395349 0.000000 1.000000 0.000000
-0.790641 0.068996 0.123704 0.000000 1.000000 0.000000
0.056544 -0.085056 0.048980 1.000000 0.000000 0.000000
0.282913 0.103902 -0.121924 0.300000 0.600000 0.000000
0.558062 0.079925 0.325326 0.300000 0.600000 0.000000
0.053108 0.079925 -0.014923 0.300000 0.600000 0.000000
-0.009240 0.079925 -0.175535 0.300000 0.600000 0.000000
-0.353190 0.079925 -0.347608 0.300000 0.600000 0.000000
-0.750680 -0.462952 0.306498 0.600000 0.300000 0.000000
-0.578161 0.020424 0.323894 1.000000 0.000000 0.000000
0.044842 0.103902 0.003771 0.300000 0.600000 0.000000
0.423077 0.079925 0.010812 0.300000 0.600000 0.000000
0.089755 -0.103898 -0.105165 0.500000 0.000000 0.500000
-0.244398 -0.040732 -0.411399 0.500000 0.000000 0.500000
-0.766664 0.074387 -0.252924 0.000000 1.000000 0.000000
-0.682447 0.082252 -0.427383 0.600000 0.300000 0.000000
0.345267 -0.088600 -0.411399 0.500000 0.000000 0.500000
0.336997 0.079925 -0.006367 0.300000 0.600000 0.000000
-0.177726 0.103902 -0.414236 0.300000 0.600000 0.000000
-0.469369 0.079925 -0.351543 0.300000 0.600000 0.000000
-0.790641 0.071496 -0.323383 0.000000 1.000000 0.000000
0.038275 0.103902 0.163762 0.300000 0.600000 0.000000
0.560060 -0.009330 0.109903 0.000000 0.500000 0.500000
0.330884 -0.043192 -0.148195 0.500000 0.500000 0.000000
0.571149 0.103902 0.061342 0.300000 0.600000 0.000000
0.258287 0.103902 0.044373 0.300000 0.600000 0.000000
0.584037 0.070025 -0.174190 0.000000 0.500000 0.500000
-0.798332 -0.179506 -0.419391 0.300000 0.000000 0.600000
-0.668127 0.079925 0.244797 0.300000 0.600000 0.000000
0.544075 -0.004305 0.452758 0.000000 1.000000 0.000000
0.562498 0.079925 0.185110 0.000000 0.500000 0.500000
0.052074 0.079925 -0.070802 0.300000 0.600000 0.000000
-0.026166 0.079925 -0.364671 0.300000 0.600000 0.000000
-0.766664 0.077948 -0.087625 0.000000 1.000000 0.000000
0.560060 -0.023015 -0.288279 0.000000 0.500000 0.500000
-0.171498 0.079925 -0.067784 0.300000 0.600000 0.000000
0.287693 -0.069134 0.523159 0.000000 0.000000 1.000000
0.056544 -0.025143 0.051682 1.000000 0.000000 0.000000
0.323569 -0.095906 0.273608 0.500000 0.000000 0.500000
-0.269667 0.103902 -0.392190 0.300000 0.600000 0.000000
0.568977 0.103902 0.316997 0.300000 0.600000 0.000000
0.544075 -0.026369 0.222843 0.000000 1.000000 0.000000
0.457904 0.057688 0.523159 0.000000 0.000000 1.000000
-0.266348 0.079925 0.237215 0.300000 0.600000 0.000000
0.136743 0.103902 0.292984 0.300000 0.600000 0.000000
-0.060444 -0.111890 -0.391666 0.500000 0.000000 0.500000
0.165035 0.060899 0.499182 0.000000 0.000000 1.000000
-0.581494 0.103902 0.354421 0.600000 0.000000 0.300000
-0.441475 0.079925 0.077121 0.300000 0.600000 0.000000
0.093602 0.010533 -0.387422 0.500000 0.000000 0.500000
0.419622 0.079925 -0.335888 0.300000 0.600000 0.000000
-0.579613 0.103902 -0.103773 0.300000 0.600000 0.000000
-0.680771 0.079925 -0.122161 0.300000 0.600000 0.000000
0.164694 0.076187 0.523159 0.000000 0.000000 1.000000
0.272657 -0.058721 -0.411399 0.500000 0.000000 0.500000
0.070738 0.031191 -0.411399 0.500000 0.000000 0.500000
0.032567 -0.009141 0.477421 1.000000 0.000000 0.000000
0.396274 0.079925 -0.050902 0.300000 0.600000 0.000000
0.555375 -0.559460 -0.378824 0.600000 0.000000 0.300000
0.584037 -0.080608 0.180777 0.000000 0.500000 0.500000
-0.046511 0.079925 -0.146291 0.300000 0.600000 0.000000
0.019198 0.015987 -0.013528 0.800000 0.200000 0.500000
0.544075 -0.026135 0.318746 0.300000 0.600000 0.000000
0.028571 0.029630 0.221837 0.800000 0.200000 0.500000
-0.790641 0.047536 0.147764 0.000000 1.000000 0.000000
0.035844 0.103902 -0.053442 0.300000 0.600000 0.000000
0.584037 -0.030373 -0.156170 0.000000 0.500000 0.500000
-0.001342 0.089555 -0.451360 0.600000 0.300000 0.000000
-0.058023 -0.056564 -0.411399 0.500000 0.000000 0.500000
-0.427267 0.079925 -0.072748 0.300000 0.600000 0.000000
-0.757498 -0.291522 -0.371437 0.300000 0.000000 0.600000
0.056544 -0.085599 0.336290 1.000000 0.000000 0.000000
-0.772858 -0.411226 -0.371437 0.300000 0.000000 0.600000
-0.259426 0.079925 0.176188 0.300000 0.600000 0.000000
0.622394 0.103902 0.108239 0.300000 0.000000 0.600000
0.151953 -0.062371 -0.387422 0.500000 0.000000 0.500000
-0.402660 0.091176 0.363856 0.600000 0.000000 0.300000
0.294410 0.103902 -0.383532 0.300000 0.600000 0.000000
-0.654414 0.103902 -0.366535 0.300000 0.600000 0.000000
0.137889 -0.080732 0.499182 0.000000 0.000000 1.000000
0.215889 0.103902 0.127748 0.300000 0.600000 0.000000
-0.277173 0.103902 0.143120 0.300000 0.600000 0.000000
-0.148644 0.014994 -0.387422 0.500000 0.000000 0.500000
-0.770383 -0.354557 0.283933 0.600000 0.300000 0.000000
-0.451113 -0.092796 -0.387422 0.500000 0.000000 0.500000
0.478655 0.081434 -0.451360 0.600000 0.300000 0.000000
0.125690 0.079925 -0.333370 0.300000 0.600000 0.000000
0.478263 0.017092 -0.172172 0.500000 0.500000 0.000000
-0.014565 0.079925 0.161411 0.300000 0.600000 0.000000
-0.218035 0.019485 -0.387422 0.500000 0.000000 0.500000
0.394570 0.103902 0.207489 0.300000 0.600000 0.000000
0.596383 0.079925 -0.350116 0.300000 0.600000 0.000000
0.529935 0.103902 -0.101169 0.300000 0.600000 0.000000
0.544075 -0.173204 -0.390619 0.600000 0.000000 0.300000
0.116742 0.079925 -0.027681 0.300000 0.600000 0.000000
0.519180 -0.086035 -0.411399 0.500000 0.000000 0.500000
-0.790641 0.022574 -0.198044 0.000000 1.000000 0.000000
0.592029 -0.130105 -0.382776 0.600000 0.000000 0.300000
-0.008702 0.079925 -0.270171 0.300000 0.600000 0.000000
-0.418735 -0.107598 -0.387422 0.500000 0.000000 0.500000
0.584037 -0.019045 -0.303671 0.000000 0.500000 0.500000
-0.396627 0.031883 -0.411399 0.500000 0.000000 0.500000
-0.392216 0.103902 -0.197608 0.300000 0.600000 0.000000
-0.195605 0.103902 -0.015367 0.300000 0.600000 0.000000
-0.222417 0.060503 0.299917 1.000000 0.000000 0.000000
-0.711040 0.079925 -0.017892 0.300000 0.600000 0.000000
-0.341127 0.015987 0.322106 1.000000 0.000000 0.000000
0.560060 -0.058697 -0.339275 0.000000 0.500000 0.500000
-0.790641 0.024321 -0.028900 0.000000 1.000000 0.000000
0.068447 -0.103898 -0.089002 0.500000 0.000000 0.500000
0.032567 -0.008551 0.258349 1.000000 0.000000 0.000000
0.001735 0.103902 0.095527 0.300000 0.600000 0.000000
0.330151 0.073939 -0.387422 0.500000 0.000000 0.500000
-0.210696 0.103902 -0.217685 0.300000 0.600000 0.000000
0.298546 0.079953 -0.427383 0.600000 0.300000 0.000000
0.141657 0.079925 0.186353 0.300000 0.600000 0.000000
0.276783 0.016985 -0.148195 0.500000 0.500000 0.000000
0.584037 -0.018799 -0.181058 0.000000 0.500000 0.500000
0.560060 0.057371 0.199073 0.000000 0.500000 0.500000
0.520098 0.038084 -0.001592 0.000000 1.000000 0.000000
-0.587638 0.079925 -0.250978 0.300000 0.600000 0.000000
-0.093909 0.079925 0.340438 0.600000 0.000000 0.300000
0.592029 0.015265 0.284281 0.300000 0.600000 0.000000
0.439692 0.019628 -0.148195 0.500000 0.500000 0.000000
-0.241662 0.103902 -0.321949 0.300000 0.600000 0.000000
0.032567 -0.041657 0.227494 1.000000 0.000000 0.000000
0.614501 0.103902 -0.385408 0.300000 0.000000 0.600000
-0.060069 0.103902 -0.340062 0.300000 0.600000 0.000000
-0.623949 0.103902 -0.244145 0.300000 0.600000 0.000000
0.560060 0.033798 -0.012797 0.600000 0.000000 0.300000
-0.546353 0.103902 0.068048 0.300000 0.600000 0.000000
0.350237 0.103902 -0.306644 0.300000 0.600000 0.000000
0.056544 0.006093 0.061443 1.000000 0.000000 0.000000
0.386208 -0.103898 0.167019 0.500000 0.000000 0.500000
0.154727 -0.081668 -0.148195 0.500000 0.500000 0.000000
0.086438 -0.103898 0.199153 0.500000 0.000000 0.500000
0.574411 0.103902 -0.154343 0.300000 0.600000 0.000000
-0.750680 -0.529959 0.320640 0.600000 0.300000 0.000000
-0.597566 0.032595 -0.387422 0.500000 0.000000 0.500000
-0.028818 0.079925 0.263232 0.300000 0.600000 0.000000
0.040897 0.015987 0.030761 0.800000 0.200000 0.500000
-0.641709 0.103902 -0.426257 0.300000 0.600000 0.000000
0.536405 0.047956 -0.292746 0.600000 0.000000 0.300000
0.447777 -0.064561 -0.172172 0.500000 0.500000 0.000000
0.525890 0.079925 0.167782 0.300000 0.600000 0.000000
-0.073770 0.079925 -0.359164 0.300000 0.600000 0.000000
0.566558 -0.517317 0.331887 0.300000 0.600000 0.000000
0.031456 0.103902 0.347841 0.600000 0.000000 0.300000
-0.590502 0.103902 0.037566 0.300000 0.600000 0.000000
-0.177314 0.079925 0.301314 0.300000 0.600000 0.000000
0.084068 -0.100816 -0.411399 0.500000 0.000000 0.500000
-0.725107 0.103902 -0.125132 0.300000 0.600000 0.000000
-0.304070 0.055856 -0.387422 0.500000 0.000000 0.500000
0.560060 0.020345 0.241513 0.000000 0.500000 0.500000
-0.489472 0.079925 0.105705 0.300000 0.600000 0.000000
0.056544 0.031616 0.174756 1.000000 0.000000 0.000000
-0.218757 0.053485 -0.411399 0.500000 0.000000 0.500000
0.064150 0.079925 -0.152120 0.300000 0.600000 0.000000
-0.361719 0.103902 -0.422872 0.300000 0.600000 0.000000
0.199433 -0.105821 -0.411399 0.500000 0.000000 0.500000
0.544075 -0.094054 0.241710 0.000000 1.000000 0.000000
-0.761562 -0.223629 -0.419391 0.300000 0.000000 0.600000
-0.097128 0.015987 0.317620 1.000000 0.000000 0.000000
-0.330459 0.103902 -0.297265 0.300000 0.600000 0.000000
-0.790641 0.041418 -0.161794 0.000000 1.000000 0.000000
-0.582456 -0.021873 -0.387422 0.500000 0.000000 0.500000
0.056544 -0.024684 0.180097 1.000000 0.000000 0.000000
-0.694443 0.079925 0.216261 0.300000 0.600000 0.000000
-0.790641 0.049517 -0.303231 0.000000 1.000000 0.000000
0.240395 0.079925 0.351435 0.600000 0.000000 0.300000
-0.189023 0.039802 -0.411399 0.500000 0.000000 0.500000
-0.126351 0.103902 -0.389325 0.300000 0.600000 0.000000
0.520098 0.053431 0.305534 0.000000 1.000000 0.000000
0.560060 0.020006 -0.326787 0.600000 0.000000 0.300000
0.339078 0.063269 -0.172172 0.500000 0.500000 0.000000
0.199888 -0.081365 -0.172172 0.500000 0.500000 0.000000
0.087283 0.038073 -0.172172 0.500000 0.500000 0.000000
0.410757 0.028758 0.499182 0.000000 0.000000 1.000000
0.056544 -0.000975 0.312854 1.000000 0.000000 0.000000
0.458549 -0.095906 0.263355 0.500000 0.000000 0.500000
0.482324 0.079925 -0.024573 0.300000 0.600000 0.000000
-0.700245 0.103902 0.230810 0.300000 0.600000 0.000000
0.592029 -0.425510 -0.397240 0.600000 0.000000 0.300000
0.600021 0.094820 -0.014210 0.300000 0.000000 0.600000
0.457298 -0.095906 0.420139 0.500000 0.000000 0.500000
0.050639 -0.111890 0.460466 1.000000 0.000000 0.000000
0.584037 0.050800 -0.031124 0.000000 0.500000 0.500000
0.056544 -0.109138 0.284164 1.000000 0.000000 0.000000
-0.007095 0.079925 0.090191 0.300000 0.600000 0.000000
0.040392 0.103902 0.037584 0.300000 0.600000 0.000000
-0.175927 0.103902 -0.141047 0.300000 0.600000 0.000000
0.396179 -0.095906 0.259595 0.500000 0.000000 0.500000
-0.798633 -0.502665 0.294124 0.600000 0.300000 0.000000
0.584037 0.036234 0.074530 0.000000 0.500000 0.500000
-0.686981 0.103902 0.128105 0.300000 0.600000 0.000000
-0.214453 0.103902 -0.387297 0.300000 0.600000 0.000000
0.140235 -0.095906 0.080009 0.500000 0.000000 0.500000
0.592029 -0.351916 0.289810 0.300000 0.600000 0.000000
-0.830200 0.079925 0.054895 0.300000 0.000000 0.600000
-0.444388 0.079925 0.289132 0.300000 0.600000 0.000000
0.536056 -0.010749 -0.172172 0.000000 1.000000 0.000000
-0.727168 0.103902 0.345845 0.600000 0.000000 0.300000
-0.087306 0.033841 -0.387422 0.500000 0.000000 0.500000
0.584037 0.057345 0.017387 0.000000 0.500000 0.500000
0.047262 0.047956 -0.038416 1.000000 0.000000 0.000000
-0.712637 0.103902 0.186455 0.300000 0.600000 0.000000
0.184579 0.079925 -0.011393 0.300000 0.600000 0.000000
-0.003154 0.079925 -0.398838 0.300000 0.600000 0.000000
-0.664071 0.103902 0.000109 0.300000 0.600000 0.000000
-0.479629 -0.093108 -0.411399 0.500000 0.000000 0.500000
0.497302 0.079925 0.153381 0.300000 0.600000 0.000000
-0.240734 0.020261 -0.411399 0.500000 0.000000 0.500000
0.548111 0.103902 0.086348 0.300000 0.600000 0.000000
0.520098 -0.111015 0.202303 0.000000 1.000000 0.000000
-0.693233 0.079925 -0.339032 0.300000 0.600000 0.000000
0.566004 -0.215754 -0.419391 0.600000 0.000000 0.300000
-0.037293 0.056544 0.323894 1.000000 0.000000 0.000000
0.428831 0.079925 -0.281421 0.300000 0.600000 0.000000
0.031644 0.079925 -0.326799 0.300000 0.600000 0.000000
0.588418 0.103902 0.164618 0.300000 0.600000 0.000000
0.481468 0.079925 -0.190918 0.300000 0.600000 0.000000
-0.830603 0.086942 -0.093167 0.300000 0.000000 0.600000
0.022101 0.079925 0.043640 0.300000 0.600000 0.000000
-0.048370 0.079925 0.013889 0.300000 0.600000 0.000000
0.544075 0.026741 0.330158 0.300000 0.600000 0.000000
0.531426 0.079925 -0.287373 0.300000 0.600000 0.000000
0.532583 0.103902 -0.450919 0.600000 0.300000 0.000000
-0.703330 -0.042157 -0.387422 0.500000 0.000000 0.500000
0.004594 0.045220 0.268821 0.800000 0.200000 0.500000
-0.713876 0.079925 0.281861 0.300000 0.600000 0.000000
-0.444478 0.103902 0.358779 0.600000 0.000000 0.300000
-0.790641 0.049602 -0.353953 0.000000 1.000000 0.000000
0.353184 0.079925 -0.132041 0.300000 0.600000 0.000000
0.580129 -0.299180 0.283933 0.300000 0.600000 0.000000
-0.776395 -0.387854 0.283933 0.600000 0.300000 0.000000
0.486060 0.079925 -0.115599 0.300000 0.600000 0.000000
0.369343 0.079925 -0.262223 0.300000 0.600000 0.000000
0.180626 -0.095906 0.290443 0.500000 0.000000 0.500000
-0.643770 0.081451 -0.451360 0.600000 0.300000 0.000000
0.227352 -0.095906 -0.105459 0.500000 0.000000 0.500000
0.056544 -0.029679 0.021341 1.000000 0.000000 0.000000
-0.137866 0.101297 -0.427383 0.600000 0.300000 0.000000
-0.176467 0.079925 0.168845 0.300000 0.600000 0.000000
0.584037 0.025342 0.101094 0.000000 0.500000 0.500000
0.164690 0.103902 0.061016 0.300000 0.600000 0.000000
0.353936 0.103902 -0.033366 0.300000 0.600000 0.000000
0.505508 0.103902 -0.090088 0.300000 0.600000 0.000000
0.568204 -0.479917 0.283933 0.300000 0.600000 0.000000
0.108654 0.061848 -0.148195 0.500000 0.500000 0.000000
0.563915 0.079925 -0.050153 0.300000 0.600000 0.000000
0.504490 0.079925 0.281756 0.300000 0.600000 0.000000
0.410268 0.103902 -0.093743 0.300000 0.600000 0.000000
-0.067774 0.079925 -0.297904 0.300000 0.600000 0.000000
0.425609 -0.095906 0.123220 0.500000 0.000000 0.500000
-0.270442 0.079925 0.024641 0.300000 0.600000 0.000000
-0.698970 0.079925 -0.050231 0.300000 0.600000 0.000000
-0.750680 0.037486 0.330727 0.600000 0.300000 0.000000
-0.076231 0.101673 0.339879 0.600000 0.000000 0.300000
0.172284 -0.000454 -0.172172 0.500000 0.500000 0.000000
0.076207 0.103902 -0.140196 0.300000 0.600000 0.000000
0.174072 0.103902 0.168791 0.300000 0.600000 0.000000
0.560060 0.040805 0.022755 0.600000 0.000000 0.300000
0.235465 -0.055788 0.499182 0.000000 0.000000 1.000000
-0.699203 0.103902 -0.146974 0.300000 0.600000 0.000000
-0.384446 0.103902 -0.134648 0.300000 0.600000 0.000000
-0.099595 -0.102596 -0.387422 0.500000 0.000000 0.500000
0.046097 -0.111890 -0.010176 1.000000 0.000000 0.000000
0.577878 -0.068758 0.331887 0.300000 0.600000 0.000000
-0.349345 0.079925 0.068763 0.300000 0.600000 0.000000
-0.793383 -0.558317 0.283933 0.600000 0.300000 0.000000
0.562218 0.079925 0.260421 0.300000 0.600000 0.000000
-0.276252 0.079925 -0.419376 0.300000 0.600000 0.000000
-0.143717 0.040329 0.299917 1.000000 0.000000 0.000000
0.204802 -0.028456 -0.172172 0.500000 0.500000 0.000000
-0.750680 0.064627 -0.389450 0.500000 0.000000 0.500000
0.391399 -0.095906 0.440204 0.500000 0.000000 0.500000
0.032567 -0.018478 0.434226 1.000000 0.000000 0.000000
-0.779460 -0.042971 0.283933 0.600000 0.300000 0.000000
-0.227137 0.103902 -0.267063 0.300000 0.600000 0.000000
0.032567 -0.084468 -0.082228 1.000000 0.000000 0.000000
-0.123234 0.079925 -0.196541 0.300000 0.600000 0.000000
-0.233428 -0.111890 -0.388771 0.500000 0.000000 0.500000
0.584037 -0.084850 0.022108 0.000000 0.500000 0.500000
0.153295 -0.013729 -0.387422 0.500000 0.000000 0.500000
0.407152 -0.012357 -0.387422 0.500000 0.000000 0.500000
-0.580762 0.079925 -0.319506 0.300000 0.600000 0.000000
0.111719 -0.103898 0.383471 0.500000 0.000000 0.500000
0.180814 -0.044022 0.499182 0.000000 0.000000 1.000000
0.158819 0.103902 -0.055386 0.300000 0.600000 0.000000
0.172337 0.079925 0.041384 0.300000 0.600000 0.000000
0.501332 -0.095906 0.500067 0.500000 0.000000 0.500000
0.328092 -0.103898 0.320396 0.500000 0.000000 0.500000
-0.537347 0.079925 -0.206876 0.300000 0.600000 0.000000
0.379177 0.079925 0.102127 0.300000 0.600000 0.000000
-0.545909 0.063643 0.323894 1.000000 0.000000 0.000000
0.338260 0.079925 -0.061323 0.300000 0.600000 0.000000
0.032567 0.015050 -0.095565 1.000000 0.000000 0.000000
0.580987 -0.490775 -0.371437 0.600000 0.000000 0.300000
0.144976 -0.103898 0.299707 0.500000 0.000000 0.500000
0.056544 -0.030717 0.262420 1.000000 0.000000 0.000000
-0.735768 0.103902 -0.194338 0.300000 0.600000 0.000000
-0.176331 0.103902 -0.322404 0.300000 0.600000 0.000000
0.032567 0.002947 -0.040587 1.000000 0.000000 0.000000
0.560060 -0.001455 -0.180228 0.000000 0.500000 0.500000
0.560427 -0.111890 -0.354398 0.000000 0.500000 0.500000
-0.204240 0.079925 -0.153167 0.300000 0.600000 0.000000
-0.303610 0.103902 -0.041038 0.300000 0.600000 0.000000
0.032567 -0.010080 0.006869 1.000000 0.000000 0.000000
0.093968 0.079925 0.112699 0.300000 0.600000 0.000000
-0.528646 0.079925 -0.387952 0.300000 0.600000 0.000000
0.431482 0.079925 -0.221325 0.300000 0.600000 0.000000
0.258673 0.103902 0.209609 0.300000 0.600000 0.000000
-0.122557 0.079925 0.197462 0.300000 0.600000 0.000000
0.223820 0.103902 0.324898 0.300000 0.600000 0.000000
-0.444789 0.079925 0.227714 0.300000 0.600000 0.000000
0.584037 -0.063896 0.252475 0.000000 0.500000 0.500000
-0.493141 0.103902 -0.018351 0.300000 0.600000 0.000000
-0.678008 -0.018970 -0.411399 0.500000 0.000000 0.500000
-0.506109 0.079925 -0.345199 0.300000 0.600000 0.000000
0.282439 0.076772 0.499182 0.000000 0.000000 1.000000
0.122049 0.079925 0.036870 0.300000 0.600000 0.000000
0.284791 0.103902 0.007653 0.300000 0.600000 0.000000
0.560060 -0.022908 0.016662 0.000000 0.500000 0.500000
-0.790641 0.038076 -0.105405 0.000000 1.000000 0.000000
-0.535038 0.103902 0.181077 0.300000 0.600000 0.000000
-0.077117 0.103902 0.252547 0.300000 0.600000 0.000000
-0.299269 0.103902 -0.144112 0.300000 0.600000 0.000000
-0.767807 0.079925 -0.143049 0.000000 1.000000 0.000000
-0.016714 -0.078044 -0.387422 0.500000 0.000000 0.500000
0.004594 0.061063 0.160943 0.800000 0.200000 0.500000
0.423222 0.057459 -0.411399 0.500000 0.000000 0.500000
-0.128984 -0.092753 -0.411399 0.500000 0.000000 0.500000
-0.501809 -0.042455 -0.411399 0.500000 0.000000 0.500000
0.154139 0.103902 -0.150881 0.300000 0.600000 0.000000
0.229314 -0.002863 -0.148195 0.500000 0.500000 0.000000
-0.474508 0.103902 -0.130388 0.300000 0.600000 0.000000
-0.784720 0.048016 -0.419391 0.300000 0.000000 0.600000
0.498794 0.103902 0.066105 0.300000 0.600000 0.000000
0.278825 0.103902 0.182126 0.300000 0.600000 0.000000
0.520098 -0.033409 0.453847 0.000000 1.000000 0.000000
0.584037 0.015788 -0.265897 0.000000 0.500000 0.500000
-0.066481 0.079925 0.158445 0.300000 0.600000 0.000000
0.056544 0.049766 0.071671 1.000000 0.000000 0.000000
0.245688 0.079925 0.111410 0.300000 0.600000 0.000000
-0.085725 0.103902 -0.344355 0.300000 0.600000 0.000000
-0.767710 0.079925 -0.201668 0.000000 1.000000 0.000000
0.095009 0.079925 -0.360411 0.300000 0.600000 0.000000
0.434780 -0.042637 0.499182 0.000000 0.000000 1.000000
-0.453840 0.079925 0.031550 0.300000 0.600000 0.000000
-0.098380 0.103902 0.171454 0.300000 0.600000 0.000000
0.520098 0.005094 0.431172 0.000000 1.000000 0.000000
0.322395 0.103902 -0.119821 0.300000 0.600000 0.000000
-0.363453 0.103902 0.341872 0.600000 0.000000 0.300000
0.576898 0.021647 0.331887 0.300000 0.600000 0.000000
-0.691414 0.079925 0.308521 0.300000 0.600000 0.000000
0.544075 -0.092889 0.289794 0.000000 1.000000 0.000000
0.343355 -0.103898 0.176754 0.500000 0.000000 0.500000
0.542127 -0.010728 0.499182 0.000000 1.000000 0.000000
0.121999 0.079925 0.307646 0.300000 0.600000 0.000000
0.158223 0.056283 -0.148195 0.500000 0.500000 0.000000
0.402840 0.078958 0.499182 0.000000 0.000000 1.000000
0.017046 0.079925 0.312506 1.000000 0.000000 0.000000
-0.351915 0.103902 0.312618 0.300000 0.600000 0.000000
0.335807 -0.103898 0.096463 0.500000 0.000000 0.500000
0.522745 -0.077107 -0.172172 0.000000 1.000000 0.000000
0.032567 -0.097836 0.056494 1.000000 0.000000 0.000000
-0.303224 -0.060764 -0.411399 0.500000 0.000000 0.500000
0.009854 0.023855 -0.411399 0.500000 0.000000 0.500000
-0.585281 0.079925 0.322312 1.000000 0.000000 0.000000
-0.693109 0.103902 -0.084009 0.300000 0.600000 0.000000
0.520098 -0.110254 0.076539 0.000000 1.000000 0.000000
-0.398046 0.079925 0.111001 0.300000 0.600000 0.000000
0.584037 0.005548 0.002059 0.000000 0.500000 0.500000
-0.354904 0.079925 -0.273465 0.300000 0.600000 0.000000
-0.564657 0.079925 0.077406 0.300000 0.600000 0.000000
0.274954 0.103902 0.067987 0.300000 0.600000 0.000000
0.467955 0.079925 0.098247 0.300000 0.600000 0.000000
-0.750680 -0.393413 -0.410721 0.300000 0.000000 0.600000
0.584037 -0.091086 -0.150821 0.000000 0.500000 0.500000
0.584037 -0.092571 -0.182463 0.000000 0.500000 0.500000
0.514173 0.013875 -0.411399 0.500000 0.000000 0.500000
-0.770150 -0.374898 -0.371437 0.300000 0.000000 0.600000
-0.222983 0.103902 -0.359520 0.300000 0.600000 0.000000
0.492497 -0.032895 -0.172172 0.500000 0.500000 0.000000
0.364663 -0.008968 -0.148195 0.500000 0.500000 0.000000
-0.387992 0.079925 0.246064 0.300000 0.600000 0.000000
0.501849 -0.103898 0.320336 0.500000 0.000000 0.500000
0.069790 0.079925 -0.405472 0.300000 0.600000 0.000000
-0.072989 0.079925 0.066955 0.300000 0.600000 0.000000
0.585047 0.103902 -0.122651 0.300000 0.600000 0.000000
0.056544 -0.006494 -0.060603 1.000000 0.000000 0.000000
-0.672731 0.079925 -0.365188 0.300000 0.600000 0.000000
0.560060 0.036324 -0.347399 0.000000 0.500000 0.500000
0.592029 0.067492 0.327009 0.300000 0.600000 0.000000
-0.667558 0.079925 -0.066851 0.300000 0.600000 0.000000
-0.101391 0.079925 -0.368301 0.300000 0.600000 0.000000
0.056544 -0.058266 -0.029449 1.000000 0.000000 0.000000
-0.148317 0.079925 -0.124186 0.300000 0.600000 0.000000
0.515244 -0.047815 -0.148195 0.500000 0.500000 0.000000
-0.256722 0.103902 0.324591 0.300000 0.600000 0.000000
0.496942 -0.056554 0.499182 0.000000 0.000000 1.000000
0.343026 -0.095906 0.352464 0.500000 0.000000 0.500000
-0.671592 0.103902 0.272042 0.300000 0.600000 0.000000
-0.419377 0.103902 -0.155655 0.300000 0.600000 0.000000
-0.697355 0.103902 -0.314125 0.300000 0.600000 0.000000
-0.357548 0.079925 0.201592 0.300000 0.600000 0.000000
0.241929 0.079925 0.023472 0.300000 0.600000 0.000000
0.370841 0.079925 -0.298322 0.300000 0.600000 0.000000
0.189137 -0.103898 0.440718 0.500000 0.000000 0.500000
0.368504 0.089027 -0.427383 0.300000 0.600000 0.000000
0.580422 -0.111890 -0.019470 0.000000 0.500000 0.500000
-0.498264 0.040950 0.323894 1.000000 0.000000 0.000000
-0.551143 0.023192 -0.411399 0.500000 0.000000 0.500000
0.516767 -0.095906 -0.002261 0.500000 0.000000 0.500000
0.330883 0.103902 0.362526 0.600000 0.000000 0.300000
0.467760 0.079925 0.282352 0.300000 0.600000 0.000000
-0.139636 0.079925 -0.406801 0.300000 0.600000 0.000000
0.286625 -0.103898 0.092027 0.500000 0.000000 0.500000
0.520098 -0.057275 0.420209 0.000000 1.000000 0.000000
-0.603751 0.042995 0.299917 1.000000 0.000000 0.000000
-0.618039 0.103902 -0.409566 0.300000 0.600000 0.000000
-0.429418 0.103902 0.299613 0.300000 0.600000 0.000000
0.032567 -0.100474 0.143263 1.000000 0.000000 0.000000
0.621436 0.103902 0.252939 0.300000 0.000000 0.600000
-0.601167 0.103902 -0.344825 0.300000 0.600000 0.000000
0.560060 -0.078154 -0.187191 0.000000 0.500000 0.500000
0.086093 0.045337 0.523159 0.000000 0.000000 1.000000
-0.525981 0.025964 -0.387422 0.500000 0.000000 0.500000
0.495579 0.103902 -0.329870 0.300000 0.600000 0.000000
0.138446 0.042226 0.523159 0.000000 0.000000 1.000000
0.577452 0.084739 -0.427383 0.300000 0.600000 0.000000
-0.430412 0.103902 -0.305198 0.300000 0.600000 0.000000
-0.142832 0.079925 -0.071458 0.300000 0.600000 0.000000
0.241397 0.011610 -0.411399 0.500000 0.000000 0.500000
-0.155391 0.079925 -0.229206 0.300000 0.600000 0.000000
0.564628 -0.091954 0.331887 0.300000 0.600000 0.000000
-0.798633 -0.496157 -0.386501 0.300000 0.000000 0.600000
0.584037 -0.104622 -0.335214 0.000000 0.500000 0.500000
0.167552 0.079925 -0.369981 0.300000 0.600000 0.000000
-0.056601 0.079925 -0.018685 0.300000 0.600000 0.000000
0.508371 0.079925 -0.161178 0.300000 0.600000 0.000000
0.544075 -0.110583 0.463530 0.000000 1.000000 0.000000
0.404805 -0.111221 -0.411399 0.500000 0.000000 0.500000
0.544075 -0.264514 -0.409289 0.600000 0.000000 0.300000
0.544075 0.030189 0.296455 0.300000 0.600000 0.000000
-0.284498 -0.094647 -0.387422 0.500000 0.000000 0.500000
0.044265 -0.034044 -0.387422 0.500000 0.000000 0.500000
-0.045513 0.079925 -0.228601 0.300000 0.600000 0.000000
-0.501184 0.079925 -0.269047 0.300000 0.600000 0.000000
0.004594 0.050108 -0.057523 0.800000 0.200000 0.500000
-0.830603 0.095541 -0.335401 0.300000 0.000000 0.600000
-0.252640 0.079925 -0.077476 0.300000 0.600000 0.000000
0.560060 0.047757 -0.154596 0.000000 0.500000 0.500000
0.028571 0.043186 0.065799 0.800000 0.200000 0.500000
0.528602 0.079925 0.342811 0.600000 0.000000 0.300000
-0.489247 0.103902 0.269795 0.300000 0.600000 0.000000
-0.006747 0.079925 -0.213607 0.300000 0.600000 0.000000
-0.318336 0.079925 0.320733 0.300000 0.600000 0.000000
-0.517469 0.103902 0.343178 0.600000 0.000000 0.300000
0.592029 -0.110276 0.302756 0.300000 0.600000 0.000000
0.499049 0.079925 -0.259544 0.300000 0.600000 0.000000
0.275020 0.079925 -0.417552 0.300000 0.600000 0.000000
0.410307 0.103902 -0.247823 0.300000 0.600000 0.000000
0.334062 0.030052 0.499182 0.000000 0.000000 1.000000
-0.673596 0.079925 0.340154 0.600000 0.000000 0.300000
0.178575 0.103902 0.212080 0.300000 0.600000 0.000000
0.592029 -0.042122 0.303131 0.300000 0.600000 0.000000
0.369065 0.026274 -0.387422 0.500000 0.000000 0.500000
0.388194 0.079925 0.324683 0.300000 0.600000 0.000000
-0.443999 0.032784 0.299917 1.000000 0.000000 0.000000
0.077176 -0.095906 0.168812 0.500000 0.000000 0.500000
0.439127 0.079925 -0.094480 0.300000 0.600000 0.000000
0.056544 0.036104 0.479015 1.000000 0.000000 0.000000
0.039287 0.014579 -0.387422 0.500000 0.000000 0.500000
0.096810 0.057446 -0.411399 0.500000 0.000000 0.500000
0.436713 0.103902 -0.426808 0.300000 0.600000 0.000000
0.223720 0.103902 -0.393782 0.300000 0.600000 0.000000
-0.008391 0.103902 -0.162275 0.300000 0.600000 0.000000
-0.646503 -0.035955 -0.387422 0.500000 0.000000 0.500000
0.544075 -0.375039 -0.419325 0.600000 0.000000 0.300000
-0.110224 0.079925 0.113018 0.300000 0.600000 0.000000
0.034452 0.033909 -0.411399 0.500000 0.000000 0.500000
0.224244 -0.092693 0.523159 0.000000 0.000000 1.000000
0.086777 0.103902 0.150995 0.300000 0.600000 0.000000
0.169232 -0.063788 -0.172172 0.500000 0.500000 0.000000
0.371738 0.079925 -0.099320 0.300000 0.600000 0.000000
-0.539885 -0.098574 -0.411399 0.500000 0.000000 0.500000
0.365076 -0.095906 -0.005163 0.500000 0.000000 0.500000
0.124034 0.103902 -0.120351 0.300000 0.600000 0.000000
0.307278 -0.030521 -0.172172 0.500000 0.500000 0.000000
-0.305025 0.079925 -0.214635 0.300000 0.600000 0.000000
-0.036807 0.076920 -0.387422 0.500000 0.000000 0.500000
-0.823626 0.079925 0.002131 0.300000 0.000000 0.600000
0.337345 0.079925 0.521660 0.000000 0.000000 1.000000
-0.766664 0.026634 -0.242103 0.000000 1.000000 0.000000
-0.766664 0.032396 -0.142243 0.000000 1.000000 0.000000
0.520098 -0.073730 0.316697 0.000000 1.000000 0.000000
-0.402496 0.079925 -0.125366 0.300000 0.600000 0.000000
0.553756 0.079925 -0.311400 0.600000 0.000000 0.300000
0.584037 0.038430 -0.248013 0.000000 0.500000 0.500000
0.056544 -0.012749 0.203633 1.000000 0.000000 0.000000
-0.798633 -0.455930 -0.391741 0.300000 0.000000 0.600000
0.238198 0.051341 0.523159 0.000000 0.000000 1.000000
0.560060 0.039200 -0.273363 0.000000 0.500000 0.500000
-0.798633 -0.141796 -0.394287 0.300000 0.000000 0.600000
-0.013215 -0.111890 -0.403798 0.500000 0.000000 0.500000
0.560060 -0.073924 0.048707 0.000000 0.500000 0.500000
-0.131630 0.103902 0.083574 0.300000 0.600000 0.000000
0.144436 0.049191 -0.387422 0.500000 0.000000 0.500000
-0.031953 0.079925 0.179699 0.300000 0.600000 0.000000
-0.356532 0.079925 0.139400 0.300000 0.600000 0.000000
0.032567 -0.081801 0.210759 1.000000 0.000000 0.000000
0.584037 -0.065637 0.102055 0.000000 0.500000 0.500000
0.544075 0.016356 -0.418891 0.600000 0.000000 0.300000
0.145134 0.061852 -0.411399 0.500000 0.000000 0.500000
-0.334613 0.079925 -0.151581 0.300000 0.600000 0.000000
0.321963 -0.091082 0.499182 0.000000 0.000000 1.000000
-0.220262 0.103902 0.161655 0.300000 0.600000 0.000000
0.584037 0.078865 -0.141256 0.000000 0.500000 0.500000
0.185125 0.079925 0.183346 0.300000 0.600000 0.000000
0.292021 0.042361 0.523159 0.000000 0.000000 1.000000
-0.538647 0.103902 -0.029437 0.300000 0.600000 0.000000
-0.289751 0.103902 0.199863 0.300000 0.600000 0.000000
0.452313 0.103902 0.132383 0.300000 0.600000 0.000000
-0.775741 0.103902 -0.305981 0.300000 0.600000 0.000000
-0.418899 0.079925 -0.332913 0.300000 0.600000 0.000000
0.573142 -0.177447 -0.371437 0.600000 0.000000 0.300000
0.063061 -0.043190 -0.411399 0.500000 0.000000 0.500000
-0.790641 0.047185 -0.192341 0.000000 1.000000 0.000000
-0.385862 0.061219 0.323894 1.000000 0.000000 0.000000
0.416739 -0.081366 0.499182 0.000000 0.000000 1.000000
-0.087247 0.079925 -0.405724 0.500000 0.000000 0.500000
0.169735 0.103902 -0.345860 0.300000 0.600000 0.000000
0.621066 0.103902 -0.243058 0.300000 0.000000 0.600000
0.560060 -0.081484 -0.162126 0.000000 0.500000 0.500000
0.220590 0.079925 -0.045768 0.300000 0.600000 0.000000
0.565739 -0.523500 -0.371437 0.600000 0.000000 0.300000
0.544075 -0.170547 0.304382 0.300000 0.600000 0.000000
0.012792 -0.004439 -0.411399 0.500000 0.000000 0.500000
0.355743 -0.097562 -0.387422 0.500000 0.000000 0.500000
0.379320 0.007738 0.499182 0.000000 0.000000 1.000000
0.328391 0.103902 0.147322 0.300000 0.600000 0.000000
0.544075 -0.070321 -0.139348 0.000000 1.000000 0.000000
-0.637400 0.067464 -0.411399 0.500000 0.000000 0.500000
-0.677899 0.103902 -0.335903 0.300000 0.600000 0.000000
0.544075 -0.084331 -0.379655 0.600000 0.000000 0.300000
-0.387375 0.079925 0.189019 0.300000 0.600000 0.000000
-0.079670 0.103902 -0.122195 0.300000 0.600000 0.000000
0.306087 0.079925 0.134164 0.300000 0.600000 0.000000
0.056544 -0.045347 -0.135821 1.000000 0.000000 0.000000
0.560060 -0.048816 0.230305 0.000000 0.500000 0.500000
-0.040230 0.103281 -0.427383 0.300000 0.600000 0.000000
-0.511840 0.103902 -0.096040 0.300000 0.600000 0.000000
-0.778889 -0.258237 0.331887 0.600000 0.300000 0.000000
-0.688195 0.103902 -0.012401 0.300000 0.600000 0.000000
-0.822029 0.103274 -0.442786 0.600000 0.300000 0.000000
0.401625 0.079925 -0.402303 0.500000 0.000000 0.500000
0.000036 0.079925 -0.016917 0.300000 0.600000 0.000000
0.537457 -0.111890 -0.036684 0.000000 1.000000 0.000000
0.494982 -0.022597 -0.387422 0.500000 0.000000 0.500000
-0.546322 0.095910 0.339879 0.600000 0.000000 0.300000
0.208750 0.022424 0.499182 0.000000 0.000000 1.000000
-0.797932 0.079925 -0.450153 0.600000 0.300000 0.000000
-0.512184 0.103902 -0.440623 0.600000 0.300000 0.000000
0.544075 -0.100376 -0.121675 0.000000 1.000000 0.000000
0.402547 -0.095906 0.470950 0.500000 0.000000 0.500000
0.149976 0.034408 -0.411399 0.500000 0.000000 0.500000
-0.422912 0.103902 0.226179 0.300000 0.600000 0.000000
-0.243268 -0.027964 -0.387422 0.500000 0.000000 0.500000
-0.343080 0.079925 -0.117419 0.300000 0.600000 0.000000
-0.176889 0.079925 -0.306549 0.300000 0.600000 0.000000
-0.818110 0.079925 -0.422730 0.300000 0.000000 0.600000
-0.798633 -0.392028 0.325674 0.600000 0.300000 0.000000
-0.708724 0.103902 -0.191843 0.300000 0.600000 0.000000
0.584037 -0.092350 -0.264659 0.000000 0.500000 0.500000
0.582713 -0.088537 -0.419391 0.600000 0.000000 0.300000
-0.157376 -0.081822 -0.411399 0.500000 0.000000 0.500000
-0.421893 0.103902 0.199168 0.300000 0.600000 0.000000
-0.790641 0.026092 -0.337593 0.000000 1.000000 0.000000
0.004594 0.055449 -0.309669 0.800000 0.200000 0.500000
0.004594 0.018516 0.210401 0.800000 0.200000 0.500000
0.038182 0.096919 -0.427383 0.300000 0.600000 0.000000
0.567852 -0.456777 -0.419391 0.600000 0.000000 0.300000
-0.253986 0.103902 0.245453 0.300000 0.600000 0.000000
0.006250 0.015987 -0.067995 0.800000 0.200000 0.500000
0.375272 0.103902 -0.061961 0.300000 0.600000 0.000000
0.385746 -0.095906 -0.157871 0.500000 0.500000 0.000000
0.004594 0.026514 -0.174540 0.800000 0.200000 0.500000
0.371754 0.103902 0.136324 0.300000 0.600000 0.000000
-0.378130 0.079925 0.307859 0.300000 0.600000 0.000000
0.045907 0.015987 0.361800 1.000000 0.000000 0.000000
0.028571 0.037353 0.034610 0.800000 0.200000 0.500000
-0.798633 -0.005156 0.308396 0.600000 0.300000 0.000000
0.376809 -0.038634 -0.148195 0.500000 0.500000 0.000000
0.338103 0.055943 -0.411399 0.500000 0.000000 0.500000
0.567277 -0.250821 0.283933 0.300000 0.600000 0.000000
-0.750680 -0.416739 -0.396606 0.300000 0.000000 0.600000
-0.651719 -0.003526 -0.387422 0.500000 0.000000 0.500000
-0.686575 0.079925 -0.311017 0.300000 0.600000 0.000000
0.544075 -0.486123 -0.407747 0.600000 0.000000 0.300000
-0.340925 0.103902 -0.368571 0.300000 0.600000 0.000000
0.560060 0.056782 0.089340 0.600000 0.000000 0.300000
0.188285 -0.055347 -0.411399 0.500000 0.000000 0.500000
-0.451689 0.079925 -0.252600 0.300000 0.600000 0.000000
-0.311918 0.079925 0.160569 0.300000 0.600000 0.000000
0.520098 -0.046241 0.250372 0.000000 1.000000 0.000000
0.080824 0.103902 0.040969 0.300000 0.600000 0.000000
0.097514 0.103902 -0.380573 0.300000 0.600000 0.000000
0.548071 0.030296 0.267432 0.600000 0.000000 0.300000
0.032567 -0.008181 -0.112220 1.000000 0.000000 0.000000
0.593725 0.103902 0.247784 0.300000 0.600000 0.000000
0.584037 0.060366 -0.304474 0.000000 0.500000 0.500000
-0.419179 0.103902 0.100371 0.300000 0.600000 0.000000
0.544075 0.020093 -0.379210 0.600000 0.000000 0.300000
0.584037 -0.008218 -0.206938 0.000000 0.500000 0.500000
-0.107921 0.079925 0.219935 0.300000 0.600000 0.000000
-0.223857 0.079925 -0.243052 0.300000 0.600000 0.000000
0.458999 -0.009556 0.523159 0.000000 0.000000 1.000000
-0.426516 0.097684 -0.427383 0.300000 0.600000 0.000000
-0.362547 0.079925 -0.451125 0.600000 0.300000 0.000000
-0.167656 0.103902 -0.185514 0.300000 0.600000 0.000000
-0.356752 0.079925 -0.191841 0.300000 0.600000 0.000000
-0.327351 -0.024736 -0.411399 0.500000 0.000000 0.500000
0.433401 0.079925 -0.446439 0.600000 0.300000 0.000000
0.265639 -0.095906 0.291105 0.500000 0.000000 0.500000
-0.369413 0.103902 -0.210059 0.300000 0.600000 0.000000
0.244732 0.079925 0.521736 0.000000 0.000000 1.000000
-0.830603 0.097103 0.137453 0.300000 0.000000 0.600000
-0.275228 0.079925 0.354616 0.600000 0.000000 0.300000
-0.716961 0.103902 -0.291214 0.300000 0.600000 0.000000
0.437713 -0.035459 -0.172172 0.500000 0.500000 0.000000
0.278843 0.079925 0.153268 0.300000 0.600000 0.000000
-0.309276 0.079925 -0.300867 0.300000 0.600000 0.000000
0.475838 -0.111890 0.516748 0.000000 0.000000 1.000000
-0.476802 0.103902 -0.236446 0.300000 0.600000 0.000000
0.354198 -0.103898 0.126054 0.500000 0.000000 0.500000
0.567924 -0.164686 -0.419391 0.600000 0.000000 0.300000
0.108209 -0.069084 0.499182 0.000000 0.000000 1.000000
-0.647982 0.079925 -0.205884 0.300000 0.600000 0.000000
-0.061602 0.103902 0.174546 0.300000 0.600000 0.000000
-0.123357 0.103902 0.283121 0.300000 0.600000 0.000000
0.140237 0.070524 0.523159 0.000000 0.000000 1.000000
-0.103494 0.103902 0.136516 0.300000 0.600000 0.000000
0.458599 0.103902 -0.148249 0.300000 0.600000 0.000000
0.289572 0.079925 0.052920 0.300000 0.600000 0.000000
0.254962 0.096765 0.363856 0.600000 0.000000 0.300000
-0.134556 0.061699 -0.387422 0.500000 0.000000 0.500000
-0.364272 -0.069845 -0.387422 0.500000 0.000000 0.500000
0.020784 0.038765 0.323894 1.000000 0.000000 0.000000
0.552906 -0.128374 0.331887 0.300000 0.600000 0.000000
0.477686 -0.050834 -0.148195 0.500000 0.500000 0.000000
0.251319 -0.062989 -0.148195 0.500000 0.500000 0.000000
-0.373825 0.079925 -0.121348 0.300000 0.600000 0.000000
0.441350 -0.037303 -0.411399 0.500000 0.000000 0.500000
0.211116 0.019085 -0.411399 0.500000 0.000000 0.500000
0.314168 -0.003157 -0.148195 0.500000 0.500000 0.000000
0.560060 -0.006545 0.192789 0.000000 0.500000 0.500000
0.544075 -0.024902 -0.020845 0.000000 1.000000 0.000000
0.532087 0.026645 0.060203 0.600000 0.000000 0.300000
-0.042898 0.103902 -0.277746 0.300000 0.600000 0.000000
-0.168783 0.079925 0.224725 0.300000 0.600000 0.000000
0.303033 -0.095906 0.180250 0.500000 0.000000 0.500000
-0.377007 0.103902 0.033365 0.300000 0.600000 0.000000
0.002166 0.079925 -0.359308 0.300000 0.600000 0.000000
-0.055698 0.103902 -0.094879 0.300000 0.600000 0.000000
0.190277 0.079925 0.106156 0.300000 0.600000 0.000000
-0.618946 0.103902 0.287584 0.300000 0.600000 0.000000
-0.435373 0.103902 -0.354995 0.300000 0.600000 0.000000
