-0.012287 0.416721 0.352270 0.000000 0.500000 0.500000
-0.136434 0.350549 -0.336491 0.500000 0.500000 0.000000
0.088279 0.416721 0.226002 0.000000 0.500000 0.500000
-0.240460 0.094481 -0.336491 0.500000 0.500000 0.000000
-0.434729 0.377371 0.247360 0.000000 0.500000 0.500000
-0.351280 -0.514556 0.253492 1.000000 0.000000 0.000000
-0.290864 -0.514556 -0.058417 0.000000 0.000000 1.000000
0.446527 0.000398 0.319686 0.300000 0.600000 0.000000
0.354711 -0.357285 0.325703 0.300000 0.600000 0.000000
-0.246648 -0.514556 0.099349 0.000000 1.000000 0.000000
-0.485563 0.382595 -0.311028 0.000000 0.500000 0.500000
-0.031585 0.366045 0.358687 0.300000 0.000000 0.600000
-0.324674 0.377371 0.103655 0.000000 0.500000 0.500000
-0.445399 -0.558471 0.358320 0.600000 0.300000 0.000000
-0.050286 -0.543004 -0.336491 0.000000 0.000000 1.000000
-0.340467 0.206505 0.155919 0.600000 0.300000 0.000000
0.379794 -0.282074 -0.375841 0.600000 0.000000 0.300000
0.446527 0.229400 0.120493 0.000000 0.500000 0.500000
-0.010643 0.082248 -0.189939 0.800000 0.200000 0.500000
0.381587 -0.139440 0.319338 0.300000 0.600000 0.000000
-0.445399 0.064969 -0.061385 0.500000 0.000000 0.500000
0.407178 0.279983 0.240698 0.000000 0.500000 0.500000
-0.445399 -0.571042 0.211204 1.000000 0.000000 0.000000
-0.300317 0.416721 -0.008080 0.000000 0.500000 0.500000
0.026797 0.115271 0.107193 0.800000 0.200000 0.500000
0.315844 0.256786 0.358687 0.600000 0.000000 0.300000
-0.274242 -0.514556 -0.211965 0.500000 0.000000 0.500000
0.105005 0.062573 -0.369210 0.500000 0.500000 0.000000
0.282005 0.239475 -0.218442 0.300000 0.000000 0.600000
-0.009899 0.265048 -0.218442 0.300000 0.000000 0.600000
-0.340467 0.288611 -0.005279 0.600000 0.300000 0.000000
0.377271 -0.608142 -0.375841 0.600000 0.000000 0.300000
-0.077419 0.101923 0.132637 0.800000 0.200000 0.500000
0.341595 0.242436 0.118677 0.300000 0.000000 0.600000
0.407178 -0.357060 0.286018 0.300000 0.600000 0.000000
0.408173 0.030120 0.319338 0.300000 0.600000 0.000000
0.446527 -0.735989 0.288493 0.300000 0.600000 0.000000
0.446527 0.109291 0.176845 0.000000 0.500000 0.500000
-0.406050 0.259556 0.050275 0.500000 0.000000 0.500000
0.025849 0.062107 0.353989 0.600000 0.000000 0.300000
-0.345177 0.416721 -0.065703 0.000000 0.500000 0.500000
0.066204 0.377371 -0.173659 0.000000 0.500000 0.500000
0.446527 0.043385 -0.308602 0.600000 0.000000 0.300000
-0.315793 0.101923 0.340107 0.600000 0.000000 0.300000
0.278724 0.121598 0.249908 0.600000 0.000000 0.300000
-0.041997 0.101923 -0.327756 0.500000 0.500000 0.000000
-0.318188 -0.540789 0.007684 0.000000 1.000000 0.000000
-0.303412 0.124670 -0.336491 0.500000 0.500000 0.000000
0.097395 0.416721 -0.427005 0.000000 0.500000 0.500000
0.164927 -0.514556 -0.239244 0.500000 0.000000 0.500000
-0.342525 0.101923 0.157040 0.000000 0.000000 1.000000
-0.253654 0.416721 0.004513 0.000000 0.500000 0.500000
-0.325904 0.358059 -0.375841 0.500000 0.500000 0.000000
0.391792 -0.738973 -0.336491 0.600000 0.000000 0.300000
0.432998 0.416721 0.351023 0.000000 0.500000 0.500000
0.145613 0.416721 -0.139793 0.000000 0.500000 0.500000
0.477555 0.379169 0.277285 0.000000 0.500000 0.500000
0.407178 0.216954 -0.206078 0.000000 0.500000 0.500000
-0.169250 0.259301 -0.336491 0.500000 0.500000 0.000000
0.398599 0.229651 0.319338 0.300000 0.600000 0.000000
0.414920 -0.087324 0.319338 0.300000 0.600000 0.000000
-0.363336 0.377371 -0.048271 0.500000 0.000000 0.500000
0.378531 -0.540789 -0.296188 0.500000 0.000000 0.500000
0.404202 0.416721 -0.407109 0.000000 0.500000 0.500000
0.282178 0.134714 0.100008 0.600000 0.000000 0.300000
-0.061447 0.416721 0.437099 0.000000 0.500000 0.500000
0.407178 0.345514 -0.267154 0.000000 0.500000 0.500000
-0.316498 0.082248 0.266169 0.000000 0.000000 1.000000
0.200869 0.243613 -0.244675 0.300000 0.000000 0.600000
0.407178 0.156898 -0.300102 0.600000 0.000000 0.300000
0.383123 -0.561123 -0.336491 0.600000 0.000000 0.300000
-0.359314 0.377371 -0.171764 0.000000 0.500000 0.500000
-0.383395 -0.514556 0.266611 1.000000 0.000000 0.000000
0.446527 -0.648269 -0.292334 0.600000 0.000000 0.300000
-0.314234 0.237528 0.003903 0.600000 0.300000 0.000000
-0.086300 0.283789 -0.218442 0.300000 0.000000 0.600000
-0.275821 -0.578003 -0.370056 0.000000 0.000000 1.000000
0.282600 0.416721 0.105891 0.000000 0.500000 0.500000
-0.332901 0.338021 -0.105924 0.500000 0.000000 0.500000
-0.416814 -0.290907 -0.336491 0.300000 0.000000 0.600000
-0.143104 0.377371 0.250014 0.000000 0.500000 0.500000
0.442609 -0.466437 -0.375841 0.600000 0.000000 0.300000
-0.445399 -0.781896 0.321119 0.600000 0.300000 0.000000
0.422720 -0.565933 -0.336491 0.600000 0.000000 0.300000
-0.340467 0.292856 0.188829 0.600000 0.300000 0.000000
-0.064146 0.377371 -0.261959 0.000000 0.500000 0.500000
0.446527 0.226173 0.153014 0.000000 0.500000 0.500000
0.337075 0.416721 -0.286160 0.000000 0.500000 0.500000
0.142735 0.377371 0.310364 0.300000 0.000000 0.600000
-0.340467 0.230319 0.125818 0.600000 0.300000 0.000000
0.420294 0.201213 -0.291396 0.600000 0.000000 0.300000
0.093287 0.134714 0.093682 0.600000 0.000000 0.300000
-0.335443 0.338021 -0.241031 0.500000 0.000000 0.500000
-0.402727 -0.573866 -0.336491 0.300000 0.000000 0.600000
0.020408 0.134714 0.246313 0.600000 0.000000 0.300000
-0.406050 0.111965 -0.252060 0.500000 0.000000 0.500000
0.162610 0.199401 -0.218442 0.300000 0.000000 0.600000
-0.046761 0.101923 0.000742 0.800000 0.200000 0.500000
0.415201 -0.501439 0.050075 0.800000 0.200000 0.500000
-0.174157 -0.517942 -0.016739 0.000000 0.000000 1.000000
0.407178 0.271212 -0.120811 0.000000 0.500000 0.500000
-0.101218 -0.514556 0.042571 0.000000 1.000000 0.000000
-0.055908 -0.533239 0.358687 0.000000 1.000000 0.000000
-0.071361 -0.514556 -0.200667 0.500000 0.000000 0.500000
-0.393597 0.416721 -0.374976 0.000000 0.500000 0.500000
0.243186 0.070438 0.214405 1.000000 0.000000 0.000000
-0.406050 0.188171 0.281895 0.600000 0.300000 0.000000
0.213614 -0.514556 0.039645 0.000000 1.000000 0.000000
-0.236856 -0.514556 -0.261090 0.500000 0.000000 0.500000
0.365862 -0.540789 0.267376 1.000000 0.000000 0.000000
-0.035553 0.388831 -0.432635 0.000000 0.500000 0.500000
-0.041258 0.377371 -0.224367 0.000000 0.500000 0.500000
0.132883 0.236102 -0.375841 0.500000 0.500000 0.000000
-0.282745 0.120029 0.378362 0.600000 0.000000 0.300000
0.407178 -0.424978 0.273301 0.300000 0.600000 0.000000
0.317678 -0.540789 0.129628 0.000000 1.000000 0.000000
0.422272 0.298188 0.358687 0.300000 0.600000 0.000000
0.315362 0.274687 0.215347 0.300000 0.000000 0.600000
0.039012 0.307443 0.339012 0.600000 0.000000 0.300000
0.315362 0.341247 0.100075 0.000000 0.500000 0.500000
0.268450 0.387455 -0.428965 0.000000 0.500000 0.500000
0.297157 -0.514556 0.114853 0.000000 1.000000 0.000000
0.337912 -0.540789 -0.307767 0.500000 0.000000 0.500000
-0.379345 -0.143129 0.358687 0.600000 0.300000 0.000000
0.446527 -0.532375 -0.026131 0.800000 0.200000 0.500000
-0.164519 0.377371 0.015903 0.000000 0.500000 0.500000
0.128698 0.241385 0.339012 0.600000 0.000000 0.300000
-0.221700 -0.514556 -0.118626 0.000000 0.000000 1.000000
0.093816 0.320122 0.378362 0.600000 0.000000 0.300000
0.124632 0.134714 0.248372 0.600000 0.000000 0.300000
-0.140399 0.121598 0.188588 0.600000 0.000000 0.300000
-0.000163 0.082248 0.185844 0.800000 0.200000 0.500000
0.428499 -0.206836 0.358687 0.300000 0.600000 0.000000
0.076072 0.416721 0.047236 0.000000 0.500000 0.500000
-0.445399 0.230341 0.349438 0.600000 0.300000 0.000000
0.315362 0.158232 -0.103437 0.300000 0.000000 0.600000
-0.007346 0.416721 0.298130 0.000000 0.500000 0.500000
-0.340467 0.245564 0.167695 0.600000 0.300000 0.000000
-0.314234 0.357673 0.176312 0.500000 0.000000 0.500000
-0.437891 -0.501439 0.082609 1.000000 0.000000 0.000000
0.378084 0.018833 0.358687 0.300000 0.600000 0.000000
-0.298461 0.377371 -0.033142 0.000000 0.500000 0.500000
0.440852 0.328699 -0.284025 0.000000 0.500000 0.500000
0.092174 0.377371 -0.250283 0.000000 0.500000 0.500000
0.295158 -0.514556 0.345378 0.000000 1.000000 0.000000
-0.016201 0.101923 -0.263123 0.800000 0.200000 0.500000
0.095710 -0.540789 -0.076703 0.000000 0.000000 1.000000
-0.406050 0.317336 -0.023366 0.500000 0.000000 0.500000
-0.383075 -0.703276 -0.364798 0.300000 0.000000 0.600000
-0.430560 -0.826568 0.358687 0.600000 0.300000 0.000000
0.363514 -0.043009 0.319338 0.300000 0.600000 0.000000
-0.445399 0.223224 -0.024082 0.500000 0.000000 0.500000
-0.355386 -0.557464 0.345571 0.000000 1.000000 0.000000
0.481802 0.380762 -0.058037 0.000000 0.500000 0.500000
0.407178 -0.054374 -0.287651 0.600000 0.000000 0.300000
-0.004221 0.110613 0.378362 0.600000 0.000000 0.300000
0.356323 0.377371 -0.130738 0.000000 0.500000 0.500000
0.315362 0.345763 -0.213154 0.000000 0.500000 0.500000
-0.028895 0.416721 -0.240130 0.000000 0.500000 0.500000
-0.252103 -0.540789 0.249046 1.000000 0.000000 0.000000
0.008047 0.167862 0.339012 0.600000 0.000000 0.300000
0.062399 0.306895 -0.218442 0.300000 0.000000 0.600000
0.433179 0.416721 -0.233753 0.000000 0.500000 0.500000
0.008255 -0.540789 0.233174 1.000000 0.000000 0.000000
-0.411710 -0.575685 0.120246 1.000000 0.000000 0.000000
0.207834 -0.515863 -0.019948 0.000000 0.000000 1.000000
0.339185 0.416721 0.143519 0.000000 0.500000 0.500000
-0.053069 -0.540789 0.015326 0.000000 1.000000 0.000000
0.316984 0.377371 0.106582 0.000000 0.500000 0.500000
-0.436796 -0.501439 -0.132182 1.000000 0.000000 0.000000
-0.189036 0.416721 -0.003582 0.000000 0.500000 0.500000
0.214966 -0.540789 -0.286805 0.500000 0.000000 0.500000
-0.087913 -0.540789 0.235000 1.000000 0.000000 0.000000
-0.241125 0.071611 0.319338 0.600000 0.000000 0.300000
0.251954 0.290211 -0.218442 0.300000 0.000000 0.600000
-0.424840 -0.680019 -0.336491 0.300000 0.000000 0.600000
-0.325079 0.416721 0.120994 0.000000 0.500000 0.500000
-0.380019 -0.567022 -0.078770 0.600000 0.000000 0.300000
0.347645 0.082248 -0.307844 0.500000 0.500000 0.000000
-0.340467 0.292642 -0.093348 0.600000 0.300000 0.000000
0.315362 0.181787 -0.058329 0.300000 0.000000 0.600000
-0.340467 0.298481 0.083553 0.600000 0.300000 0.000000
-0.191798 0.121598 -0.223738 0.600000 0.000000 0.300000
-0.328424 0.062573 -0.072135 0.000000 0.000000 1.000000
-0.316341 0.311788 -0.050217 0.600000 0.300000 0.000000
0.446527 0.180418 -0.215059 0.000000 0.500000 0.500000
0.446527 0.340078 0.021530 0.000000 0.500000 0.500000
-0.409505 -0.501439 -0.164202 1.000000 0.000000 0.000000
0.215073 0.178060 0.378362 0.600000 0.000000 0.300000
-0.238867 -0.540789 0.013653 0.000000 1.000000 0.000000
0.272845 -0.514556 0.235231 1.000000 0.000000 0.000000
-0.445399 -0.851814 0.268481 0.600000 0.300000 0.000000
0.165405 0.377371 -0.200106 0.000000 0.500000 0.500000
-0.315071 -0.514556 -0.205089 0.500000 0.000000 0.500000
-0.361995 0.180232 -0.349607 0.300000 0.000000 0.600000
0.441621 -0.242054 -0.336491 0.600000 0.000000 0.300000
0.342926 0.357696 0.319217 0.000000 0.500000 0.500000
-0.145187 0.416721 0.376108 0.000000 0.500000 0.500000
0.320653 0.416721 -0.323301 0.000000 0.500000 0.500000
-0.403690 0.377371 0.317143 0.000000 0.500000 0.500000
-0.347162 0.082248 0.366537 0.600000 0.000000 0.300000
0.446527 -0.161841 -0.312399 0.600000 0.000000 0.300000
-0.003418 0.416721 0.250129 0.000000 0.500000 0.500000
-0.225130 -0.514556 0.074599 0.000000 1.000000 0.000000
-0.440757 -0.680202 -0.375841 0.300000 0.000000 0.600000
-0.291009 0.062573 0.232697 1.000000 0.000000 0.000000
0.396956 0.338021 -0.094552 0.000000 0.500000 0.500000
0.094622 0.416721 -0.390073 0.000000 0.500000 0.500000
-0.129186 -0.540769 0.007219 0.000000 1.000000 0.000000
-0.365213 -0.106175 -0.336491 0.300000 0.000000 0.600000
0.049829 0.416721 0.346891 0.000000 0.500000 0.500000
0.420577 -0.059671 -0.375841 0.600000 0.000000 0.300000
-0.178434 0.416721 -0.096558 0.000000 0.500000 0.500000
-0.276270 0.098659 -0.336491 0.500000 0.500000 0.000000
-0.210744 0.218923 0.339012 0.600000 0.000000 0.300000
0.446527 0.119584 0.283764 0.300000 0.600000 0.000000
-0.445399 0.167163 -0.076815 0.500000 0.000000 0.500000
-0.327350 0.129132 -0.223047 0.600000 0.300000 0.000000
-0.413939 0.416721 -0.051981 0.000000 0.500000 0.500000
-0.307233 -0.514556 -0.364550 0.000000 0.000000 1.000000
0.058758 0.416721 0.098420 0.000000 0.500000 0.500000
-0.101982 -0.514556 -0.313003 0.500000 0.000000 0.500000
-0.007820 0.121598 0.130797 0.800000 0.200000 0.500000
-0.497557 0.387093 0.321920 0.000000 0.500000 0.500000
-0.406050 -0.342390 0.281407 0.600000 0.300000 0.000000
0.232886 0.222019 0.358687 0.600000 0.000000 0.300000
-0.314234 0.250430 0.205298 0.600000 0.300000 0.000000
0.389839 -0.491791 -0.375841 0.600000 0.000000 0.300000
0.315362 0.256191 0.042119 0.300000 0.000000 0.600000
0.354711 -0.166569 -0.374885 0.600000 0.000000 0.300000
0.238009 -0.538755 0.000453 0.000000 1.000000 0.000000
0.181294 0.377371 0.287940 0.300000 0.000000 0.600000
0.341595 0.120570 0.063622 0.300000 0.000000 0.600000
0.010138 0.377371 -0.116736 0.000000 0.500000 0.500000
0.380945 0.088772 0.340335 0.600000 0.000000 0.300000
-0.415508 -0.429833 -0.375841 0.300000 0.000000 0.600000
-0.021599 -0.538646 0.145599 0.000000 1.000000 0.000000
-0.260117 0.134714 0.106437 0.600000 0.000000 0.300000
0.321964 0.062573 0.127377 0.000000 1.000000 0.000000
-0.084256 0.303385 0.378362 0.600000 0.000000 0.300000
-0.193619 0.101923 0.310130 1.000000 0.000000 0.000000
0.023437 0.386428 -0.426226 0.000000 0.500000 0.500000
0.488110 0.416721 -0.444321 0.000000 0.500000 0.500000
-0.406050 -0.556146 0.293882 0.600000 0.300000 0.000000
0.342534 0.377371 0.051203 0.000000 0.500000 0.500000
0.415778 -0.199083 -0.336491 0.600000 0.000000 0.300000
0.074210 -0.514556 0.034152 0.000000 1.000000 0.000000
0.189983 0.153065 -0.375841 0.500000 0.500000 0.000000
-0.445399 0.105225 0.228984 0.500000 0.000000 0.500000
0.057933 0.373186 0.240638 0.300000 0.000000 0.600000
0.103710 0.416721 0.404695 0.000000 0.500000 0.500000
0.389551 -0.567022 0.283817 0.300000 0.600000 0.000000
-0.276901 0.205546 0.358687 0.600000 0.000000 0.300000
0.438983 -0.207067 -0.284025 0.600000 0.000000 0.300000
-0.445399 -0.565759 -0.286502 0.300000 0.000000 0.600000
0.106626 0.377371 -0.196521 0.000000 0.500000 0.500000
0.199549 -0.538743 0.000437 0.000000 1.000000 0.000000
-0.445399 0.072100 0.347763 0.600000 0.300000 0.000000
-0.366097 -0.011239 -0.336491 0.300000 0.000000 0.600000
0.064695 -0.540789 -0.307103 0.500000 0.000000 0.500000
-0.314234 0.284525 0.252093 0.600000 0.300000 0.000000
-0.053672 -0.540789 0.075325 0.000000 1.000000 0.000000
0.341595 0.124187 -0.011567 0.300000 0.000000 0.600000
-0.242406 0.416721 0.048276 0.000000 0.500000 0.500000
-0.432501 -0.209527 0.266871 0.600000 0.300000 0.000000
0.380945 -0.564144 0.140115 0.300000 0.600000 0.000000
0.415649 -0.602342 -0.268885 0.800000 0.200000 0.500000
-0.062901 -0.540789 0.137807 0.000000 1.000000 0.000000
0.151540 0.103443 0.339012 0.600000 0.000000 0.300000
-0.273596 0.416721 0.243802 0.000000 0.500000 0.500000
0.029779 0.166843 0.378362 0.600000 0.000000 0.300000
-0.435653 -0.596219 0.319338 0.600000 0.300000 0.000000
-0.315848 -0.514556 0.052699 0.000000 1.000000 0.000000
-0.425420 0.025285 -0.336491 0.300000 0.000000 0.600000
0.125084 0.134714 -0.198842 0.600000 0.000000 0.300000
0.190328 0.266568 -0.218442 0.300000 0.000000 0.600000
-0.445399 0.268364 0.132049 0.500000 0.000000 0.500000
-0.406050 0.297605 -0.099914 0.500000 0.000000 0.500000
-0.418686 -0.004832 0.358687 0.600000 0.300000 0.000000
0.380050 0.416721 0.284710 0.000000 0.500000 0.500000
-0.406339 0.416721 0.337943 0.000000 0.500000 0.500000
-0.475923 0.378980 0.031632 0.000000 0.500000 0.500000
0.166728 -0.540789 0.049978 0.000000 1.000000 0.000000
0.473925 0.416721 0.434228 0.000000 0.500000 0.500000
-0.129581 0.377371 -0.400156 0.000000 0.500000 0.500000
-0.432124 0.377371 -0.126024 0.500000 0.000000 0.500000
0.160504 -0.540789 -0.107541 0.000000 0.000000 1.000000
-0.408237 -0.501439 -0.115024 1.000000 0.000000 0.000000
-0.219681 -0.540789 0.202137 1.000000 0.000000 0.000000
-0.153810 0.416721 -0.435379 0.000000 0.500000 0.500000
0.433411 0.068946 0.281237 0.300000 0.600000 0.000000
-0.340471 -0.540789 0.175903 1.000000 0.000000 0.000000
0.381228 -0.612149 0.319338 0.300000 0.600000 0.000000
-0.445399 0.107949 -0.213018 0.500000 0.000000 0.500000
-0.428826 -0.355996 -0.336491 0.300000 0.000000 0.600000
-0.337663 0.377371 0.287783 0.000000 0.500000 0.500000
0.409646 0.049382 -0.284025 0.000000 0.500000 0.500000
-0.314234 0.135897 -0.011589 0.600000 0.300000 0.000000
0.327353 0.263274 -0.244675 0.300000 0.000000 0.600000
-0.258416 0.202263 -0.375841 0.500000 0.500000 0.000000
-0.448806 0.416721 0.435404 0.000000 0.500000 0.500000
-0.428930 0.093488 0.286546 0.600000 0.300000 0.000000
-0.147146 0.121598 0.226181 0.600000 0.000000 0.300000
-0.211986 0.416721 -0.381872 0.000000 0.500000 0.500000
0.201902 0.416721 0.084760 0.000000 0.500000 0.500000
0.104481 0.095276 0.358687 0.600000 0.000000 0.300000
-0.032436 0.377371 0.319981 0.300000 0.000000 0.600000
-0.445399 -0.531531 0.196674 1.000000 0.000000 0.000000
0.341595 0.296603 -0.109417 0.300000 0.000000 0.600000
-0.134503 0.299482 -0.218442 0.300000 0.000000 0.600000
-0.351197 -0.514556 0.357417 0.000000 1.000000 0.000000
0.137134 -0.538229 -0.000232 0.000000 1.000000 0.000000
-0.314234 0.188087 0.035266 0.600000 0.300000 0.000000
0.341595 0.163482 -0.062266 0.300000 0.000000 0.600000
-0.417883 -0.722897 0.358687 0.600000 0.300000 0.000000
-0.175416 0.377371 -0.310648 0.000000 0.500000 0.500000
-0.176367 0.134714 0.001051 0.600000 0.000000 0.300000
0.034069 -0.540789 -0.226741 0.500000 0.000000 0.500000
-0.241987 0.069896 0.358687 0.600000 0.000000 0.300000
-0.257798 0.112090 -0.375841 0.500000 0.500000 0.000000
0.446527 0.120161 -0.089221 0.000000 0.500000 0.500000
-0.135649 0.145975 -0.375841 0.500000 0.500000 0.000000
-0.314234 0.351129 0.278282 0.500000 0.000000 0.500000
-0.046603 -0.539553 0.169755 1.000000 0.000000 0.000000
0.160990 0.377371 -0.358402 0.000000 0.500000 0.500000
-0.202793 -0.540789 -0.253401 0.500000 0.000000 0.500000
0.068177 0.101923 0.069496 0.800000 0.200000 0.500000
0.050351 0.121598 0.154921 0.600000 0.000000 0.300000
0.384666 0.101923 -0.156455 0.000000 1.000000 0.000000
0.341595 0.207183 -0.207851 0.300000 0.000000 0.600000
0.254376 0.416721 0.311287 0.000000 0.500000 0.500000
-0.038730 0.213424 -0.375841 0.500000 0.500000 0.000000
-0.445399 -0.817854 -0.374112 0.300000 0.000000 0.600000
0.446527 0.084469 -0.145839 0.000000 0.500000 0.500000
-0.400763 -0.009485 -0.375841 0.300000 0.000000 0.600000
0.339512 0.351009 -0.336491 0.000000 0.500000 0.500000
-0.486274 0.416721 -0.223230 0.000000 0.500000 0.500000
-0.291517 0.416721 0.357661 0.000000 0.500000 0.500000
-0.256411 -0.514556 -0.307568 0.500000 0.000000 0.500000
-0.025669 0.093441 -0.063925 0.800000 0.200000 0.500000
-0.412732 -0.382268 0.319338 0.600000 0.300000 0.000000
-0.445399 0.269388 -0.270606 0.500000 0.000000 0.500000
0.467420 0.416721 0.292700 0.000000 0.500000 0.500000
-0.366248 -0.540789 0.098133 0.000000 1.000000 0.000000
0.469701 0.416721 -0.375987 0.000000 0.500000 0.500000
-0.126579 0.101923 0.303492 1.000000 0.000000 0.000000
-0.152190 0.377371 0.372611 0.000000 0.500000 0.500000
0.365876 -0.317299 -0.336491 0.600000 0.000000 0.300000
0.180024 -0.514556 0.030271 0.000000 1.000000 0.000000
-0.336315 0.101923 0.209550 0.600000 0.300000 0.000000
-0.353583 0.343643 -0.373156 0.500000 0.500000 0.000000
0.351627 0.101923 -0.262589 0.000000 1.000000 0.000000
-0.219447 -0.540789 0.282127 1.000000 0.000000 0.000000
0.341467 0.176776 0.378362 0.600000 0.000000 0.300000
0.446527 -0.836097 -0.351313 0.600000 0.000000 0.300000
0.085319 -0.540789 0.222797 1.000000 0.000000 0.000000
0.419144 -0.193893 0.319338 0.300000 0.600000 0.000000
0.431747 0.303336 0.286546 0.300000 0.600000 0.000000
-0.445399 0.041839 -0.312006 0.300000 0.000000 0.600000
-0.006658 0.230086 -0.336491 0.500000 0.500000 0.000000
-0.523600 0.416721 -0.320204 0.000000 0.500000 0.500000
-0.212612 0.377371 -0.043571 0.000000 0.500000 0.500000
0.491802 0.384511 0.197120 0.000000 0.500000 0.500000
-0.064569 0.101923 -0.303790 0.500000 0.500000 0.000000
-0.324948 -0.540789 0.107050 0.000000 1.000000 0.000000
-0.070897 0.377371 -0.131887 0.000000 0.500000 0.500000
0.294364 0.140848 -0.218442 0.300000 0.000000 0.600000
0.072491 0.086938 0.358687 0.600000 0.000000 0.300000
0.167477 0.166371 -0.336491 0.500000 0.500000 0.000000
0.501084 0.416721 0.299275 0.000000 0.500000 0.500000
0.280812 0.290629 -0.336491 0.500000 0.500000 0.000000
0.301483 -0.514556 0.258818 1.000000 0.000000 0.000000
-0.141935 -0.537004 -0.180176 0.500000 0.000000 0.500000
-0.292801 0.134714 0.117408 0.600000 0.000000 0.300000
0.035466 0.351309 -0.336491 0.500000 0.500000 0.000000
0.229383 -0.540789 0.084485 0.000000 1.000000 0.000000
0.174188 -0.540789 -0.070827 0.000000 0.000000 1.000000
-0.356468 -0.253997 0.319338 0.600000 0.300000 0.000000
-0.330957 0.377371 -0.096661 0.000000 0.500000 0.500000
0.341595 0.129119 0.128464 0.300000 0.000000 0.600000
-0.314234 0.158563 -0.203301 0.600000 0.300000 0.000000
-0.163999 0.123283 0.378362 0.600000 0.000000 0.300000
0.008758 -0.514556 0.065494 0.000000 1.000000 0.000000
-0.293253 -0.514556 -0.124463 0.000000 0.000000 1.000000
-0.373145 0.062573 0.264230 1.000000 0.000000 0.000000
-0.406050 -0.529559 0.034922 0.000000 1.000000 0.000000
-0.340467 0.101959 0.079113 0.600000 0.300000 0.000000
-0.314234 0.208189 0.260601 0.600000 0.300000 0.000000
-0.022284 0.377371 -0.035512 0.000000 0.500000 0.500000
0.367018 -0.632666 0.355517 0.300000 0.600000 0.000000
-0.339786 -0.514556 -0.227667 0.500000 0.000000 0.500000
0.252895 0.101923 -0.310925 0.500000 0.500000 0.000000
0.446527 0.122870 0.059908 0.000000 0.500000 0.500000
0.050721 0.101923 0.264843 1.000000 0.000000 0.000000
-0.107028 -0.540789 0.269676 1.000000 0.000000 0.000000
0.362856 0.114454 -0.375841 0.600000 0.000000 0.300000
0.338513 -0.514556 -0.045276 0.000000 0.000000 1.000000
-0.008628 -0.554017 0.319338 0.000000 1.000000 0.000000
0.058057 0.416721 -0.027481 0.000000 0.500000 0.500000
-0.027675 -0.540789 -0.051202 0.000000 0.000000 1.000000
-0.347986 0.062573 0.001744 0.000000 0.000000 1.000000
0.345890 0.062573 0.289389 1.000000 0.000000 0.000000
-0.260493 0.416721 0.414670 0.000000 0.500000 0.500000
-0.095781 0.329347 0.319338 0.300000 0.000000 0.600000
-0.421054 -0.801829 0.266871 0.600000 0.300000 0.000000
0.188200 0.311788 -0.232734 0.300000 0.000000 0.600000
-0.403994 -0.111768 0.358687 0.600000 0.300000 0.000000
0.416152 -0.501439 -0.226315 0.800000 0.200000 0.500000
-0.133212 0.416721 0.030004 0.000000 0.500000 0.500000
-0.411364 0.339410 -0.375841 0.300000 0.000000 0.600000
0.191561 -0.565439 -0.356384 0.000000 0.000000 1.000000
-0.294652 0.101923 -0.233512 0.500000 0.500000 0.000000
-0.115418 0.377371 -0.364220 0.000000 0.500000 0.500000
0.049738 0.377371 -0.000270 0.000000 0.500000 0.500000
0.446527 -0.540839 -0.346318 0.600000 0.000000 0.300000
0.490832 0.416721 -0.340991 0.000000 0.500000 0.500000
0.283587 -0.540457 -0.022895 0.000000 0.000000 1.000000
-0.445399 0.180031 0.179976 0.500000 0.000000 0.500000
0.374598 -0.239810 -0.336491 0.600000 0.000000 0.300000
0.380317 -0.514556 -0.133474 0.000000 0.000000 1.000000
-0.257474 -0.540789 -0.086810 0.000000 0.000000 1.000000
-0.236817 0.134714 -0.229115 0.600000 0.000000 0.300000
-0.018218 0.101923 0.260532 1.000000 0.000000 0.000000
-0.101542 0.246527 -0.218442 0.300000 0.000000 0.600000
-0.426190 0.377371 0.185104 0.000000 0.500000 0.500000
0.315362 0.277848 0.149151 0.300000 0.000000 0.600000
-0.431986 0.377371 -0.193014 0.000000 0.500000 0.500000
0.371023 -0.514556 0.129223 0.000000 1.000000 0.000000
-0.310589 0.032068 0.328322 0.600000 0.000000 0.300000
-0.228546 0.134714 0.233631 0.600000 0.000000 0.300000
0.414551 -0.374314 0.319338 0.300000 0.600000 0.000000
0.033039 0.338021 0.271138 0.300000 0.000000 0.600000
0.354711 -0.070029 0.332253 0.300000 0.600000 0.000000
-0.001620 0.126574 -0.375841 0.500000 0.500000 0.000000
-0.158868 -0.514556 0.304740 1.000000 0.000000 0.000000
-0.300444 0.416721 -0.198062 0.000000 0.500000 0.500000
0.369054 -0.540789 -0.084190 0.000000 0.000000 1.000000
-0.122260 0.377371 0.329144 0.300000 0.000000 0.600000
0.042144 0.121598 -0.214686 0.800000 0.200000 0.500000
0.354711 0.320643 -0.349021 0.600000 0.000000 0.300000
-0.340467 0.145977 0.166399 0.600000 0.300000 0.000000
0.011262 0.377371 -0.378394 0.000000 0.500000 0.500000
0.304971 0.416721 0.225001 0.000000 0.500000 0.500000
0.341595 0.275324 0.197741 0.300000 0.000000 0.600000
-0.047412 0.139143 0.339012 0.600000 0.000000 0.300000
-0.406050 0.344676 0.119469 0.500000 0.000000 0.500000
-0.405953 -0.892474 -0.336491 0.300000 0.000000 0.600000
0.283458 0.205195 0.339012 0.600000 0.000000 0.300000
0.446527 -0.602543 0.289809 0.300000 0.600000 0.000000
0.380530 0.101923 0.179495 0.000000 1.000000 0.000000
-0.113320 0.146361 0.358687 0.600000 0.000000 0.300000
-0.406050 -0.658583 -0.284814 0.300000 0.000000 0.600000
-0.300315 0.241187 -0.336491 0.500000 0.500000 0.000000
0.206802 0.121598 0.124291 0.600000 0.000000 0.300000
0.341595 0.172013 0.143616 0.300000 0.000000 0.600000
-0.445399 0.375464 0.296223 0.600000 0.300000 0.000000
-0.411141 -0.640663 -0.336491 0.300000 0.000000 0.600000
-0.368997 -0.255458 -0.375841 0.300000 0.000000 0.600000
0.345529 0.062573 -0.120520 0.000000 1.000000 0.000000
0.140112 -0.514556 0.354780 0.000000 1.000000 0.000000
0.413410 -0.779385 0.266871 0.300000 0.600000 0.000000
-0.400124 -0.540789 0.094524 0.600000 0.000000 0.300000
-0.133780 0.250612 0.358687 0.600000 0.000000 0.300000
0.315362 0.241390 -0.103818 0.300000 0.000000 0.600000
0.398517 0.377371 0.337671 0.300000 0.600000 0.000000
-0.314234 0.268558 0.294968 0.600000 0.300000 0.000000
-0.072136 -0.554899 0.319338 0.000000 1.000000 0.000000
0.308633 0.393575 -0.445284 0.000000 0.500000 0.500000
0.012347 0.416721 -0.139888 0.000000 0.500000 0.500000
0.304208 -0.514556 -0.064496 0.000000 0.000000 1.000000
-0.258396 0.158140 -0.336491 0.500000 0.500000 0.000000
-0.074254 -0.514573 -0.156718 0.000000 0.000000 1.000000
0.315362 0.199810 0.265457 0.300000 0.000000 0.600000
0.378985 0.101923 0.239159 0.000000 1.000000 0.000000
-0.428739 -0.263101 -0.375841 0.300000 0.000000 0.600000
0.080722 0.377371 0.043114 0.000000 0.500000 0.500000
-0.011390 -0.514556 0.242481 1.000000 0.000000 0.000000
-0.419166 0.318543 0.279014 0.600000 0.300000 0.000000
0.446527 -0.543257 -0.279907 0.800000 0.200000 0.500000
0.275496 -0.515189 -0.185533 0.500000 0.000000 0.500000
-0.381112 -0.567022 0.070926 0.600000 0.000000 0.300000
-0.179592 0.377371 -0.107456 0.000000 0.500000 0.500000
0.380648 0.294810 -0.375841 0.600000 0.000000 0.300000
-0.197002 0.179827 -0.375841 0.500000 0.500000 0.000000
-0.353583 0.320369 0.347672 0.600000 0.300000 0.000000
0.407178 -0.814237 -0.311169 0.600000 0.000000 0.300000
-0.183392 0.377371 0.241057 0.000000 0.500000 0.500000
0.144517 -0.540789 -0.194276 0.500000 0.000000 0.500000
0.026797 0.099753 -0.094011 0.800000 0.200000 0.500000
0.053044 0.377371 -0.324852 0.000000 0.500000 0.500000
-0.445399 -0.190403 0.332223 0.600000 0.300000 0.000000
-0.406050 -0.437356 0.300029 0.600000 0.300000 0.000000
-0.180567 -0.518078 0.166198 1.000000 0.000000 0.000000
0.096472 0.416721 0.322383 0.000000 0.500000 0.500000
-0.368870 0.266375 0.377480 0.600000 0.000000 0.300000
0.315362 0.235480 0.168657 0.300000 0.000000 0.600000
-0.314234 0.278952 -0.059541 0.600000 0.300000 0.000000
-0.432283 0.192681 -0.301004 0.500000 0.000000 0.500000
-0.220952 -0.514556 -0.086223 0.000000 0.000000 1.000000
0.395377 -0.509368 -0.336491 0.600000 0.000000 0.300000
0.446527 0.358230 -0.086798 0.000000 0.500000 0.500000
-0.353583 -0.549966 -0.337362 0.000000 0.000000 1.000000
-0.422232 -0.317368 0.358687 0.600000 0.300000 0.000000
-0.445399 0.347215 -0.181841 0.500000 0.000000 0.500000
-0.386211 -0.719530 0.322552 0.600000 0.300000 0.000000
-0.369889 0.416721 0.272780 0.000000 0.500000 0.500000
-0.275895 0.135641 0.339012 0.600000 0.000000 0.300000
-0.358573 0.377371 -0.110900 0.000000 0.500000 0.500000
-0.379212 -0.625463 0.358687 0.600000 0.300000 0.000000
-0.076287 0.416721 -0.008459 0.000000 0.500000 0.500000
0.107837 0.134714 0.012330 0.600000 0.000000 0.300000
0.260203 0.313840 0.378362 0.600000 0.000000 0.300000
0.358707 0.125174 0.358687 0.600000 0.000000 0.300000
0.488676 0.416721 0.100793 0.000000 0.500000 0.500000
-0.445399 -0.502803 -0.219669 1.000000 0.000000 0.000000
-0.223299 0.155271 -0.375841 0.500000 0.500000 0.000000
0.287909 0.377371 0.354503 0.300000 0.000000 0.600000
0.174846 -0.535849 0.164938 1.000000 0.000000 0.000000
0.095779 0.093181 -0.336491 0.500000 0.500000 0.000000
-0.340467 0.197705 0.113422 0.600000 0.300000 0.000000
0.128895 -0.514556 0.022900 0.000000 1.000000 0.000000
0.407178 0.306142 0.187229 0.000000 0.500000 0.500000
-0.270379 0.121598 -0.005999 0.600000 0.000000 0.300000
-0.335392 0.338021 -0.157519 0.500000 0.000000 0.500000
0.460285 0.392454 -0.442295 0.000000 0.500000 0.500000
0.352671 0.338021 0.244909 0.000000 0.500000 0.500000
-0.405089 -0.540789 -0.307370 0.600000 0.000000 0.300000
-0.445399 -0.734175 -0.304652 0.300000 0.000000 0.600000
0.079264 0.106461 -0.013080 0.800000 0.200000 0.500000
0.257200 0.409271 0.437387 0.000000 0.500000 0.500000
-0.301169 0.377371 -0.388577 0.000000 0.500000 0.500000
0.407178 0.203729 0.133798 0.000000 0.500000 0.500000
-0.352193 0.062573 -0.165040 0.000000 0.000000 1.000000
0.273179 0.377371 -0.079930 0.000000 0.500000 0.500000
-0.391782 0.377371 0.100936 0.000000 0.500000 0.500000
0.263022 0.121598 0.075471 0.600000 0.000000 0.300000
-0.044099 0.416721 -0.001335 0.000000 0.500000 0.500000
0.407178 0.173277 -0.106893 0.000000 0.500000 0.500000
0.267302 -0.540789 0.301215 1.000000 0.000000 0.000000
-0.171760 0.134714 -0.174673 0.600000 0.000000 0.300000
-0.197477 0.211575 0.378362 0.600000 0.000000 0.300000
-0.042129 -0.540789 0.264763 1.000000 0.000000 0.000000
-0.311999 0.129415 0.378362 0.600000 0.000000 0.300000
0.446527 0.160933 -0.062015 0.000000 0.500000 0.500000
-0.239589 -0.540789 -0.214671 0.500000 0.000000 0.500000
0.236457 0.416721 0.207197 0.000000 0.500000 0.500000
0.440527 -0.569834 0.062023 0.800000 0.200000 0.500000
-0.356811 0.397045 0.437385 0.000000 0.500000 0.500000
-0.185951 -0.540789 0.110564 0.000000 1.000000 0.000000
0.262606 0.135080 -0.244675 0.300000 0.000000 0.600000
-0.417854 -0.063208 0.358687 0.600000 0.300000 0.000000
0.251298 0.155506 -0.336491 0.500000 0.500000 0.000000
0.365353 0.062573 -0.055337 0.000000 1.000000 0.000000
0.010899 0.377371 0.375118 0.000000 0.500000 0.500000
0.210733 0.287812 0.378362 0.600000 0.000000 0.300000
0.074232 0.377371 0.377939 0.000000 0.500000 0.500000
0.219434 0.242342 0.339012 0.600000 0.000000 0.300000
-0.323136 0.303371 0.349046 0.600000 0.000000 0.300000
-0.130721 -0.540789 -0.103700 0.000000 0.000000 1.000000
0.446527 -0.725848 -0.349065 0.600000 0.000000 0.300000
0.446527 -0.691162 -0.321295 0.600000 0.000000 0.300000
0.349671 0.416721 -0.165545 0.000000 0.500000 0.500000
-0.411157 0.141828 0.358687 0.600000 0.300000 0.000000
-0.027844 0.134714 -0.229964 0.300000 0.000000 0.600000
0.036394 0.377371 -0.216460 0.000000 0.500000 0.500000
-0.264265 0.377371 -0.366382 0.500000 0.500000 0.000000
0.026166 0.161472 -0.218442 0.300000 0.000000 0.600000
0.433411 0.244132 0.282921 0.000000 0.500000 0.500000
0.407178 0.211444 0.295304 0.300000 0.600000 0.000000
-0.340467 0.311146 0.259585 0.600000 0.300000 0.000000
-0.365947 0.101923 0.014321 0.000000 0.000000 1.000000
-0.022110 0.062573 0.221049 1.000000 0.000000 0.000000
-0.353583 -0.059676 0.326551 0.600000 0.300000 0.000000
0.446527 0.298983 0.062822 0.000000 0.500000 0.500000
-0.424923 -0.298610 -0.375841 0.300000 0.000000 0.600000
-0.353583 -0.315195 -0.370816 0.300000 0.000000 0.600000
-0.241010 0.172922 0.358687 0.600000 0.000000 0.300000
0.401002 0.416721 -0.054057 0.000000 0.500000 0.500000
0.446527 0.077262 -0.252244 0.000000 0.500000 0.500000
0.341595 0.275141 0.055203 0.300000 0.000000 0.600000
-0.308608 -0.539058 0.319338 0.000000 1.000000 0.000000
0.379503 -0.681192 -0.373441 0.600000 0.000000 0.300000
0.407906 0.301521 -0.336491 0.600000 0.000000 0.300000
0.417957 0.377371 0.107235 0.000000 0.500000 0.500000
0.407178 -0.745813 0.297429 0.300000 0.600000 0.000000
-0.252907 0.201821 -0.218442 0.300000 0.000000 0.600000
0.368030 -0.514556 0.048182 0.000000 1.000000 0.000000
0.407178 -0.575562 0.221296 0.800000 0.200000 0.500000
-0.073025 0.134714 -0.189208 0.600000 0.000000 0.300000
0.500377 0.416721 -0.272179 0.000000 0.500000 0.500000
-0.257468 0.377371 -0.096763 0.000000 0.500000 0.500000
0.219095 -0.547953 -0.375841 0.000000 0.000000 1.000000
0.407178 0.223297 0.245790 0.000000 0.500000 0.500000
-0.118854 0.134714 0.167701 0.600000 0.000000 0.300000
0.415777 -0.567266 -0.018881 0.800000 0.200000 0.500000
-0.318362 0.301012 -0.218442 0.300000 0.000000 0.600000
0.191458 0.416721 0.018113 0.000000 0.500000 0.500000
0.211226 -0.517392 0.319338 0.000000 1.000000 0.000000
-0.224405 0.416721 0.364380 0.000000 0.500000 0.500000
-0.042232 0.072697 0.319338 1.000000 0.000000 0.000000
-0.216581 -0.553109 -0.375841 0.000000 0.000000 1.000000
-0.092965 0.182159 -0.244675 0.300000 0.000000 0.600000
0.239215 0.134714 0.180094 0.600000 0.000000 0.300000
0.322810 0.068573 0.358687 0.600000 0.000000 0.300000
0.127918 0.377371 -0.142781 0.000000 0.500000 0.500000
-0.230772 0.210764 0.378362 0.600000 0.000000 0.300000
0.394881 0.377371 -0.354127 0.000000 0.500000 0.500000
0.157433 0.134714 0.235748 0.600000 0.000000 0.300000
-0.314234 0.073216 0.079977 0.000000 0.000000 1.000000
-0.051422 -0.525653 -0.375841 0.000000 0.000000 1.000000
0.444632 0.377371 -0.157849 0.000000 0.500000 0.500000
-0.098489 -0.514556 0.302678 1.000000 0.000000 0.000000
-0.120286 -0.514556 0.069442 0.000000 1.000000 0.000000
-0.162364 -0.550054 0.319338 0.000000 1.000000 0.000000
-0.394580 0.158059 -0.375841 0.300000 0.000000 0.600000
-0.156847 0.260489 -0.375841 0.500000 0.500000 0.000000
0.489115 0.387686 -0.429581 0.000000 0.500000 0.500000
0.353084 0.101923 -0.106874 0.000000 1.000000 0.000000
0.147755 0.416721 -0.287724 0.000000 0.500000 0.500000
0.155505 0.134714 0.052492 0.600000 0.000000 0.300000
0.017164 -0.516805 0.145736 0.000000 1.000000 0.000000
-0.445399 0.123108 0.162354 0.500000 0.000000 0.500000
-0.432283 0.327227 -0.284160 0.500000 0.000000 0.500000
0.189512 0.180098 -0.218442 0.300000 0.000000 0.600000
-0.274419 0.416721 -0.296143 0.000000 0.500000 0.500000
-0.381258 -0.023018 0.319338 0.600000 0.300000 0.000000
-0.346933 0.101923 -0.174881 0.000000 0.000000 1.000000
-0.432187 0.235473 -0.336491 0.300000 0.000000 0.600000
0.446527 -0.515551 -0.187286 0.800000 0.200000 0.500000
0.256182 -0.514556 -0.070014 0.000000 0.000000 1.000000
-0.445399 0.163019 0.148305 0.500000 0.000000 0.500000
-0.445399 -0.782810 0.282199 0.600000 0.300000 0.000000
-0.406050 0.312231 0.006711 0.500000 0.000000 0.500000
0.425381 -0.457069 0.358687 0.300000 0.600000 0.000000
0.446527 0.077835 0.238031 0.000000 0.500000 0.500000
0.072085 -0.514556 -0.049051 0.000000 0.000000 1.000000
-0.201656 0.377371 -0.344464 0.000000 0.500000 0.500000
0.140464 0.121598 -0.089732 0.600000 0.000000 0.300000
0.305988 0.377371 -0.054138 0.000000 0.500000 0.500000
0.407178 0.159193 0.025484 0.000000 0.500000 0.500000
-0.420045 0.416721 0.119629 0.000000 0.500000 0.500000
0.315362 0.173419 0.058597 0.300000 0.000000 0.600000
-0.071815 0.416721 -0.272202 0.000000 0.500000 0.500000
0.008473 -0.514556 0.355984 0.000000 1.000000 0.000000
-0.420971 -0.580427 -0.303699 0.300000 0.000000 0.600000
0.266811 0.238900 0.339012 0.600000 0.000000 0.300000
-0.105969 0.101923 -0.306725 0.500000 0.500000 0.000000
0.026612 0.260944 -0.375841 0.500000 0.500000 0.000000
-0.030878 0.134714 0.105999 0.600000 0.000000 0.300000
-0.340467 0.184826 -0.063983 0.600000 0.300000 0.000000
0.341595 0.199239 0.181170 0.300000 0.000000 0.600000
-0.385851 -0.514556 -0.042743 0.000000 0.000000 1.000000
-0.386166 0.273932 0.319338 0.600000 0.300000 0.000000
0.446527 0.131952 -0.267407 0.000000 0.500000 0.500000
0.257691 0.200767 -0.244675 0.300000 0.000000 0.600000
0.210472 0.109321 0.378362 0.600000 0.000000 0.300000
-0.286127 -0.570483 0.358687 0.000000 1.000000 0.000000
-0.169574 -0.514556 0.035439 0.000000 1.000000 0.000000
-0.278991 0.283241 -0.218442 0.300000 0.000000 0.600000
0.446527 -0.624666 0.331146 0.300000 0.600000 0.000000
0.418851 -0.453852 -0.336491 0.600000 0.000000 0.300000
-0.413353 0.059977 0.058985 0.500000 0.000000 0.500000
-0.032949 0.134104 -0.270908 0.600000 0.000000 0.300000
0.288235 0.074365 0.214405 1.000000 0.000000 0.000000
0.315362 0.091214 0.168343 0.000000 1.000000 0.000000
-0.156498 0.416721 -0.182348 0.000000 0.500000 0.500000
0.083008 -0.514556 0.345429 0.000000 1.000000 0.000000
0.041806 0.162425 -0.244675 0.300000 0.000000 0.600000
0.380945 -0.563593 0.009039 0.300000 0.600000 0.000000
0.006707 0.101923 -0.242703 0.800000 0.200000 0.500000
0.088223 0.062573 -0.245154 0.500000 0.500000 0.000000
-0.135125 0.067908 -0.336491 0.500000 0.500000 0.000000
-0.359448 0.083503 0.319338 0.000000 0.000000 1.000000
0.446527 -0.305831 -0.299054 0.600000 0.000000 0.300000
0.021841 0.377371 0.313309 0.300000 0.000000 0.600000
0.139140 -0.560112 -0.365610 0.000000 0.000000 1.000000
-0.136931 0.377371 -0.205215 0.000000 0.500000 0.500000
-0.168150 0.062573 -0.233669 0.500000 0.500000 0.000000
0.236517 0.266814 -0.244675 0.300000 0.000000 0.600000
-0.445399 -0.460641 0.329918 0.600000 0.300000 0.000000
-0.301415 -0.514556 0.087535 0.000000 1.000000 0.000000
-0.340467 0.277169 0.163132 0.600000 0.300000 0.000000
0.205006 0.165713 -0.244675 0.300000 0.000000 0.600000
-0.406050 0.204440 0.229483 0.500000 0.000000 0.500000
0.407178 -0.543696 -0.271651 0.300000 0.600000 0.000000
-0.406050 0.243278 -0.217875 0.500000 0.000000 0.500000
-0.377113 0.338021 -0.195230 0.500000 0.000000 0.500000
-0.403747 0.257330 -0.375841 0.300000 0.000000 0.600000
-0.327641 -0.540789 -0.092761 0.000000 0.000000 1.000000
0.097458 0.377371 0.107354 0.000000 0.500000 0.500000
0.019946 -0.514556 0.189125 1.000000 0.000000 0.000000
-0.026780 -0.549971 -0.375841 0.000000 0.000000 1.000000
0.265202 0.101923 0.311438 1.000000 0.000000 0.000000
0.344049 0.338021 0.296515 0.000000 0.500000 0.500000
-0.071659 0.377371 0.259416 0.300000 0.000000 0.600000
-0.210061 -0.566102 0.358687 0.000000 1.000000 0.000000
0.420422 0.036897 0.214016 0.000000 0.500000 0.500000
-0.073466 0.121598 -0.236567 0.800000 0.200000 0.500000
0.446527 0.208452 -0.192559 0.000000 0.500000 0.500000
0.446527 0.325087 -0.225415 0.000000 0.500000 0.500000
0.219342 0.377371 -0.268151 0.000000 0.500000 0.500000
-0.213079 0.292664 -0.375841 0.500000 0.500000 0.000000
-0.406050 0.182838 -0.150772 0.500000 0.000000 0.500000
0.123592 0.168901 -0.244675 0.300000 0.000000 0.600000
-0.406050 0.178804 -0.269533 0.500000 0.000000 0.500000
0.315362 0.088909 -0.253881 0.000000 1.000000 0.000000
0.073033 0.328200 -0.375841 0.500000 0.500000 0.000000
-0.191668 0.416721 0.365209 0.000000 0.500000 0.500000
0.341595 0.285285 0.109056 0.300000 0.000000 0.600000
0.334779 0.377371 -0.002022 0.000000 0.500000 0.500000
0.140258 -0.514556 -0.111144 0.000000 0.000000 1.000000
0.078181 -0.556006 -0.338281 0.000000 0.000000 1.000000
0.303853 0.377371 0.231369 0.000000 0.500000 0.500000
-0.307489 0.134714 -0.264677 0.600000 0.000000 0.300000
0.426997 -0.155285 -0.375841 0.600000 0.000000 0.300000
-0.445399 0.349933 0.277960 0.600000 0.300000 0.000000
-0.297997 -0.514556 0.276321 1.000000 0.000000 0.000000
0.368904 0.101923 0.099844 0.000000 1.000000 0.000000
-0.406050 0.317666 0.064978 0.500000 0.000000 0.500000
-0.138189 -0.541322 -0.375841 0.000000 0.000000 1.000000
0.047173 0.416721 0.423891 0.000000 0.500000 0.500000
-0.203045 0.377371 -0.238936 0.000000 0.500000 0.500000
0.488226 0.416721 0.350999 0.000000 0.500000 0.500000
0.060157 -0.540789 -0.241450 0.500000 0.000000 0.500000
0.296919 0.065131 0.319338 1.000000 0.000000 0.000000
-0.162207 0.134714 -0.141666 0.600000 0.000000 0.300000
0.102156 0.416721 0.271128 0.000000 0.500000 0.500000
0.170405 -0.514556 -0.189670 0.500000 0.000000 0.500000
0.407178 -0.867005 -0.326144 0.600000 0.000000 0.300000
-0.224243 -0.514756 0.005852 0.000000 1.000000 0.000000
0.446527 -0.821199 0.289654 0.300000 0.600000 0.000000
0.216318 0.416721 0.383809 0.000000 0.500000 0.500000
0.407178 0.270780 0.289930 0.300000 0.600000 0.000000
-0.445399 -0.511453 -0.333755 0.300000 0.000000 0.600000
-0.273712 0.189256 -0.336491 0.500000 0.500000 0.000000
-0.187546 0.101923 -0.332907 0.500000 0.500000 0.000000
-0.271088 0.242261 -0.244675 0.300000 0.000000 0.600000
0.389580 0.377371 0.006204 0.000000 0.500000 0.500000
-0.462296 0.416721 0.159626 0.000000 0.500000 0.500000
-0.406050 -0.093374 -0.313565 0.300000 0.000000 0.600000
-0.037535 -0.514556 0.344289 0.000000 1.000000 0.000000
0.041997 0.145296 -0.336491 0.500000 0.500000 0.000000
-0.406050 0.076850 0.166509 0.000000 0.000000 1.000000
0.055454 0.121598 0.309947 0.600000 0.000000 0.300000
0.341595 0.236906 -0.179114 0.300000 0.000000 0.600000
-0.323974 0.082248 -0.288359 0.500000 0.500000 0.000000
-0.406050 -0.315700 -0.307583 0.300000 0.000000 0.600000
-0.302727 0.377371 -0.162271 0.000000 0.500000 0.500000
0.301814 0.101923 0.295026 1.000000 0.000000 0.000000
0.354711 -0.085034 -0.341485 0.600000 0.000000 0.300000
-0.098630 0.062573 -0.280168 0.500000 0.500000 0.000000
-0.445399 0.362821 -0.022606 0.500000 0.000000 0.500000
0.420526 0.088839 0.319338 0.300000 0.600000 0.000000
-0.248139 0.134714 0.358509 0.600000 0.000000 0.300000
0.307929 -0.535853 -0.002742 0.000000 1.000000 0.000000
0.431520 0.377371 -0.203129 0.000000 0.500000 0.500000
-0.025669 0.084951 -0.011845 0.800000 0.200000 0.500000
0.380749 -0.557390 0.345571 0.300000 0.600000 0.000000
0.150883 0.088588 -0.231558 0.500000 0.500000 0.000000
-0.445399 -0.398863 0.296720 0.600000 0.300000 0.000000
0.117320 0.377371 0.265801 0.000000 0.500000 0.500000
0.058065 0.416721 0.129076 0.000000 0.500000 0.500000
-0.500718 0.416721 0.104746 0.000000 0.500000 0.500000
0.150428 0.134714 -0.043482 0.600000 0.000000 0.300000
0.315362 0.266319 0.330424 0.300000 0.000000 0.600000
0.051298 -0.536743 -0.336491 0.000000 0.000000 1.000000
0.407178 0.079983 0.086242 0.000000 0.500000 0.500000
0.246673 0.377371 0.368884 0.000000 0.500000 0.500000
-0.406050 0.240327 -0.057896 0.500000 0.000000 0.500000
0.383080 0.338021 0.313127 0.000000 0.500000 0.500000
0.095494 0.235430 -0.244675 0.300000 0.000000 0.600000
-0.356119 -0.540789 -0.235266 0.500000 0.000000 0.500000
-0.420341 0.377371 0.047759 0.000000 0.500000 0.500000
-0.445399 0.301253 -0.014108 0.500000 0.000000 0.500000
0.341595 0.303073 0.070935 0.300000 0.000000 0.600000
0.323708 0.134714 -0.217425 0.600000 0.000000 0.300000
-0.188097 0.335981 0.319338 0.300000 0.000000 0.600000
0.413323 0.358390 -0.336491 0.600000 0.000000 0.300000
0.333131 0.311788 0.259939 0.300000 0.000000 0.600000
0.407178 0.120583 -0.168046 0.000000 0.500000 0.500000
0.215979 -0.514556 0.194536 1.000000 0.000000 0.000000
-0.047641 0.416721 0.053469 0.000000 0.500000 0.500000
-0.432205 -0.501439 -0.272084 1.000000 0.000000 0.000000
0.407178 0.347218 0.145496 0.000000 0.500000 0.500000
0.020169 -0.540789 0.089039 0.000000 1.000000 0.000000
0.368732 -0.523366 -0.013127 0.000000 0.000000 1.000000
-0.026870 0.062573 -0.303829 0.500000 0.500000 0.000000
0.285611 0.416721 0.188900 0.000000 0.500000 0.500000
-0.316274 0.338021 0.231441 0.500000 0.000000 0.500000
-0.195293 0.416721 -0.430756 0.000000 0.500000 0.500000
0.136276 0.121598 0.308637 0.600000 0.000000 0.300000
-0.309217 0.416721 0.316816 0.000000 0.500000 0.500000
-0.353583 -0.496602 -0.353981 0.300000 0.000000 0.600000
0.446527 -0.883647 0.307249 0.300000 0.600000 0.000000
0.038578 -0.517098 -0.017838 0.000000 0.000000 1.000000
-0.187905 0.090065 -0.231558 0.500000 0.500000 0.000000
0.007620 0.062573 -0.300239 0.500000 0.500000 0.000000
0.254839 -0.540789 -0.282711 0.500000 0.000000 0.500000
-0.445399 0.160841 0.019246 0.500000 0.000000 0.500000
-0.105276 0.377371 0.166677 0.000000 0.500000 0.500000
-0.032619 0.101923 0.114960 0.800000 0.200000 0.500000
-0.332490 0.377371 -0.062155 0.500000 0.000000 0.500000
-0.029574 0.377371 0.175831 0.000000 0.500000 0.500000
0.315362 0.186040 0.107306 0.300000 0.000000 0.600000
-0.406678 -0.110049 -0.375841 0.300000 0.000000 0.600000
0.316526 -0.540789 0.216262 1.000000 0.000000 0.000000
0.446527 -0.851034 -0.293794 0.600000 0.000000 0.300000
0.169385 0.089663 0.358687 0.600000 0.000000 0.300000
-0.372928 0.101923 -0.194925 0.000000 0.000000 1.000000
-0.445399 -0.745555 0.276384 0.600000 0.300000 0.000000
0.074111 -0.540789 0.274368 1.000000 0.000000 0.000000
0.446527 -0.507804 -0.327983 0.600000 0.000000 0.300000
-0.476198 0.416721 -0.036830 0.000000 0.500000 0.500000
-0.433813 -0.638090 0.319338 0.600000 0.300000 0.000000
0.003633 0.377371 0.185829 0.000000 0.500000 0.500000
0.446527 0.213386 -0.230812 0.000000 0.500000 0.500000
0.290940 0.350506 0.240638 0.300000 0.000000 0.600000
0.346709 0.024870 0.333454 0.600000 0.000000 0.300000
0.321062 0.416721 0.081188 0.000000 0.500000 0.500000
-0.071762 0.241987 0.358687 0.600000 0.000000 0.300000
-0.375833 -0.450135 0.358687 0.600000 0.300000 0.000000
-0.379816 -0.554469 0.132003 0.600000 0.000000 0.300000
-0.098522 -0.514556 -0.081939 0.000000 0.000000 1.000000
-0.445399 0.338558 -0.368300 0.300000 0.000000 0.600000
-0.365372 -0.515673 0.143550 0.000000 1.000000 0.000000
-0.358035 0.194748 0.319338 0.600000 0.300000 0.000000
0.407178 0.149972 0.263842 0.000000 0.500000 0.500000
0.016522 0.082248 0.017201 0.800000 0.200000 0.500000
0.408835 0.110201 0.358687 0.300000 0.600000 0.000000
0.245299 -0.515436 0.170616 1.000000 0.000000 0.000000
0.446527 0.356661 -0.371422 0.600000 0.000000 0.300000
-0.296671 -0.540789 0.135013 0.000000 1.000000 0.000000
-0.068840 0.285544 -0.336491 0.500000 0.500000 0.000000
-0.140273 0.199919 -0.375841 0.500000 0.500000 0.000000
-0.249218 0.345804 0.240638 0.300000 0.000000 0.600000
-0.432455 -0.250309 -0.284025 0.300000 0.000000 0.600000
0.407178 0.311072 -0.258557 0.000000 0.500000 0.500000
-0.025669 0.114175 0.085419 0.800000 0.200000 0.500000
0.233302 -0.514556 -0.217764 0.500000 0.000000 0.500000
0.407178 0.304803 0.128135 0.000000 0.500000 0.500000
0.354711 -0.394998 0.327945 0.300000 0.600000 0.000000
-0.142509 0.348337 0.319338 0.300000 0.000000 0.600000
-0.145811 -0.514556 0.336480 0.000000 1.000000 0.000000
-0.340467 0.254122 -0.138819 0.600000 0.300000 0.000000
-0.445399 -0.601530 -0.318151 0.300000 0.000000 0.600000
-0.445399 -0.647727 -0.294879 0.300000 0.000000 0.600000
0.383449 -0.514556 0.218462 1.000000 0.000000 0.000000
-0.445399 0.265094 0.226128 0.500000 0.000000 0.500000
0.416508 -0.570079 -0.082632 0.800000 0.200000 0.500000
-0.445399 0.248132 0.083726 0.500000 0.000000 0.500000
0.446527 0.202205 -0.265899 0.000000 0.500000 0.500000
-0.186411 0.168691 0.378362 0.600000 0.000000 0.300000
0.390564 -0.514556 0.104121 0.000000 1.000000 0.000000
-0.340467 0.208026 0.220674 0.600000 0.300000 0.000000
-0.373730 -0.514556 0.207638 1.000000 0.000000 0.000000
-0.104443 0.198705 0.339012 0.600000 0.000000 0.300000
0.385615 -0.567022 0.101488 0.300000 0.600000 0.000000
-0.018598 0.189006 0.413489 0.300000 0.600000 0.000000
-0.406050 -0.705498 -0.329322 0.300000 0.000000 0.600000
-0.294356 0.267066 0.358687 0.600000 0.000000 0.300000
-0.406050 0.136215 0.219827 0.500000 0.000000 0.500000
0.297241 0.377371 -0.025209 0.000000 0.500000 0.500000
-0.419105 -0.501439 0.220304 1.000000 0.000000 0.000000
-0.406050 -0.540508 -0.113573 0.000000 0.000000 1.000000
-0.407525 -0.340077 -0.375841 0.300000 0.000000 0.600000
0.150303 0.254433 -0.218442 0.300000 0.000000 0.600000
-0.383336 0.226348 0.358687 0.600000 0.300000 0.000000
