-0.464924 0.332185 0.279062 0.600000 0.000000 0.300000
-0.179875 -0.048979 0.343901 0.600000 0.000000 0.300000
-0.081518 -0.048979 -0.088646 0.600000 0.000000 0.300000
-0.445771 -0.454556 -0.160912 0.600000 0.000000 0.300000
0.229103 0.432369 0.259208 0.600000 0.000000 0.300000
0.425813 -0.507164 -0.288380 0.600000 0.000000 0.300000
-0.534213 0.117217 0.067436 0.600000 0.000000 0.300000
0.503936 -0.622514 0.027403 0.600000 0.000000 0.300000
-0.144849 -0.567075 -0.444707 0.600000 0.000000 0.300000
0.503936 -0.452050 -0.105787 0.600000 0.000000 0.300000
-0.274585 -0.491261 -0.444707 0.600000 0.000000 0.300000
-0.067354 -0.281947 0.390547 0.000000 0.500000 0.500000
0.455801 0.512745 0.279067 0.600000 0.000000 0.300000
0.152548 0.134356 0.017577 0.600000 0.000000 0.300000
0.041038 -0.014398 -0.440440 0.600000 0.000000 0.300000
0.001508 0.582034 0.347053 0.600000 0.000000 0.300000
0.503936 -0.209734 0.243178 0.600000 0.000000 0.300000
-0.192626 -0.521748 0.392758 0.000000 0.500000 0.500000
-0.244464 0.582034 0.130139 0.600000 0.000000 0.300000
0.425813 -0.074387 -0.096290 0.600000 0.000000 0.300000
-0.253531 0.512745 -0.243560 0.600000 0.000000 0.300000
0.122091 0.716891 0.394929 0.600000 0.000000 0.300000
0.503936 0.452104 -0.208450 0.600000 0.000000 0.300000
-0.203091 0.134356 0.243975 0.600000 0.000000 0.300000
0.503936 -0.303660 -0.372247 0.600000 0.000000 0.300000
-0.290311 0.582034 0.053030 0.600000 0.000000 0.300000
-0.459350 0.582034 0.217095 0.600000 0.000000 0.300000
-0.189970 0.134356 -0.287715 0.600000 0.000000 0.300000
-0.534213 -0.328554 -0.292217 0.600000 0.000000 0.300000
0.238878 -0.409322 -0.172599 0.600000 0.300000 0.000000
0.251851 -0.293009 0.320262 0.300000 0.000000 0.600000
-0.252662 -0.766541 -0.413985 0.600000 0.000000 0.300000
-0.128484 -0.766541 -0.439178 0.600000 0.000000 0.300000
-0.496385 0.501658 -0.305407 0.600000 0.000000 0.300000
0.471530 -0.766541 -0.004474 0.600000 0.000000 0.300000
-0.464924 0.214019 -0.271182 0.600000 0.000000 0.300000
0.425813 -0.275446 0.010619 0.600000 0.000000 0.300000
0.505890 -0.524921 0.394929 0.500000 0.000000 0.500000
-0.282003 -0.409912 0.024321 0.600000 0.300000 0.000000
0.145905 -0.286178 -0.174714 0.300000 0.000000 0.600000
0.406647 -0.656067 -0.444707 0.600000 0.000000 0.300000
0.472260 0.695943 -0.440440 0.600000 0.000000 0.300000
-0.276808 0.512745 -0.348694 0.600000 0.000000 0.300000
0.338663 -0.442154 -0.440440 0.600000 0.000000 0.300000
0.506700 0.013897 0.313800 0.600000 0.000000 0.300000
0.063158 0.039462 -0.184366 0.600000 0.000000 0.300000
0.219181 0.696267 -0.080157 0.600000 0.000000 0.300000
-0.082952 -0.678099 0.112434 0.600000 0.000000 0.300000
-0.117058 0.259179 -0.382786 0.600000 0.000000 0.300000
-0.019845 -0.409322 -0.160685 0.600000 0.300000 0.000000
0.097797 -0.766541 -0.031036 0.600000 0.000000 0.300000
0.503936 -0.170032 -0.305032 0.600000 0.000000 0.300000
0.161829 0.299607 -0.440440 0.600000 0.000000 0.300000
-0.032382 0.134356 -0.071517 0.600000 0.000000 0.300000
-0.041335 0.696267 -0.253150 0.600000 0.000000 0.300000
-0.039146 0.626977 0.225691 0.600000 0.000000 0.300000
-0.464924 0.418535 0.232079 0.600000 0.000000 0.300000
0.336708 0.134356 0.315875 0.600000 0.000000 0.300000
0.092686 -0.048979 -0.143481 0.600000 0.000000 0.300000
0.425813 -0.356803 0.318020 0.600000 0.000000 0.300000
-0.369127 0.501658 0.030258 0.600000 0.000000 0.300000
0.029370 -0.307222 0.390547 0.000000 0.500000 0.500000
-0.043357 -0.678099 0.276666 0.600000 0.000000 0.300000
-0.324655 -0.291898 0.059813 0.300000 0.000000 0.600000
0.251807 0.284578 0.337264 0.600000 0.000000 0.300000
-0.015842 -0.048979 0.092070 0.600000 0.000000 0.300000
0.295105 0.582034 -0.309550 0.600000 0.000000 0.300000
-0.309690 0.626977 0.260497 0.600000 0.000000 0.300000
-0.477785 -0.793096 -0.198850 0.600000 0.000000 0.300000
0.077443 0.501658 0.112392 0.600000 0.000000 0.300000
0.060039 0.432369 0.336420 0.600000 0.000000 0.300000
0.270044 -0.252783 -0.444707 0.600000 0.000000 0.300000
-0.198142 0.626977 0.306816 0.600000 0.000000 0.300000
0.208891 0.582034 0.127746 0.600000 0.000000 0.300000
0.430935 0.696267 -0.129083 0.600000 0.000000 0.300000
0.453307 -0.276332 0.390506 0.500000 0.000000 0.500000
-0.372570 -0.286178 0.087466 0.300000 0.000000 0.600000
0.503936 -0.286833 -0.427079 0.600000 0.000000 0.300000
0.327267 0.134356 -0.170949 0.600000 0.000000 0.300000
0.055921 -0.048979 -0.057321 0.600000 0.000000 0.300000
-0.534213 -0.230376 0.239971 0.600000 0.000000 0.300000
-0.269206 0.302636 0.181331 0.600000 0.000000 0.300000
0.201807 0.432369 -0.349712 0.600000 0.000000 0.300000
0.503936 0.073411 -0.295222 0.600000 0.000000 0.300000
-0.192967 -0.151412 -0.440440 0.600000 0.000000 0.300000
-0.534213 -0.461397 -0.009233 0.600000 0.000000 0.300000
-0.345457 -0.678099 0.231929 0.600000 0.000000 0.300000
-0.454264 0.470577 0.394929 1.000000 0.000000 0.000000
0.470797 -0.484417 -0.440440 0.600000 0.000000 0.300000
-0.445771 -0.339901 0.241725 0.600000 0.000000 0.300000
0.243973 0.299997 -0.042159 0.600000 0.000000 0.300000
0.240049 -0.409322 0.075460 0.600000 0.300000 0.000000
0.503936 -0.758319 0.234864 0.600000 0.000000 0.300000
-0.208920 -0.678099 0.336766 0.600000 0.000000 0.300000
-0.342276 -0.311436 -0.440440 0.600000 0.000000 0.300000
0.503936 0.091571 0.019973 0.600000 0.000000 0.300000
-0.525367 0.606415 0.067697 0.600000 0.000000 0.300000
-0.260426 -0.766541 0.082653 0.600000 0.000000 0.300000
0.022768 -0.382687 0.392758 0.000000 0.500000 0.500000
0.458924 -0.014182 -0.440440 0.600000 0.000000 0.300000
0.185411 -0.678099 -0.393928 0.600000 0.000000 0.300000
0.460138 0.039462 -0.396842 0.600000 0.000000 0.300000
-0.445771 -0.549454 -0.027739 0.600000 0.000000 0.300000
-0.214506 -0.294056 -0.200634 0.300000 0.000000 0.600000
-0.112105 0.294758 0.183750 0.600000 0.000000 0.300000
0.006780 0.696267 -0.381831 0.600000 0.000000 0.300000
-0.385891 0.137284 -0.382786 0.600000 0.000000 0.300000
0.104673 0.036096 0.376822 0.500000 0.000000 0.500000
-0.075229 -0.414687 0.002415 0.600000 0.300000 0.000000
0.502625 0.534207 0.007277 0.600000 0.000000 0.300000
-0.046259 0.533262 0.366900 0.600000 0.000000 0.300000
0.419166 0.187381 0.108711 0.600000 0.000000 0.300000
-0.306923 0.696267 -0.337528 0.600000 0.000000 0.300000
0.098630 0.412791 -0.382786 0.600000 0.000000 0.300000
0.338822 -0.678099 0.073355 0.600000 0.000000 0.300000
-0.445771 -0.373104 0.075240 0.600000 0.000000 0.300000
0.078417 -0.678099 -0.121077 0.600000 0.000000 0.300000
-0.538514 0.178598 0.336452 0.600000 0.000000 0.300000
0.157042 0.525749 0.390506 0.600000 0.000000 0.300000
-0.534213 -0.329103 -0.137193 0.600000 0.000000 0.300000
-0.525367 0.644414 0.278833 0.600000 0.000000 0.300000
-0.321483 0.302636 0.229706 0.600000 0.000000 0.300000
-0.133028 -0.421941 0.267762 0.600000 0.300000 0.000000
-0.464924 0.290554 -0.322140 0.600000 0.000000 0.300000
-0.534213 -0.177320 0.015461 0.600000 0.000000 0.300000
0.065039 0.512745 -0.158948 0.600000 0.000000 0.300000
0.280347 0.626977 -0.258617 0.600000 0.000000 0.300000
-0.525367 0.520744 0.141835 0.600000 0.000000 0.300000
-0.004429 0.039462 0.309569 0.600000 0.000000 0.300000
0.174841 -0.678099 -0.328300 0.600000 0.000000 0.300000
-0.506408 0.154947 -0.440440 0.600000 0.000000 0.300000
0.503936 0.271627 0.169158 0.600000 0.000000 0.300000
-0.119045 -0.413901 -0.202475 0.600000 0.300000 0.000000
-0.316794 0.501658 -0.393051 0.600000 0.000000 0.300000
0.503936 -0.685083 0.055760 0.600000 0.000000 0.300000
-0.156108 -0.766541 0.089493 0.600000 0.000000 0.300000
-0.126923 -0.415752 0.029732 0.600000 0.300000 0.000000
-0.086788 -0.110160 -0.444707 0.600000 0.000000 0.300000
-0.049887 -0.678099 -0.053427 0.600000 0.000000 0.300000
0.064431 -0.242220 -0.444707 0.600000 0.000000 0.300000
0.283642 0.039462 0.164933 0.600000 0.000000 0.300000
0.378958 -0.678099 0.198573 0.600000 0.000000 0.300000
0.182255 -0.417623 0.344396 0.600000 0.300000 0.000000
-0.391411 0.134356 0.112354 0.600000 0.000000 0.300000
0.055579 0.582034 0.339086 0.600000 0.000000 0.300000
0.130837 -0.552451 0.392758 0.000000 0.500000 0.500000
0.080697 0.346412 0.390547 0.000000 1.000000 0.000000
-0.242874 0.512745 0.015963 0.600000 0.000000 0.300000
0.007224 0.415999 -0.440440 0.600000 0.000000 0.300000
0.106700 -0.403088 0.392758 0.000000 0.500000 0.500000
-0.541064 0.311560 0.370717 1.000000 0.000000 0.000000
-0.446045 0.501658 -0.253387 0.600000 0.000000 0.300000
0.050333 0.476545 0.366900 0.600000 0.000000 0.300000
-0.094756 0.065067 -0.088773 0.600000 0.000000 0.300000
-0.488274 0.039462 -0.326987 0.600000 0.000000 0.300000
-0.320451 0.134356 0.200437 0.600000 0.000000 0.300000
0.096098 -0.286178 0.051057 0.300000 0.000000 0.600000
0.425813 -0.297236 0.128032 0.600000 0.000000 0.300000
0.503936 -0.396263 -0.212266 0.600000 0.000000 0.300000
-0.505971 -0.245325 0.390506 0.500000 0.000000 0.500000
0.511471 0.081693 0.329049 0.600000 0.000000 0.300000
0.366260 -0.004582 0.366900 0.600000 0.000000 0.300000
-0.431237 0.134356 0.290314 0.600000 0.000000 0.300000
-0.534213 -0.096953 -0.097523 0.600000 0.000000 0.300000
0.288056 0.696267 -0.248356 0.600000 0.000000 0.300000
-0.140771 0.432369 0.124637 0.600000 0.000000 0.300000
0.192850 0.302636 0.053737 0.600000 0.000000 0.300000
0.149993 -0.157417 -0.444707 0.600000 0.000000 0.300000
-0.445771 -0.140465 -0.042846 0.600000 0.000000 0.300000
-0.534213 0.179713 0.158257 0.600000 0.000000 0.300000
-0.180272 0.626977 0.197919 0.600000 0.000000 0.300000
0.054063 0.188643 0.390547 0.000000 1.000000 0.000000
-0.334189 0.696267 0.243671 0.600000 0.000000 0.300000
-0.325099 -0.678099 -0.140370 0.600000 0.000000 0.300000
0.295667 0.302568 -0.228930 0.600000 0.000000 0.300000
-0.445771 -0.461081 -0.097070 0.600000 0.000000 0.300000
-0.168319 0.065067 0.197354 0.600000 0.000000 0.300000
-0.115461 -0.048979 0.080023 0.600000 0.000000 0.300000
0.322062 0.582034 -0.068121 0.600000 0.000000 0.300000
0.137637 -0.766541 0.108400 0.600000 0.000000 0.300000
-0.169574 0.299192 -0.226589 0.600000 0.000000 0.300000
0.336653 0.696267 -0.076555 0.600000 0.000000 0.300000
-0.123194 0.110325 0.366900 0.600000 0.000000 0.300000
-0.191666 0.039462 0.046948 0.600000 0.000000 0.300000
-0.419998 0.672953 0.366900 0.600000 0.000000 0.300000
0.054955 0.696267 -0.312439 0.600000 0.000000 0.300000
-0.534213 -0.055092 -0.181566 0.600000 0.000000 0.300000
-0.445771 -0.244241 0.234318 0.600000 0.000000 0.300000
-0.242198 0.134356 -0.251794 0.600000 0.000000 0.300000
0.237253 0.582034 0.312214 0.600000 0.000000 0.300000
-0.077796 0.134356 0.319230 0.600000 0.000000 0.300000
0.340671 0.039462 0.347717 0.600000 0.000000 0.300000
0.360787 0.110493 0.400520 1.000000 0.000000 0.000000
-0.088106 -0.048979 0.179830 0.600000 0.000000 0.300000
-0.016916 0.582034 0.095762 0.600000 0.000000 0.300000
-0.084410 -0.475862 -0.440440 0.600000 0.000000 0.300000
-0.070887 0.432369 -0.195121 0.600000 0.000000 0.300000
-0.110003 -0.288848 0.172318 0.300000 0.000000 0.600000
-0.113902 -0.766541 -0.369391 0.600000 0.000000 0.300000
-0.058309 -0.291411 -0.212732 0.300000 0.000000 0.600000
0.041290 -0.710065 0.390506 0.500000 0.000000 0.500000
0.502625 0.613890 -0.334006 0.600000 0.000000 0.300000
-0.065287 0.294757 -0.079636 0.600000 0.000000 0.300000
-0.445771 -0.594013 -0.238461 0.600000 0.000000 0.300000
0.425813 -0.198697 0.257388 0.600000 0.000000 0.300000
-0.397344 0.696267 0.173850 0.600000 0.000000 0.300000
0.295667 -0.289421 -0.039113 0.300000 0.000000 0.600000
0.218095 -0.088003 -0.444707 0.600000 0.000000 0.300000
0.036721 0.314556 -0.268923 0.600000 0.000000 0.300000
0.260678 -0.766541 -0.152410 0.600000 0.000000 0.300000
0.109690 -0.240844 0.390547 0.000000 0.500000 0.500000
0.276592 -0.678099 -0.346053 0.600000 0.000000 0.300000
0.393309 0.617322 0.366900 0.600000 0.000000 0.300000
-0.534213 0.385130 0.274511 0.600000 0.000000 0.300000
-0.058309 0.297847 0.180305 0.600000 0.000000 0.300000
-0.534213 0.289851 0.254612 0.600000 0.000000 0.300000
0.352955 -0.766541 0.217803 0.600000 0.000000 0.300000
-0.534213 -0.644431 -0.092227 0.600000 0.000000 0.300000
-0.161696 -0.290265 -0.012281 0.300000 0.000000 0.600000
-0.032097 0.512745 -0.091712 0.600000 0.000000 0.300000
-0.314950 0.062943 0.394929 1.000000 0.000000 0.000000
0.295773 0.294757 -0.000529 0.600000 0.000000 0.300000
0.098880 0.696267 -0.229659 0.600000 0.000000 0.300000
0.502625 0.647785 0.247157 0.600000 0.000000 0.300000
-0.464924 0.224026 -0.108990 0.600000 0.000000 0.300000
-0.212367 -0.208700 0.392758 0.000000 0.500000 0.500000
-0.131534 -0.766541 0.254281 0.600000 0.000000 0.300000
0.239267 0.696267 -0.420453 0.600000 0.000000 0.300000
0.046824 -0.048979 -0.171803 0.600000 0.000000 0.300000
0.295978 0.065067 -0.339978 0.600000 0.000000 0.300000
0.503936 -0.227867 -0.152355 0.600000 0.000000 0.300000
0.425813 -0.383991 -0.019096 0.600000 0.000000 0.300000
0.419166 0.414165 0.175173 0.600000 0.000000 0.300000
0.259221 -0.766541 0.094618 0.600000 0.000000 0.300000
-0.267151 0.134356 -0.127025 0.600000 0.000000 0.300000
0.258914 0.134356 -0.008751 0.600000 0.000000 0.300000
-0.272453 0.478081 0.394929 1.000000 0.000000 0.000000
-0.412762 0.626977 0.135015 0.600000 0.000000 0.300000
0.503936 -0.639578 -0.351108 0.600000 0.000000 0.300000
-0.118181 -0.084701 0.390506 0.500000 0.000000 0.500000
-0.044037 -0.048979 -0.176808 0.600000 0.000000 0.300000
-0.255913 0.039462 -0.163700 0.600000 0.000000 0.300000
0.503936 0.208035 0.339634 0.600000 0.000000 0.300000
-0.144467 0.134356 0.080981 0.600000 0.000000 0.300000
-0.445771 -0.286115 0.350590 0.600000 0.000000 0.300000
0.046341 0.252686 0.390547 0.000000 1.000000 0.000000
-0.464924 0.393873 -0.159942 0.600000 0.000000 0.300000
0.419166 0.196472 -0.021301 0.600000 0.000000 0.300000
0.503936 0.318543 -0.097518 0.600000 0.000000 0.300000
-0.226426 -0.417201 0.207103 0.600000 0.300000 0.000000
0.425813 -0.562286 0.079502 0.600000 0.000000 0.300000
-0.252971 -0.273600 0.392758 0.000000 0.500000 0.500000
0.258133 0.501658 0.245342 0.600000 0.000000 0.300000
-0.250053 -0.766541 -0.206369 0.600000 0.000000 0.300000
-0.124237 -0.678099 0.289427 0.600000 0.000000 0.300000
0.139165 0.134356 -0.324503 0.600000 0.000000 0.300000
0.413548 0.134735 -0.382786 0.600000 0.000000 0.300000
-0.318836 0.302663 -0.217828 0.600000 0.000000 0.300000
0.403070 0.134356 -0.100705 0.600000 0.000000 0.300000
0.425813 -0.600033 0.231128 0.600000 0.000000 0.300000
-0.534213 0.388978 0.039228 0.600000 0.000000 0.300000
-0.077288 0.351930 -0.382786 0.600000 0.000000 0.300000
-0.317085 0.413045 0.394929 1.000000 0.000000 0.000000
-0.100921 0.582034 -0.098792 0.600000 0.000000 0.300000
0.390982 0.696267 0.339769 0.600000 0.000000 0.300000
-0.525367 0.563239 -0.006876 0.600000 0.000000 0.300000
-0.367737 0.039462 0.234412 0.600000 0.000000 0.300000
0.503936 -0.449055 -0.000240 0.600000 0.000000 0.300000
0.203356 0.039462 0.028661 0.600000 0.000000 0.300000
-0.163879 0.618625 0.394929 0.000000 0.000000 1.000000
0.101441 0.090986 -0.440440 0.600000 0.000000 0.300000
-0.192486 0.286930 0.263422 0.600000 0.000000 0.300000
0.100272 0.065067 0.276948 0.600000 0.000000 0.300000
0.503936 -0.509717 0.316746 0.600000 0.000000 0.300000
0.506700 -0.724182 0.322476 0.600000 0.000000 0.300000
0.204633 0.065067 0.272071 0.600000 0.000000 0.300000
0.341149 0.466753 -0.440440 0.600000 0.000000 0.300000
0.318656 0.626977 0.329563 0.600000 0.000000 0.300000
0.040697 -0.294056 0.165858 0.300000 0.000000 0.600000
-0.500738 0.428620 0.366900 0.600000 0.000000 0.300000
-0.007597 -0.270829 -0.244735 0.300000 0.000000 0.600000
0.313439 -0.286451 -0.444707 0.600000 0.000000 0.300000
0.502625 0.612979 -0.080454 0.600000 0.000000 0.300000
0.037199 0.298556 0.111933 0.600000 0.000000 0.300000
-0.416783 0.606440 0.366900 0.600000 0.000000 0.300000
-0.253396 0.065067 0.340651 0.600000 0.000000 0.300000
0.118452 0.268790 -0.382786 0.600000 0.000000 0.300000
-0.534213 -0.717291 0.198004 0.600000 0.000000 0.300000
-0.534213 -0.596089 -0.129333 0.600000 0.000000 0.300000
-0.538514 -0.637243 0.355197 0.600000 0.000000 0.300000
-0.327673 -0.048979 -0.022420 0.600000 0.000000 0.300000
0.236024 -0.766541 -0.048326 0.600000 0.000000 0.300000
-0.224361 -0.678099 -0.251647 0.600000 0.000000 0.300000
0.024689 0.432369 -0.122978 0.600000 0.000000 0.300000
0.188409 0.657310 0.366900 0.600000 0.000000 0.300000
0.350394 -0.678099 0.306284 0.600000 0.000000 0.300000
-0.178204 0.582034 -0.266536 0.600000 0.000000 0.300000
0.419166 0.303468 -0.106984 0.600000 0.000000 0.300000
-0.272961 -0.292825 0.293396 0.300000 0.000000 0.600000
-0.459217 -0.020217 0.366900 0.600000 0.000000 0.300000
-0.014971 0.582034 -0.096175 0.600000 0.000000 0.300000
-0.009714 0.582034 0.028007 0.600000 0.000000 0.300000
0.005898 0.596825 -0.382786 0.600000 0.000000 0.300000
0.419166 0.136338 0.005102 0.600000 0.000000 0.300000
-0.370275 0.015685 -0.440440 0.600000 0.000000 0.300000
0.079851 -0.399175 -0.228122 0.600000 0.300000 0.000000
-0.445771 -0.661235 0.320656 0.600000 0.000000 0.300000
-0.398743 -0.342417 0.390547 0.000000 0.500000 0.500000
0.229947 -0.678099 0.346728 0.600000 0.000000 0.300000
-0.145092 0.545187 -0.440440 0.600000 0.000000 0.300000
0.403458 0.432369 0.064052 0.600000 0.000000 0.300000
-0.272961 0.295828 0.328950 0.600000 0.000000 0.300000
0.458133 0.696267 0.158454 0.600000 0.000000 0.300000
0.140586 -0.288932 -0.093789 0.300000 0.000000 0.600000
0.503936 -0.300454 -0.247589 0.600000 0.000000 0.300000
0.294974 0.696267 0.238615 0.600000 0.000000 0.300000
-0.424100 0.432369 -0.001027 0.600000 0.000000 0.300000
0.024686 -0.479090 0.390547 0.000000 0.500000 0.500000
0.232958 0.216682 0.390547 0.000000 1.000000 0.000000
0.355429 0.512745 -0.066927 0.600000 0.000000 0.300000
0.168998 0.696267 -0.327494 0.600000 0.000000 0.300000
0.179039 0.696267 0.206521 0.600000 0.000000 0.300000
0.502625 0.541509 0.108593 0.600000 0.000000 0.300000
-0.534213 -0.702350 -0.199464 0.600000 0.000000 0.300000
-0.364646 0.501658 0.210731 0.600000 0.000000 0.300000
0.425813 -0.406292 0.264563 0.600000 0.000000 0.300000
-0.069649 0.432369 -0.098137 0.600000 0.000000 0.300000
0.037199 -0.288447 0.015220 0.300000 0.000000 0.600000
0.348153 0.432369 0.070367 0.600000 0.000000 0.300000
-0.331236 -0.409322 -0.159393 0.600000 0.300000 0.000000
0.450772 -0.563590 -0.440440 0.600000 0.000000 0.300000
0.434414 0.501658 -0.260670 0.600000 0.000000 0.300000
-0.534441 0.010893 0.373760 0.500000 0.000000 0.500000
-0.504301 -0.221716 -0.440440 0.600000 0.000000 0.300000
-0.445771 -0.572928 -0.174743 0.600000 0.000000 0.300000
0.076773 -0.048979 0.022714 0.600000 0.000000 0.300000
0.232369 -0.048979 -0.340544 0.600000 0.000000 0.300000
-0.272231 0.432369 -0.159004 0.600000 0.000000 0.300000
0.030899 0.134356 0.144748 0.600000 0.000000 0.300000
0.140586 0.295771 -0.066833 0.600000 0.000000 0.300000
-0.144589 0.578305 0.366900 0.600000 0.000000 0.300000
0.188429 -0.048979 -0.390356 0.600000 0.000000 0.300000
-0.276377 0.432369 -0.055647 0.600000 0.000000 0.300000
-0.257875 -0.678099 -0.104578 0.600000 0.000000 0.300000
-0.056787 0.134356 0.018218 0.600000 0.000000 0.300000
0.247978 0.294758 0.098750 0.600000 0.000000 0.300000
0.072443 0.134356 0.328396 0.600000 0.000000 0.300000
0.311778 -0.397106 -0.261988 0.600000 0.300000 0.000000
0.503936 0.190299 -0.142077 0.600000 0.000000 0.300000
-0.117881 -0.293200 -0.100639 0.300000 0.000000 0.600000
0.142533 0.501658 0.218256 0.600000 0.000000 0.300000
0.143334 0.582034 -0.179798 0.600000 0.000000 0.300000
0.425714 -0.048979 0.226238 0.600000 0.000000 0.300000
0.031360 -0.678099 0.198704 0.600000 0.000000 0.300000
0.133314 0.432369 0.360518 0.600000 0.000000 0.300000
0.425813 -0.373769 0.048009 0.600000 0.000000 0.300000
-0.176963 -0.387436 -0.257070 0.600000 0.300000 0.000000
-0.432088 -0.290129 0.199295 0.300000 0.000000 0.600000
0.445310 -0.748882 0.390506 0.500000 0.000000 0.500000
0.087688 -0.744338 0.394929 0.500000 0.000000 0.500000
0.244397 -0.286178 -0.125200 0.300000 0.000000 0.600000
-0.445771 -0.251646 -0.092232 0.600000 0.000000 0.300000
0.212179 0.134356 -0.147005 0.600000 0.000000 0.300000
0.347360 0.296562 0.286474 0.600000 0.000000 0.300000
0.446769 -0.766541 0.204512 0.600000 0.000000 0.300000
-0.360991 0.717476 0.394929 0.600000 0.000000 0.300000
-0.013214 0.582034 -0.242280 0.600000 0.000000 0.300000
0.072197 0.662054 0.366900 0.600000 0.000000 0.300000
-0.077014 0.512745 0.281398 0.600000 0.000000 0.300000
0.019541 0.512745 -0.254285 0.600000 0.000000 0.300000
0.393257 0.065067 0.112712 0.600000 0.000000 0.300000
0.038170 0.432369 0.195913 0.600000 0.000000 0.300000
0.084172 0.039462 0.085650 0.600000 0.000000 0.300000
0.025708 -0.048979 0.130611 0.600000 0.000000 0.300000
0.283565 0.626977 0.179568 0.600000 0.000000 0.300000
-0.074816 -0.563674 -0.444707 0.600000 0.000000 0.300000
-0.534213 -0.137177 -0.297916 0.600000 0.000000 0.300000
-0.282003 -0.412883 0.082997 0.600000 0.300000 0.000000
-0.534213 0.313787 -0.140927 0.600000 0.000000 0.300000
0.419166 0.207531 0.285518 0.600000 0.000000 0.300000
0.036036 -0.415713 -0.093264 0.600000 0.300000 0.000000
0.096026 0.626977 -0.319093 0.600000 0.000000 0.300000
-0.445771 -0.279824 0.095289 0.600000 0.000000 0.300000
-0.445771 -0.318706 -0.376620 0.600000 0.000000 0.300000
-0.316777 0.297165 -0.038726 0.600000 0.000000 0.300000
-0.325818 -0.413743 -0.004192 0.600000 0.300000 0.000000
0.424345 -0.048979 -0.180026 0.600000 0.000000 0.300000
0.283135 0.134356 0.118621 0.600000 0.000000 0.300000
-0.068784 0.696267 0.280286 0.600000 0.000000 0.300000
-0.376769 0.651058 -0.440440 0.600000 0.000000 0.300000
-0.239648 -0.272628 -0.444707 0.600000 0.000000 0.300000
-0.243171 0.039462 0.191111 0.600000 0.000000 0.300000
0.464636 0.512745 -0.103489 0.600000 0.000000 0.300000
0.248336 0.065067 -0.248582 0.600000 0.000000 0.300000
0.419166 0.418856 -0.339785 0.600000 0.000000 0.300000
-0.106346 0.432369 0.291987 0.600000 0.000000 0.300000
-0.495986 0.039462 0.040760 0.600000 0.000000 0.300000
-0.197459 -0.048979 0.110455 0.600000 0.000000 0.300000
0.419166 0.400994 -0.237427 0.600000 0.000000 0.300000
-0.286884 0.501658 0.229690 0.600000 0.000000 0.300000
0.261080 0.512745 -0.218784 0.600000 0.000000 0.300000
0.381604 0.516716 -0.440440 0.600000 0.000000 0.300000
-0.464924 0.417688 0.115653 0.600000 0.000000 0.300000
0.278674 0.582034 0.004242 0.600000 0.000000 0.300000
-0.222432 -0.415025 -0.070759 0.600000 0.300000 0.000000
-0.206656 0.065067 -0.387400 0.600000 0.000000 0.300000
0.425813 -0.544565 -0.022257 0.600000 0.000000 0.300000
0.503936 0.367171 -0.271268 0.600000 0.000000 0.300000
-0.260505 0.603720 -0.440440 0.600000 0.000000 0.300000
0.451662 -0.766541 0.044902 0.600000 0.000000 0.300000
-0.065090 -0.766541 0.324976 0.600000 0.000000 0.300000
0.511471 0.303831 0.354450 0.600000 0.000000 0.300000
-0.417887 -0.562835 0.390506 0.500000 0.000000 0.500000
-0.274125 -0.415500 0.276792 0.600000 0.300000 0.000000
0.032644 0.544796 -0.440440 0.600000 0.000000 0.300000
0.144904 0.294757 -0.163073 0.600000 0.000000 0.300000
0.425813 -0.631136 -0.035889 0.600000 0.000000 0.300000
-0.034872 0.518099 -0.440440 0.600000 0.000000 0.300000
-0.126923 -0.412945 0.121734 0.600000 0.300000 0.000000
0.145195 -0.678099 -0.277279 0.600000 0.000000 0.300000
0.425813 -0.514146 -0.394630 0.600000 0.000000 0.300000
-0.230625 -0.648058 0.390506 0.500000 0.000000 0.500000
-0.073616 0.696267 -0.344131 0.600000 0.000000 0.300000
0.390935 0.065067 0.253447 0.600000 0.000000 0.300000
0.503936 -0.049890 0.218204 0.600000 0.000000 0.300000
0.182922 -0.647040 -0.444707 0.600000 0.000000 0.300000
0.035162 0.501658 -0.090173 0.600000 0.000000 0.300000
0.328590 0.582034 -0.349446 0.600000 0.000000 0.300000
0.508921 -0.094474 0.349509 0.600000 0.000000 0.300000
0.029489 0.065067 0.053753 0.600000 0.000000 0.300000
-0.070377 0.626977 0.159867 0.600000 0.000000 0.300000
0.460913 0.501658 0.330051 0.600000 0.000000 0.300000
0.425813 -0.370602 -0.392532 0.600000 0.000000 0.300000
-0.015658 -0.415593 0.067727 0.600000 0.300000 0.000000
0.293681 0.582034 -0.111769 0.600000 0.000000 0.300000
-0.230577 0.696267 0.185499 0.600000 0.000000 0.300000
-0.065196 -0.286178 0.142372 0.300000 0.000000 0.600000
0.419166 0.184930 0.358918 0.600000 0.000000 0.300000
0.227386 0.582034 0.176383 0.600000 0.000000 0.300000
-0.124011 0.582034 -0.176132 0.600000 0.000000 0.300000
-0.116366 0.626977 0.048288 0.600000 0.000000 0.300000
0.503936 0.333314 -0.393025 0.600000 0.000000 0.300000
-0.482572 0.696267 -0.004305 0.600000 0.000000 0.300000
-0.004092 0.065067 0.108458 0.600000 0.000000 0.300000
-0.534213 0.382642 -0.066369 0.600000 0.000000 0.300000
-0.464350 0.582034 -0.181141 0.600000 0.000000 0.300000
0.318603 0.125757 0.366900 0.600000 0.000000 0.300000
0.052253 0.512745 0.208208 0.600000 0.000000 0.300000
-0.161696 0.296956 0.151719 0.600000 0.000000 0.300000
-0.135093 -0.648209 -0.444707 0.600000 0.000000 0.300000
0.321415 0.626977 -0.189612 0.600000 0.000000 0.300000
0.425813 -0.155302 -0.167503 0.600000 0.000000 0.300000
-0.012536 0.294757 -0.036869 0.600000 0.000000 0.300000
0.340156 0.512745 -0.287978 0.600000 0.000000 0.300000
-0.284429 0.626977 -0.301890 0.600000 0.000000 0.300000
0.502625 0.634970 -0.032991 0.600000 0.000000 0.300000
-0.122963 0.582034 0.267769 0.600000 0.000000 0.300000
-0.390679 -0.279384 -0.440440 0.600000 0.000000 0.300000
0.214215 0.134356 0.083054 0.600000 0.000000 0.300000
0.182106 0.065067 -0.066670 0.600000 0.000000 0.300000
-0.117890 -0.358012 -0.440440 0.600000 0.000000 0.300000
-0.306879 0.501658 -0.287697 0.600000 0.000000 0.300000
0.503936 0.268733 -0.262252 0.600000 0.000000 0.300000
-0.190758 0.582034 0.143576 0.600000 0.000000 0.300000
0.201227 0.432369 -0.227715 0.600000 0.000000 0.300000
0.503936 -0.180028 0.314911 0.600000 0.000000 0.300000
-0.272942 0.295709 0.126251 0.600000 0.000000 0.300000
0.246756 0.095676 0.366900 0.600000 0.000000 0.300000
-0.115234 0.134356 -0.004150 0.600000 0.000000 0.300000
0.214788 -0.048979 0.335197 0.600000 0.000000 0.300000
-0.177256 0.512745 0.166297 0.600000 0.000000 0.300000
-0.396699 0.626977 0.318846 0.600000 0.000000 0.300000
-0.266904 -0.286178 -0.080453 0.300000 0.000000 0.600000
-0.263564 -0.076989 -0.444707 0.600000 0.000000 0.300000
-0.264578 0.582034 0.364064 0.600000 0.000000 0.300000
0.503936 0.435675 0.358102 0.600000 0.000000 0.300000
-0.324655 -0.288485 -0.038806 0.300000 0.000000 0.600000
0.243973 -0.290250 0.207481 0.300000 0.000000 0.600000
0.015130 0.034243 -0.440440 0.600000 0.000000 0.300000
-0.183472 -0.048979 -0.148872 0.600000 0.000000 0.300000
0.425813 -0.560146 0.272093 0.600000 0.000000 0.300000
0.417353 0.285992 -0.187828 0.600000 0.000000 0.300000
-0.414714 0.065858 -0.440440 0.600000 0.000000 0.300000
-0.255178 0.696267 0.320877 0.600000 0.000000 0.300000
-0.409436 0.626977 -0.250765 0.600000 0.000000 0.300000
0.419166 0.266124 0.291973 0.600000 0.000000 0.300000
0.212841 0.582034 -0.284982 0.600000 0.000000 0.300000
-0.525367 0.634046 -0.144817 0.600000 0.000000 0.300000
0.188165 -0.417201 0.174864 0.600000 0.300000 0.000000
-0.434202 0.293919 0.230126 0.600000 0.000000 0.300000
-0.118030 0.501658 -0.338686 0.600000 0.000000 0.300000
-0.248297 0.582034 -0.040914 0.600000 0.000000 0.300000
-0.464924 0.347553 0.037001 0.600000 0.000000 0.300000
0.438283 0.588876 -0.440440 0.600000 0.000000 0.300000
-0.511791 0.252352 -0.440440 0.600000 0.000000 0.300000
-0.369018 0.582034 0.240159 0.600000 0.000000 0.300000
0.314989 0.501658 0.082258 0.600000 0.000000 0.300000
-0.267914 -0.294056 -0.214089 0.300000 0.000000 0.600000
-0.364910 -0.048979 -0.218366 0.600000 0.000000 0.300000
-0.097405 0.432369 -0.030757 0.600000 0.000000 0.300000
-0.278168 0.134356 0.291247 0.600000 0.000000 0.300000
-0.534213 0.425487 0.172434 0.600000 0.000000 0.300000
-0.372842 -0.032471 0.366900 0.600000 0.000000 0.300000
-0.375759 0.582034 -0.153382 0.600000 0.000000 0.300000
0.338463 -0.482076 0.392758 0.000000 0.500000 0.500000
-0.414800 0.432369 -0.100318 0.600000 0.000000 0.300000
0.503936 -0.501544 -0.260164 0.600000 0.000000 0.300000
0.445559 -0.039250 0.410664 0.300000 0.600000 0.000000
0.448729 0.696267 -0.282640 0.600000 0.000000 0.300000
0.314804 -0.048979 -0.409971 0.600000 0.000000 0.300000
0.051788 0.039462 -0.007603 0.600000 0.000000 0.300000
-0.165312 0.696267 0.330030 0.600000 0.000000 0.300000
-0.372911 0.512745 0.102544 0.600000 0.000000 0.300000
-0.205674 -0.678099 -0.013539 0.600000 0.000000 0.300000
-0.019515 -0.766541 -0.047352 0.600000 0.000000 0.300000
0.337519 0.065067 -0.250033 0.600000 0.000000 0.300000
-0.464924 0.137220 -0.193731 0.600000 0.000000 0.300000
-0.012143 -0.048979 -0.309774 0.600000 0.000000 0.300000
-0.437726 0.696267 -0.395834 0.600000 0.000000 0.300000
-0.173337 0.501658 0.332159 0.600000 0.000000 0.300000
0.052086 -0.423302 0.342525 0.600000 0.300000 0.000000
-0.211552 0.582034 0.261282 0.600000 0.000000 0.300000
0.198562 0.297551 -0.224772 0.600000 0.000000 0.300000
-0.404755 0.626977 -0.147841 0.600000 0.000000 0.300000
0.503936 -0.336225 0.014951 0.600000 0.000000 0.300000
-0.391331 -0.048979 0.068759 0.600000 0.000000 0.300000
-0.200837 -0.048979 -0.001669 0.600000 0.000000 0.300000
-0.104501 0.512745 -0.141572 0.600000 0.000000 0.300000
0.456237 -0.663144 0.366900 0.600000 0.000000 0.300000
0.290716 0.610641 0.388294 0.600000 0.000000 0.300000
0.047131 0.626977 -0.378727 0.600000 0.000000 0.300000
0.096771 0.302313 -0.039485 0.600000 0.000000 0.300000
-0.496012 -0.534150 -0.440440 0.600000 0.000000 0.300000
0.425813 -0.118064 0.188418 0.600000 0.000000 0.300000
0.503936 -0.685016 -0.385735 0.600000 0.000000 0.300000
-0.041434 0.100465 0.394929 1.000000 0.000000 0.000000
-0.158238 -0.766541 -0.256997 0.600000 0.000000 0.300000
-0.261130 0.134356 -0.318319 0.600000 0.000000 0.300000
-0.316777 -0.293018 -0.148116 0.300000 0.000000 0.600000
-0.258082 -0.048979 0.293352 0.600000 0.000000 0.300000
0.285619 -0.188824 0.390547 0.000000 0.500000 0.500000
0.299703 0.501658 -0.090673 0.600000 0.000000 0.300000
0.117721 -0.766541 -0.335344 0.600000 0.000000 0.300000
-0.534213 -0.585996 -0.278505 0.600000 0.000000 0.300000
-0.171155 -0.766541 -0.079419 0.600000 0.000000 0.300000
0.425813 -0.186555 -0.380618 0.600000 0.000000 0.300000
-0.324655 0.298506 0.102949 0.600000 0.000000 0.300000
0.394867 0.696267 -0.017188 0.600000 0.000000 0.300000
-0.449045 0.626977 -0.308916 0.600000 0.000000 0.300000
0.347734 0.432369 0.193699 0.600000 0.000000 0.300000
-0.445771 -0.426694 0.097823 0.600000 0.000000 0.300000
0.071699 -0.178372 -0.444707 0.600000 0.000000 0.300000
-0.037916 -0.397586 0.390547 0.000000 0.500000 0.500000
-0.291634 -0.086460 0.390547 0.000000 0.500000 0.500000
0.373059 0.372012 -0.382786 0.600000 0.000000 0.300000
0.503936 -0.729365 -0.149337 0.600000 0.000000 0.300000
0.218814 0.293837 -0.382786 0.600000 0.000000 0.300000
0.258379 0.582034 -0.159241 0.600000 0.000000 0.300000
-0.328835 0.626977 -0.118749 0.600000 0.000000 0.300000
-0.376371 -0.048979 -0.314123 0.600000 0.000000 0.300000
0.253570 -0.369853 -0.440440 0.600000 0.000000 0.300000
0.150447 0.696267 -0.013795 0.600000 0.000000 0.300000
-0.193072 0.521665 0.376588 0.600000 0.000000 0.300000
0.288629 0.147329 -0.382786 0.600000 0.000000 0.300000
-0.116891 -0.294056 -0.162925 0.300000 0.000000 0.600000
0.376611 -0.484322 -0.444707 0.600000 0.000000 0.300000
-0.176604 0.582034 -0.168925 0.600000 0.000000 0.300000
0.366061 0.696267 -0.349714 0.600000 0.000000 0.300000
0.419166 0.192332 0.234351 0.600000 0.000000 0.300000
-0.184431 0.626977 -0.093246 0.600000 0.000000 0.300000
-0.297834 -0.656776 -0.444707 0.600000 0.000000 0.300000
-0.234294 0.582034 -0.152490 0.600000 0.000000 0.300000
0.425813 -0.464987 -0.174241 0.600000 0.000000 0.300000
0.292910 -0.792176 0.367749 0.600000 0.000000 0.300000
0.419166 0.247250 -0.004303 0.600000 0.000000 0.300000
0.502625 0.654723 -0.438487 0.600000 0.000000 0.300000
-0.525367 0.546006 -0.326740 0.600000 0.000000 0.300000
0.236883 -0.417201 0.253279 0.600000 0.300000 0.000000
-0.013310 0.696267 0.073113 0.600000 0.000000 0.300000
0.197055 -0.315153 0.390547 0.000000 0.500000 0.500000
0.457584 -0.696546 -0.440440 0.600000 0.000000 0.300000
-0.117881 0.301588 0.017550 0.600000 0.000000 0.300000
0.236173 0.065067 -0.409881 0.600000 0.000000 0.300000
0.425813 -0.651115 -0.351155 0.600000 0.000000 0.300000
-0.117843 0.432369 -0.319788 0.600000 0.000000 0.300000
0.283310 -0.678099 -0.044815 0.600000 0.000000 0.300000
-0.534213 -0.466152 0.229270 0.600000 0.000000 0.300000
0.299279 0.626977 -0.140634 0.600000 0.000000 0.300000
-0.239713 0.348865 -0.440440 0.600000 0.000000 0.300000
-0.281130 -0.678099 -0.354865 0.600000 0.000000 0.300000
0.219945 0.582034 0.077977 0.600000 0.000000 0.300000
-0.541064 0.352091 0.340053 0.600000 0.000000 0.300000
0.503936 -0.319213 0.263373 0.600000 0.000000 0.300000
0.208472 -0.678099 0.151181 0.600000 0.000000 0.300000
-0.009254 0.582034 -0.188309 0.600000 0.000000 0.300000
-0.429955 0.582034 0.020483 0.600000 0.000000 0.300000
-0.534213 -0.229296 -0.087435 0.600000 0.000000 0.300000
0.436475 -0.403760 -0.440440 0.600000 0.000000 0.300000
-0.405333 -0.048979 0.272138 0.600000 0.000000 0.300000
0.144410 0.302636 0.038540 0.600000 0.000000 0.300000
-0.332842 0.696267 -0.090933 0.600000 0.000000 0.300000
0.503936 0.320124 -0.290708 0.600000 0.000000 0.300000
-0.445771 -0.639058 0.057524 0.600000 0.000000 0.300000
0.174798 0.134356 -0.107055 0.600000 0.000000 0.300000
0.281591 0.626977 0.116181 0.600000 0.000000 0.300000
0.138742 -0.417201 -0.084885 0.600000 0.300000 0.000000
0.154414 -0.615094 0.394929 0.500000 0.000000 0.500000
-0.377030 0.432369 0.360844 0.600000 0.000000 0.300000
0.378125 -0.294014 0.338298 0.300000 0.000000 0.600000
-0.331055 0.432369 -0.346215 0.600000 0.000000 0.300000
0.148002 0.501658 -0.121652 0.600000 0.000000 0.300000
-0.117957 0.626977 -0.373760 0.600000 0.000000 0.300000
0.095897 0.512745 -0.417070 0.600000 0.000000 0.300000
-0.167578 0.294757 -0.076076 0.600000 0.000000 0.300000
-0.534213 0.026141 0.003796 0.600000 0.000000 0.300000
0.419166 0.405700 -0.161198 0.600000 0.000000 0.300000
0.231406 0.696267 0.115993 0.600000 0.000000 0.300000
-0.268360 -0.048979 -0.126598 0.600000 0.000000 0.300000
-0.330370 0.647060 0.366900 0.600000 0.000000 0.300000
0.503936 -0.457648 0.175512 0.600000 0.000000 0.300000
-0.441576 0.696267 0.255147 0.600000 0.000000 0.300000
0.148353 0.017969 0.394929 0.500000 0.000000 0.500000
0.035700 0.178415 -0.382786 0.600000 0.000000 0.300000
0.503936 -0.158339 -0.115736 0.600000 0.000000 0.300000
-0.445771 -0.299765 -0.060997 0.600000 0.000000 0.300000
0.466656 -0.452112 0.366900 0.600000 0.000000 0.300000
-0.154272 0.222714 -0.382786 0.600000 0.000000 0.300000
-0.491933 0.501658 0.209730 0.600000 0.000000 0.300000
-0.534213 -0.650791 0.249484 0.600000 0.000000 0.300000
-0.425759 0.582034 0.255317 0.600000 0.000000 0.300000
0.353032 0.134356 0.194428 0.600000 0.000000 0.300000
0.478282 0.512745 -0.325133 0.600000 0.000000 0.300000
0.389483 0.294556 0.258049 0.600000 0.000000 0.300000
-0.064891 0.302636 -0.180263 0.600000 0.000000 0.300000
0.419166 0.391915 0.251323 0.600000 0.000000 0.300000
-0.053032 0.626977 -0.029025 0.600000 0.000000 0.300000
-0.534213 0.344717 0.238375 0.600000 0.000000 0.300000
0.081644 -0.766541 0.057135 0.600000 0.000000 0.300000
-0.158316 0.626977 0.076661 0.600000 0.000000 0.300000
0.302344 -0.286178 0.293137 0.300000 0.000000 0.600000
-0.210995 -0.653330 -0.440440 0.600000 0.000000 0.300000
-0.108943 0.134356 -0.076684 0.600000 0.000000 0.300000
0.322940 0.582034 0.185821 0.600000 0.000000 0.300000
0.415378 -0.766541 -0.348298 0.600000 0.000000 0.300000
-0.260912 0.626977 0.005516 0.600000 0.000000 0.300000
0.375631 0.685020 0.388385 0.600000 0.000000 0.300000
-0.519111 0.696267 -0.394285 0.600000 0.000000 0.300000
-0.411015 0.039462 0.035682 0.600000 0.000000 0.300000
-0.007057 -0.048979 0.035155 0.600000 0.000000 0.300000
-0.335173 -0.048979 -0.272007 0.600000 0.000000 0.300000
-0.267281 -0.542108 -0.440440 0.600000 0.000000 0.300000
0.425150 -0.156415 -0.444707 0.600000 0.000000 0.300000
0.503936 -0.080057 -0.251712 0.600000 0.000000 0.300000
-0.097941 0.696267 0.009380 0.600000 0.000000 0.300000
-0.428549 0.140400 0.390506 1.000000 0.000000 0.000000
-0.534213 0.105449 0.280447 0.600000 0.000000 0.300000
-0.424182 -0.048979 -0.077852 0.600000 0.000000 0.300000
0.157589 -0.766541 -0.195761 0.600000 0.000000 0.300000
-0.264446 -0.048979 -0.231601 0.600000 0.000000 0.300000
0.304743 0.432369 0.358162 0.600000 0.000000 0.300000
-0.409303 0.285039 -0.440440 0.600000 0.000000 0.300000
0.200304 0.501658 -0.082074 0.600000 0.000000 0.300000
0.425813 -0.073780 -0.390614 0.600000 0.000000 0.300000
-0.445771 -0.381470 0.013425 0.600000 0.000000 0.300000
-0.127751 0.696267 -0.123236 0.600000 0.000000 0.300000
-0.445771 -0.142592 -0.400705 0.600000 0.000000 0.300000
0.129302 0.432369 -0.095991 0.600000 0.000000 0.300000
-0.489359 -0.766541 0.305877 0.600000 0.000000 0.300000
0.224552 -0.048979 -0.269084 0.600000 0.000000 0.300000
-0.534213 0.002979 -0.239303 0.600000 0.000000 0.300000
-0.366923 0.626977 -0.364657 0.600000 0.000000 0.300000
-0.538514 -0.512176 0.334250 0.600000 0.000000 0.300000
-0.127900 -0.065758 -0.444707 0.600000 0.000000 0.300000
0.299608 0.330210 -0.440440 0.600000 0.000000 0.300000
0.503936 0.418120 0.044049 0.600000 0.000000 0.300000
0.343061 0.501658 0.277761 0.600000 0.000000 0.300000
-0.204734 -0.678099 0.186151 0.600000 0.000000 0.300000
-0.011038 0.501658 0.126703 0.600000 0.000000 0.300000
-0.040799 0.039462 -0.388953 0.600000 0.000000 0.300000
0.272587 0.543445 -0.440440 0.600000 0.000000 0.300000
-0.534213 0.274042 -0.233915 0.600000 0.000000 0.300000
0.303545 -0.289459 0.147502 0.300000 0.000000 0.600000
-0.489059 0.506090 0.388254 1.000000 0.000000 0.000000
0.052625 0.672298 -0.440440 0.600000 0.000000 0.300000
-0.534213 -0.611547 0.213160 0.600000 0.000000 0.300000
-0.419267 0.582034 0.095610 0.600000 0.000000 0.300000
0.503936 -0.657688 0.269574 0.600000 0.000000 0.300000
-0.349078 0.582034 0.024643 0.600000 0.000000 0.300000
0.503936 -0.188600 -0.046436 0.600000 0.000000 0.300000
0.299335 0.134356 0.274370 0.600000 0.000000 0.300000
-0.087084 0.696267 0.172520 0.600000 0.000000 0.300000
0.148464 -0.288288 0.172529 0.300000 0.000000 0.600000
0.503936 -0.601377 0.095212 0.600000 0.000000 0.300000
0.240893 0.512745 -0.166385 0.600000 0.000000 0.300000
0.029215 -0.766541 -0.086478 0.600000 0.000000 0.300000
-0.332335 0.582034 0.277018 0.600000 0.000000 0.300000
0.039022 0.582034 -0.232119 0.600000 0.000000 0.300000
0.259916 0.626977 0.339804 0.600000 0.000000 0.300000
0.339395 0.675221 -0.440440 0.600000 0.000000 0.300000
0.397782 0.134356 0.068675 0.600000 0.000000 0.300000
0.357943 0.696267 -0.216222 0.600000 0.000000 0.300000
-0.329122 0.432369 0.086080 0.600000 0.000000 0.300000
0.337192 0.432369 -0.137862 0.600000 0.000000 0.300000
0.042662 0.582034 0.186172 0.600000 0.000000 0.300000
0.167854 -0.523687 -0.440440 0.600000 0.000000 0.300000
-0.350157 -0.792247 0.372479 0.600000 0.000000 0.300000
-0.041725 -0.066001 0.394929 0.500000 0.000000 0.500000
0.503936 -0.091447 0.275401 0.600000 0.000000 0.300000
-0.016465 -0.387732 -0.245984 0.600000 0.300000 0.000000
-0.318337 0.134356 -0.101917 0.600000 0.000000 0.300000
0.169576 -0.127825 0.390547 0.000000 0.500000 0.500000
0.182282 -0.766541 -0.110718 0.600000 0.000000 0.300000
-0.108553 0.613244 0.394929 0.000000 0.000000 1.000000
0.174584 0.345392 0.392758 0.000000 1.000000 0.000000
0.040391 0.360267 -0.440440 0.600000 0.000000 0.300000
0.485710 0.696267 0.025789 0.600000 0.000000 0.300000
-0.451529 -0.396152 -0.440440 0.600000 0.000000 0.300000
0.355419 0.065067 -0.070035 0.600000 0.000000 0.300000
-0.364523 0.065067 0.184385 0.600000 0.000000 0.300000
-0.362203 -0.766541 0.192736 0.600000 0.000000 0.300000
-0.478026 -0.087065 0.390506 0.500000 0.000000 0.500000
-0.375424 0.432369 -0.271882 0.600000 0.000000 0.300000
-0.171445 -0.048979 -0.391633 0.600000 0.000000 0.300000
0.022695 0.134356 -0.181963 0.600000 0.000000 0.300000
0.331326 -0.766541 0.346700 0.600000 0.000000 0.300000
0.419166 0.357422 0.350692 0.600000 0.000000 0.300000
-0.384455 0.626977 0.268789 0.600000 0.000000 0.300000
0.419166 0.362061 -0.272026 0.600000 0.000000 0.300000
-0.534213 0.491886 0.248217 0.600000 0.000000 0.300000
0.109835 -0.048979 -0.072194 0.600000 0.000000 0.300000
-0.161696 -0.289305 0.238144 0.300000 0.000000 0.600000
-0.506315 0.501658 0.075826 0.600000 0.000000 0.300000
0.153692 -0.419206 0.392758 0.000000 0.500000 0.500000
0.084191 0.529817 0.390506 0.600000 0.000000 0.300000
0.503936 0.498141 -0.227114 0.600000 0.000000 0.300000
-0.498709 0.501658 -0.221426 0.600000 0.000000 0.300000
-0.313423 -0.752091 -0.440440 0.600000 0.000000 0.300000
-0.320200 0.555084 0.394929 0.000000 0.000000 1.000000
0.329205 -0.048979 -0.251643 0.600000 0.000000 0.300000
-0.025490 -0.556504 0.390547 0.000000 0.500000 0.500000
-0.172197 -0.417201 -0.011748 0.600000 0.300000 0.000000
-0.038902 0.013310 0.366900 0.600000 0.000000 0.300000
0.212615 -0.259498 -0.440440 0.600000 0.000000 0.300000
-0.534118 0.292375 0.323548 0.600000 0.000000 0.300000
0.264262 -0.766541 0.273117 0.600000 0.000000 0.300000
0.393770 -0.269443 -0.263674 0.300000 0.000000 0.600000
-0.098938 0.065067 -0.385834 0.600000 0.000000 0.300000
-0.343084 -0.678099 0.290048 0.600000 0.000000 0.300000
-0.476682 0.501658 -0.150983 0.600000 0.000000 0.300000
0.503936 -0.026223 -0.349763 0.600000 0.000000 0.300000
-0.274793 0.151409 0.392758 0.000000 1.000000 0.000000
0.034650 0.696267 -0.210638 0.600000 0.000000 0.300000
0.464174 0.065067 -0.193531 0.600000 0.000000 0.300000
0.300779 -0.766541 -0.189934 0.600000 0.000000 0.300000
0.179181 -0.678099 0.245416 0.600000 0.000000 0.300000
-0.075229 -0.412483 0.065827 0.600000 0.300000 0.000000
0.139423 -0.413160 0.021421 0.600000 0.300000 0.000000
-0.362597 0.075633 0.390506 1.000000 0.000000 0.000000
0.298249 0.501658 0.334272 0.600000 0.000000 0.300000
-0.378353 0.512745 -0.324719 0.600000 0.000000 0.300000
-0.419043 0.294808 -0.165725 0.600000 0.000000 0.300000
0.453870 0.178105 -0.440440 0.600000 0.000000 0.300000
0.359640 0.385755 0.390506 1.000000 0.000000 0.000000
0.242271 0.582034 -0.330665 0.600000 0.000000 0.300000
-0.014494 -0.286300 0.196880 0.300000 0.000000 0.600000
0.183238 -0.412304 -0.112590 0.600000 0.300000 0.000000
-0.385390 -0.413997 0.047967 0.600000 0.300000 0.000000
-0.472320 0.512745 -0.028462 0.600000 0.000000 0.300000
-0.025592 0.384775 0.392758 0.000000 1.000000 0.000000
-0.213834 0.020911 0.366900 0.600000 0.000000 0.300000
-0.534213 0.110679 -0.144042 0.600000 0.000000 0.300000
0.237273 -0.409322 0.139367 0.600000 0.300000 0.000000
-0.222840 -0.419159 0.352357 0.600000 0.300000 0.000000
-0.329579 0.696267 -0.386447 0.600000 0.000000 0.300000
-0.347587 0.512745 -0.068162 0.600000 0.000000 0.300000
0.138561 -0.409322 -0.195967 0.600000 0.300000 0.000000
-0.420815 -0.793096 -0.124225 0.600000 0.000000 0.300000
0.503936 -0.000794 0.008409 0.600000 0.000000 0.300000
-0.353057 0.512745 0.299300 0.600000 0.000000 0.300000
0.268980 0.432369 0.295218 0.600000 0.000000 0.300000
0.415451 0.065067 -0.201041 0.600000 0.000000 0.300000
0.178954 0.111700 0.366900 0.600000 0.000000 0.300000
-0.534213 -0.408462 0.176719 0.600000 0.000000 0.300000
0.368005 0.157491 -0.382786 0.600000 0.000000 0.300000
-0.119726 0.626977 -0.301232 0.600000 0.000000 0.300000
0.028019 0.582034 -0.298580 0.600000 0.000000 0.300000
-0.100891 0.039462 -0.179777 0.600000 0.000000 0.300000
-0.326513 -0.211948 0.392758 0.000000 0.500000 0.500000
0.343779 -0.417201 0.069010 0.600000 0.300000 0.000000
0.153816 0.626977 0.345559 0.600000 0.000000 0.300000
0.503936 -0.471644 -0.406318 0.600000 0.000000 0.300000
0.503936 0.267947 -0.076765 0.600000 0.000000 0.300000
-0.036095 0.501658 0.256371 0.600000 0.000000 0.300000
-0.086995 0.512745 -0.387565 0.600000 0.000000 0.300000
-0.123342 -0.035973 0.394929 0.500000 0.000000 0.500000
0.217547 0.696267 0.261297 0.600000 0.000000 0.300000
0.088893 -0.290940 0.099490 0.300000 0.000000 0.600000
-0.168849 -0.390617 0.390547 0.000000 0.500000 0.500000
0.296036 0.123528 -0.440440 0.600000 0.000000 0.300000
-0.222737 0.134356 -0.105735 0.600000 0.000000 0.300000
-0.026837 0.432369 0.339657 0.600000 0.000000 0.300000
-0.446607 0.432369 -0.341345 0.600000 0.000000 0.300000
0.026228 -0.001234 0.366900 0.600000 0.000000 0.300000
0.083008 -0.409322 -0.174511 0.600000 0.300000 0.000000
-0.093101 -0.678099 -0.402839 0.600000 0.000000 0.300000
0.503936 -0.545502 -0.374515 0.600000 0.000000 0.300000
0.125462 0.134356 -0.271367 0.600000 0.000000 0.300000
0.043776 -0.678099 0.066191 0.600000 0.000000 0.300000
0.236957 0.432369 0.152557 0.600000 0.000000 0.300000
0.374180 0.512745 0.116105 0.600000 0.000000 0.300000
0.217805 0.340230 -0.440440 0.600000 0.000000 0.300000
-0.443162 -0.793096 0.375054 0.600000 0.000000 0.300000
0.503936 -0.217661 -0.321229 0.600000 0.000000 0.300000
-0.534213 -0.400042 -0.127043 0.600000 0.000000 0.300000
0.131806 0.432369 -0.251377 0.600000 0.000000 0.300000
-0.445771 -0.070843 0.077109 0.600000 0.000000 0.300000
-0.390233 -0.678099 0.024057 0.600000 0.000000 0.300000
0.053598 0.626977 0.296582 0.600000 0.000000 0.300000
0.503936 -0.476369 0.122090 0.600000 0.000000 0.300000
-0.511970 0.696267 -0.329058 0.600000 0.000000 0.300000
-0.054537 0.607374 -0.440440 0.600000 0.000000 0.300000
0.000662 0.501658 -0.193908 0.600000 0.000000 0.300000
0.062221 0.608116 -0.440440 0.600000 0.000000 0.300000
0.288271 0.134356 0.190276 0.600000 0.000000 0.300000
0.130699 -0.048979 0.024096 0.600000 0.000000 0.300000
-0.401330 0.696267 0.071080 0.600000 0.000000 0.300000
0.396027 -0.678099 -0.186229 0.600000 0.000000 0.300000
0.473304 -0.766541 -0.230480 0.600000 0.000000 0.300000
-0.445771 -0.198921 0.259200 0.600000 0.000000 0.300000
0.511471 -0.239481 0.349854 0.600000 0.000000 0.300000
-0.030295 -0.187619 0.390547 0.000000 0.500000 0.500000
0.068689 0.626977 0.168390 0.600000 0.000000 0.300000
-0.534213 0.471076 -0.261320 0.600000 0.000000 0.300000
0.186963 -0.766541 0.200432 0.600000 0.000000 0.300000
0.009399 0.039462 0.237883 0.600000 0.000000 0.300000
0.039275 0.287915 -0.440440 0.600000 0.000000 0.300000
0.345031 -0.417201 -0.113263 0.600000 0.300000 0.000000
-0.530367 -0.598306 0.394929 0.500000 0.000000 0.500000
-0.066760 -0.048979 -0.393675 0.600000 0.000000 0.300000
-0.464924 0.229673 -0.216023 0.600000 0.000000 0.300000
0.252437 -0.145612 -0.444707 0.600000 0.000000 0.300000
0.460653 0.608263 0.366900 0.600000 0.000000 0.300000
-0.228805 -0.330062 0.392758 0.000000 0.500000 0.500000
0.277138 -0.048979 -0.004913 0.600000 0.000000 0.300000
-0.164204 0.392174 0.390547 0.000000 1.000000 0.000000
-0.283788 0.626977 0.104717 0.600000 0.000000 0.300000
-0.213394 0.696267 -0.027313 0.600000 0.000000 0.300000
0.342872 -0.428125 0.392758 0.000000 0.500000 0.500000
0.041085 -0.294056 0.117143 0.300000 0.000000 0.600000
-0.445771 -0.108544 -0.313980 0.600000 0.000000 0.300000
-0.254189 0.512745 0.331504 0.600000 0.000000 0.300000
-0.534213 0.225685 -0.396618 0.600000 0.000000 0.300000
0.479608 0.039462 0.239947 0.600000 0.000000 0.300000
-0.210307 0.432369 0.324468 0.600000 0.000000 0.300000
0.503936 0.416708 -0.306607 0.600000 0.000000 0.300000
0.425813 -0.578132 0.333305 0.600000 0.000000 0.300000
0.294503 -0.425727 0.350192 0.600000 0.300000 0.000000
0.207040 0.039462 0.200518 0.600000 0.000000 0.300000
-0.143233 0.039462 -0.226515 0.600000 0.000000 0.300000
0.027228 0.465330 -0.440440 0.600000 0.000000 0.300000
0.502975 0.065067 -0.071276 0.600000 0.000000 0.300000
-0.362273 0.065067 -0.033104 0.600000 0.000000 0.300000
0.425813 -0.562119 -0.094995 0.600000 0.000000 0.300000
-0.399225 -0.048979 0.155449 0.600000 0.000000 0.300000
-0.143138 -0.180925 -0.444707 0.600000 0.000000 0.300000
