ply
format ascii 1.0
element vertex 1277
property float x
property float y
property float z
property uchar red
property uchar green
property uchar blue
end_header
0.488744 -0.139692 0.394929 127 0 127
-0.189336 -0.678099 0.193545 153 0 76
0.103910 -0.678099 -0.254215 153 0 76
0.239938 0.039462 -0.333303 153 0 76
0.275192 0.696267 0.225612 153 0 76
0.212304 0.039462 0.265639 153 0 76
0.314761 -0.766541 -0.147305 153 0 76
-0.105698 0.512745 -0.415095 153 0 76
0.060604 0.216380 -0.382786 153 0 76
0.473362 0.039462 -0.161287 153 0 76
-0.211133 0.626977 -0.167336 153 0 76
0.079274 -0.140029 -0.444707 153 0 76
0.222060 -0.245501 -0.440440 153 0 76
0.425813 -0.088278 -0.284200 153 0 76
-0.165916 -0.048979 -0.278532 153 0 76
0.503936 -0.698289 -0.237462 153 0 76
-0.534213 0.034695 0.268225 153 0 76
0.393551 -0.766541 0.258123 153 0 76
0.502625 0.681891 -0.270610 153 0 76
-0.534213 -0.092753 0.327299 153 0 76
0.419166 0.308579 -0.095909 153 0 76
-0.032452 0.140562 -0.382786 153 0 76
-0.525367 0.678635 -0.021758 153 0 76
0.503936 0.140969 0.202609 153 0 76
0.185475 0.696267 0.100402 153 0 76
0.130975 0.582034 0.005230 153 0 76
-0.536438 0.609278 0.366900 153 0 76
-0.415696 -0.048979 -0.407274 153 0 76
-0.534213 0.126376 0.060562 153 0 76
-0.353001 -0.048979 0.320080 153 0 76
0.019089 0.432369 -0.227281 153 0 76
-0.445771 -0.425627 -0.290703 153 0 76
0.503936 -0.540553 -0.412172 153 0 76
0.072180 -0.474156 0.390547 0 127 127
-0.393418 0.065067 0.331656 153 0 76
0.395861 0.532789 0.366900 153 0 76
0.024525 0.134356 -0.222810 153 0 76
-0.243269 0.432369 -0.114952 153 0 76
0.452344 -0.055954 0.399767 76 153 0
0.184705 0.432369 0.064366 153 0 76
-0.054171 -0.677551 -0.444707 153 0 76
-0.408909 -0.766541 0.277978 153 0 76
0.375606 -0.072897 0.423262 76 153 0
0.503936 -0.688115 -0.003622 153 0 76
-0.476346 -0.766541 0.350891 153 0 76
-0.193397 0.039462 0.218255 153 0 76
0.425813 -0.265731 0.045726 153 0 76
0.502625 0.645609 0.363763 153 0 76
-0.101649 0.582034 0.198353 153 0 76
0.041697 0.065067 0.334926 153 0 76
0.132875 0.065067 0.108926 153 0 76
-0.069869 0.501658 -0.197072 153 0 76
-0.219605 0.234389 -0.382786 153 0 76
-0.037105 -0.678099 -0.058932 153 0 76
-0.138222 0.696267 0.037398 153 0 76
0.433385 -0.407922 0.366900 153 0 76
0.502625 0.679329 -0.179213 153 0 76
-0.063742 0.039462 0.286806 153 0 76
0.394519 0.334841 0.390506 255 0 0
0.350817 0.303002 -0.234345 153 0 76
-0.457966 0.134356 -0.266817 153 0 76
-0.382951 0.134356 0.311045 153 0 76
0.196795 0.332974 -0.382786 153 0 76
-0.090892 0.134356 0.365997 153 0 76
0.267939 -0.081253 -0.444707 153 0 76
0.381679 0.435283 0.388358 127 127 0
0.494467 -0.601694 0.394929 127 0 127
-0.035089 0.432369 0.027583 153 0 76
-0.032210 -0.766585 0.390096 127 0 127
0.321190 0.432369 0.025171 153 0 76
0.425813 -0.326349 0.084013 153 0 76
0.166999 0.036454 0.394929 127 0 127
0.251450 -0.048979 0.219856 153 0 76
0.282668 -0.040393 0.438651 76 153 0
0.287763 0.065067 0.155418 153 0 76
-0.534213 -0.627649 -0.338252 153 0 76
-0.534213 -0.433137 -0.185321 153 0 76
-0.358439 0.432369 -0.081914 153 0 76
0.104491 -0.766541 -0.052476 153 0 76
0.425813 -0.526497 0.035456 153 0 76
-0.446505 -0.034347 0.390506 76 153 0
-0.369389 0.294757 -0.052172 153 0 76
-0.151207 0.432369 -0.115761 153 0 76
-0.136141 0.135226 -0.382786 153 0 76
-0.445771 -0.478552 -0.265745 153 0 76
-0.445771 -0.146994 -0.337127 153 0 76
0.214017 0.626977 0.285267 153 0 76
-0.018208 0.316877 -0.271637 153 0 76
-0.534213 -0.108822 -0.172714 153 0 76
-0.166703 -0.413015 -0.444707 153 0 76
0.098514 -0.766541 0.016352 153 0 76
-0.341397 0.065067 -0.323270 153 0 76
0.364290 -0.602393 0.394929 127 0 127
-0.179393 0.672596 -0.440440 153 0 76
0.019682 0.432369 -0.018357 153 0 76
-0.464924 0.270334 -0.331885 153 0 76
-0.499034 -0.669792 0.394929 127 0 127
-0.010754 -0.678099 -0.142714 153 0 76
0.503936 0.379027 -0.052350 153 0 76
-0.316777 0.299829 0.015126 153 0 76
0.503936 -0.067439 0.126527 153 0 76
-0.534213 -0.449941 0.065861 153 0 76
0.187584 0.501658 -0.365777 153 0 76
-0.437326 0.065067 -0.419489 153 0 76
-0.223150 0.696267 -0.341570 153 0 76
0.149958 -0.425038 0.349652 153 76 0
0.129499 0.335080 -0.440440 153 0 76
0.176666 -0.381018 -0.440440 153 0 76
0.366403 -0.766541 -0.285928 153 0 76
-0.082700 0.080306 0.366900 153 0 76
0.150873 0.512745 0.332417 153 0 76
-0.541064 -0.437137 0.359625 153 0 76
-0.028857 -0.766541 -0.271330 153 0 76
-0.231394 0.626977 0.064318 153 0 76
-0.525367 0.517882 0.077134 153 0 76
0.503936 0.483645 -0.264828 153 0 76
0.038846 0.065067 0.189743 153 0 76
-0.063386 -0.294056 -0.183951 76 0 153
0.259773 0.501658 0.262802 153 0 76
0.422202 -0.315854 -0.440440 153 0 76
-0.069834 0.626977 -0.014492 153 0 76
0.189163 0.039462 -0.368629 153 0 76
0.135304 -0.678099 -0.325582 153 0 76
-0.464924 0.271263 0.057498 153 0 76
0.013288 0.610623 0.366900 153 0 76
0.423392 -0.048979 0.208489 153 0 76
-0.259949 -0.038933 0.366900 153 0 76
0.503936 -0.765431 -0.094926 153 0 76
0.054246 -0.766541 -0.356073 153 0 76
0.178749 -0.678099 -0.099388 153 0 76
-0.405415 -0.129231 0.391408 127 0 127
0.297473 0.309562 -0.245864 153 0 76
-0.290603 0.307446 0.392758 0 255 0
-0.105258 0.501658 0.004892 153 0 76
-0.534213 -0.214550 -0.337712 153 0 76
0.463524 0.039462 0.131866 153 0 76
0.369224 0.696267 -0.173321 153 0 76
0.462802 0.696267 -0.430622 153 0 76
0.344244 0.065067 0.232112 153 0 76
0.349702 0.432369 0.257131 153 0 76
-0.199636 -0.766541 -0.009030 153 0 76
-0.445771 -0.597780 -0.222713 153 0 76
0.440514 0.065067 -0.235704 153 0 76
0.502527 0.065067 -0.156879 153 0 76
-0.506170 0.585580 0.366900 153 0 76
-0.513208 -0.586863 0.366900 153 0 76
-0.464924 0.299334 0.103825 153 0 76
-0.156039 0.220468 -0.382786 153 0 76
0.392884 -0.370468 0.392758 0 127 127
0.503936 -0.122284 -0.260444 153 0 76
-0.534213 -0.721399 0.133918 153 0 76
-0.166421 -0.048979 -0.008715 153 0 76
0.338313 0.320585 -0.440440 153 0 76
0.422230 -0.587824 -0.444707 153 0 76
0.503936 -0.624461 -0.358928 153 0 76
-0.534213 -0.532199 -0.212853 153 0 76
-0.540141 0.070996 0.366900 153 0 76
0.329449 0.039462 -0.353003 153 0 76
0.194987 0.039462 0.122189 153 0 76
0.027499 -0.048979 0.314409 153 0 76
-0.421695 -0.678099 -0.390372 153 0 76
-0.445771 -0.135585 0.192349 153 0 76
-0.258103 0.626977 -0.050979 153 0 76
-0.097186 0.039462 -0.128451 153 0 76
-0.075944 -0.271896 -0.263753 76 0 153
0.322659 0.589539 -0.382786 153 0 76
0.392446 0.134356 -0.074732 153 0 76
0.503936 -0.580716 0.258140 153 0 76
0.059437 -0.048979 -0.203133 153 0 76
-0.071277 0.065067 -0.102328 153 0 76
0.349824 -0.048979 -0.272294 153 0 76
-0.534213 0.436318 -0.152083 153 0 76
-0.501470 0.501658 -0.395694 153 0 76
-0.245795 -0.048979 0.290970 153 0 76
-0.336786 -0.301884 -0.161720 76 0 153
-0.060762 -0.242169 0.392758 0 127 127
0.400968 -0.423111 -0.105408 153 0 76
0.506700 -0.014137 0.316340 153 0 76
0.146978 -0.766541 0.297035 153 0 76
-0.209696 0.684873 0.394929 153 0 76
-0.068098 0.355894 -0.382786 153 0 76
0.220595 0.134356 0.127184 153 0 76
0.197053 0.065067 -0.397976 153 0 76
-0.064732 0.696267 0.172392 153 0 76
-0.217854 0.432369 0.088533 153 0 76
0.419166 0.276077 0.366376 153 0 76
-0.534213 -0.579834 0.033838 153 0 76
0.474625 0.011100 -0.440440 153 0 76
-0.240673 -0.041667 0.447549 76 153 0
0.013305 0.134356 0.244281 153 0 76
-0.082052 0.626977 0.258033 153 0 76
-0.464924 0.268976 0.132469 153 0 76
0.086992 0.432369 0.288393 153 0 76
0.503936 -0.340734 0.271451 153 0 76
0.085763 0.467009 0.394929 255 0 0
0.218664 0.134356 0.361216 153 0 76
0.155061 0.696267 -0.073048 153 0 76
-0.103032 0.039462 -0.427948 153 0 76
0.184997 0.065067 -0.174169 153 0 76
-0.391029 0.134356 -0.373288 153 0 76
0.379714 -0.766541 0.180651 153 0 76
-0.110806 0.302636 0.211686 153 0 76
-0.413446 0.626977 0.143518 153 0 76
-0.534213 0.438009 -0.373020 153 0 76
-0.033316 0.501658 0.000764 153 0 76
-0.329242 -0.713113 0.366900 153 0 76
-0.445771 -0.424611 0.159747 153 0 76
-0.276221 -0.678099 0.009602 153 0 76
0.437310 0.128240 0.366900 153 0 76
-0.430908 0.564310 0.366900 153 0 76
-0.011469 0.626977 -0.362192 153 0 76
-0.385390 -0.410494 0.163008 153 76 0
-0.426823 0.501658 0.065083 153 0 76
-0.369266 0.134356 0.173936 153 0 76
-0.197790 0.512745 -0.175763 153 0 76
0.503936 0.014792 -0.358763 153 0 76
0.035203 0.626977 -0.276053 153 0 76
0.503936 -0.536174 -0.211113 153 0 76
-0.034519 -0.701333 0.366900 153 0 76
0.361166 0.065067 0.340352 153 0 76
-0.126426 0.065067 0.216655 153 0 76
-0.265470 0.039462 0.050229 153 0 76
0.053257 0.039462 0.017416 153 0 76
-0.100043 0.011347 0.366900 153 0 76
-0.088572 0.582034 -0.098043 153 0 76
-0.194930 0.039462 0.307340 153 0 76
0.035391 0.039462 -0.225326 153 0 76
0.261340 0.696267 0.079918 153 0 76
-0.527608 0.501658 0.299624 153 0 76
-0.497873 0.281144 -0.440440 153 0 76
0.435996 0.205229 0.366900 153 0 76
-0.534213 0.386908 0.076748 153 0 76
-0.534213 -0.183363 -0.176524 153 0 76
-0.190897 0.114671 0.366900 153 0 76
0.286690 0.287269 0.340100 153 0 76
0.427547 0.512745 0.329065 153 0 76
0.285046 0.501658 -0.124818 153 0 76
-0.104205 0.413364 0.456225 127 127 0
0.265513 -0.292224 0.390547 0 127 127
-0.202939 0.582034 0.130491 153 0 76
-0.472597 0.512745 0.242720 153 0 76
0.159720 0.565802 0.394929 153 0 76
-0.098299 0.134356 0.201809 153 0 76
-0.121836 0.626977 0.048357 153 0 76
-0.080613 0.696267 -0.055259 153 0 76
-0.385568 0.134356 0.241461 153 0 76
0.114474 0.134356 -0.336261 153 0 76
-0.361814 0.626977 -0.008312 153 0 76
-0.534213 -0.067772 -0.411034 153 0 76
0.155874 0.039462 -0.080467 153 0 76
0.365431 -0.678099 0.361124 153 0 76
-0.097976 -0.048979 0.314510 153 0 76
-0.445771 -0.545883 -0.170486 153 0 76
-0.159637 0.336248 0.390547 0 255 0
-0.094138 -0.061465 -0.444707 153 0 76
-0.024621 0.512745 -0.417270 153 0 76
-0.265787 -0.713516 0.394929 127 0 127
-0.376594 0.582034 0.041197 153 0 76
-0.492442 0.512745 -0.085338 153 0 76
0.503936 -0.260313 0.237091 153 0 76
0.209477 -0.335743 -0.440440 153 0 76
-0.534213 -0.245547 0.216559 153 0 76
-0.076175 0.582034 -0.347603 153 0 76
-0.074116 -0.766541 -0.132149 153 0 76
-0.464924 0.264206 -0.008773 153 0 76
-0.445771 -0.330572 0.081582 153 0 76
0.404446 0.469761 0.366900 153 0 76
0.248246 0.582034 0.074890 153 0 76
-0.151090 0.039462 0.163159 153 0 76
0.034162 -0.766541 -0.052332 153 0 76
-0.243605 0.029699 0.394929 127 0 127
-0.044357 0.269180 0.392758 0 255 0
-0.193732 0.588222 -0.382786 153 0 76
-0.343529 0.039462 0.345070 153 0 76
-0.127619 -0.616062 0.394929 127 0 127
0.055510 0.039462 -0.287988 153 0 76
0.195661 -0.678099 -0.314553 153 0 76
0.247710 0.134356 -0.145772 153 0 76
0.330708 0.588017 -0.110755 153 0 76
0.176373 -0.048979 0.363629 153 0 76
0.101184 0.718321 0.366900 153 0 76
-0.357736 -0.422345 0.267762 153 76 0
0.265519 0.400518 -0.382786 153 0 76
0.459419 0.267572 -0.440440 153 0 76
0.251518 0.501658 -0.140575 153 0 76
-0.282736 0.626977 -0.264602 153 0 76
-0.429180 -0.678099 0.029047 153 0 76
0.503936 -0.678463 -0.423006 153 0 76
-0.464924 0.382325 0.198182 153 0 76
-0.534213 -0.734497 -0.394216 153 0 76
-0.360881 -0.074390 0.392758 0 127 127
-0.040870 0.512745 0.336176 153 0 76
0.193713 -0.678099 0.145214 153 0 76
-0.060803 0.501658 -0.314980 153 0 76
-0.082236 0.065067 0.001180 153 0 76
-0.401715 0.039462 0.116173 153 0 76
0.503936 0.245367 0.203184 153 0 76
0.088593 -0.766541 -0.300836 153 0 76
0.195184 -0.678099 -0.236167 153 0 76
0.347181 0.039462 -0.153600 153 0 76
0.360865 -0.205215 0.390547 0 127 127
-0.433566 0.640494 -0.440440 153 0 76
-0.509983 0.065067 -0.146135 153 0 76
0.239727 -0.048979 -0.071031 153 0 76
0.169449 0.483229 0.394929 255 0 0
-0.015025 -0.048979 0.333615 153 0 76
0.503936 0.267230 -0.000071 153 0 76
0.130252 -0.432136 0.390547 0 127 127
-0.021216 0.696267 -0.088030 153 0 76
0.245376 0.568648 -0.440440 153 0 76
-0.387877 0.533566 0.366900 153 0 76
-0.534213 0.106033 0.289751 153 0 76
-0.534213 -0.085770 -0.299730 153 0 76
0.437468 -0.766541 -0.208020 153 0 76
-0.424973 0.469514 0.366900 153 0 76
-0.445771 -0.574308 0.209603 153 0 76
-0.218839 0.065067 0.013992 153 0 76
-0.085501 0.512745 -0.064452 153 0 76
-0.534213 -0.659570 0.216059 153 0 76
-0.163482 -0.746449 0.366900 153 0 76
-0.221268 0.301845 -0.081108 153 0 76
0.053991 -0.588598 0.390506 127 0 127
-0.303821 0.432369 -0.013104 153 0 76
-0.182808 0.512745 0.183205 153 0 76
0.264360 0.286930 -0.162875 153 0 76
-0.471149 -0.300202 -0.440440 153 0 76
0.102554 0.065067 -0.234296 153 0 76
-0.534213 0.031900 -0.424679 153 0 76
-0.206972 -0.424925 0.346045 153 76 0
0.291623 0.531070 0.394929 153 0 76
0.407621 0.039462 0.060444 153 0 76
0.309168 0.432369 -0.218990 153 0 76
0.503936 -0.433597 0.130405 153 0 76
-0.525367 0.550045 0.005523 153 0 76
0.503936 0.183118 -0.145941 153 0 76
-0.445771 -0.506420 -0.103942 153 0 76
-0.081253 -0.100767 -0.440440 153 0 76
-0.272989 0.432369 0.120460 153 0 76
0.116935 0.134356 0.232855 153 0 76
-0.534213 -0.272185 -0.297133 153 0 76
0.425813 -0.143621 -0.028658 153 0 76
0.503936 0.137209 -0.014954 153 0 76
-0.445771 -0.117127 -0.261547 153 0 76
0.376361 0.427342 -0.382786 153 0 76
0.419166 0.331559 0.314272 153 0 76
-0.170577 -0.532407 -0.444707 153 0 76
-0.036237 0.039462 -0.404900 153 0 76
-0.364669 0.696267 -0.330708 153 0 76
-0.508430 -0.526978 0.394929 127 0 127
0.148271 0.176004 -0.382786 153 0 76
0.460242 0.512745 -0.274598 153 0 76
-0.430173 0.432369 0.012793 153 0 76
-0.105488 0.109146 -0.440440 153 0 76
-0.055623 0.065067 0.034651 153 0 76
0.335218 0.065067 -0.076982 153 0 76
0.014096 0.065067 -0.306391 153 0 76
0.280694 0.088283 0.366900 153 0 76
-0.014369 -0.272430 0.390547 0 127 127
-0.302122 0.032305 0.366900 153 0 76
-0.008722 -0.278303 -0.247531 76 0 153
0.094231 -0.097613 -0.444707 153 0 76
0.199556 0.626977 -0.004595 153 0 76
0.504525 -0.741968 0.324604 153 0 76
-0.359064 0.039462 -0.305191 153 0 76
-0.152660 0.414619 0.442058 127 127 0
-0.323029 -0.213217 0.390547 0 127 127
0.461173 0.039462 0.093692 153 0 76
0.503936 -0.706509 0.064686 153 0 76
0.237561 0.065067 0.295525 153 0 76
0.459803 -0.766541 0.171390 153 0 76
0.061903 -0.294006 0.258687 76 0 153
-0.477207 0.696267 -0.222395 153 0 76
0.245874 0.065067 0.118760 153 0 76
0.222991 -0.129514 -0.444707 153 0 76
0.054621 0.512745 0.269553 153 0 76
-0.408342 0.626977 0.201548 153 0 76
-0.224866 0.065067 0.163784 153 0 76
0.504525 0.046351 0.311382 153 0 76
-0.325974 0.696267 -0.321363 153 0 76
0.408029 -0.426142 -0.147959 153 76 0
-0.534213 0.030935 0.220955 153 0 76
0.419166 0.200004 0.049411 153 0 76
-0.477390 0.065067 0.156003 153 0 76
-0.337595 0.065067 0.087045 153 0 76
-0.525371 0.501658 -0.321743 153 0 76
-0.145186 -0.678099 -0.301762 153 0 76
-0.324735 0.626977 0.259503 153 0 76
0.170958 -0.450965 -0.444707 153 0 76
0.503936 -0.255464 -0.242075 153 0 76
0.503936 -0.119347 -0.380302 153 0 76
0.291958 0.696267 0.341298 153 0 76
0.134185 0.696267 -0.150190 153 0 76
-0.534213 -0.079975 -0.007067 153 0 76
0.134182 0.432369 -0.119359 153 0 76
-0.416853 0.512745 -0.086736 153 0 76
0.307637 0.170233 -0.440440 153 0 76
0.184356 -0.195185 -0.444707 153 0 76
-0.282823 -0.766541 0.125331 153 0 76
-0.437199 0.065067 -0.096796 153 0 76
0.503936 -0.336782 0.058692 153 0 76
-0.534441 0.689808 0.369514 153 0 76
-0.183784 -0.048979 0.196581 153 0 76
-0.336841 0.465363 0.366900 153 0 76
-0.371379 -0.294056 0.145824 76 0 153
0.340595 -0.766541 -0.359663 153 0 76
0.425813 -0.595529 0.144094 153 0 76
0.039273 -0.792247 0.372630 153 0 76
0.106928 0.696267 0.285677 153 0 76
0.379716 -0.678099 -0.208518 153 0 76
-0.023865 0.113545 0.394929 255 0 0
0.065623 0.626977 0.152120 153 0 76
-0.268663 0.582034 0.192849 153 0 76
-0.509051 0.392303 0.394929 127 127 0
-0.087118 -0.048979 0.053827 153 0 76
-0.192493 -0.678099 0.133043 153 0 76
-0.400163 0.512745 0.324590 153 0 76
0.425813 -0.172238 -0.270054 153 0 76
-0.159534 -0.172127 0.390547 0 127 127
0.178525 -0.011441 0.366900 153 0 76
0.041850 0.134356 -0.367618 153 0 76
-0.483275 0.065067 -0.053400 153 0 76
-0.525660 -0.766541 -0.421910 153 0 76
0.183078 0.065067 -0.266663 153 0 76
-0.091893 -0.678099 -0.271519 153 0 76
-0.445771 -0.265808 -0.059051 153 0 76
0.492292 -0.465536 0.366900 153 0 76
0.267177 0.432369 -0.299622 153 0 76
-0.197186 -0.296840 0.258049 76 0 153
0.385852 0.134356 -0.272316 153 0 76
0.425813 -0.609071 -0.084376 153 0 76
0.431524 0.193824 -0.440440 153 0 76
-0.210076 -0.048979 0.331657 153 0 76
0.409711 0.696267 -0.235444 153 0 76
0.096512 0.294757 0.094106 153 0 76
-0.135089 0.637016 -0.440440 153 0 76
-0.308666 -0.563053 -0.440440 153 0 76
0.140103 0.501658 0.026402 153 0 76
-0.451459 0.038831 0.366874 127 0 127
-0.525367 0.671709 -0.260027 153 0 76
0.421601 0.039462 -0.119929 153 0 76
-0.441066 -0.296353 0.056167 76 0 153
-0.495237 0.696267 0.301409 153 0 76
0.362880 -0.678099 0.049379 153 0 76
-0.252254 0.039462 -0.107637 153 0 76
0.444619 -0.183492 -0.440440 153 0 76
0.138574 0.065693 0.394929 255 0 0
-0.163874 -0.678099 -0.360947 153 0 76
-0.445771 -0.135391 -0.073807 153 0 76
-0.269271 0.127814 0.390506 255 0 0
0.503936 0.215768 -0.223913 153 0 76
-0.389233 0.117072 -0.440440 153 0 76
-0.257747 -0.070875 0.436140 76 153 0
-0.109375 -0.419692 0.392758 0 127 127
-0.496401 0.153091 -0.440440 153 0 76
0.420086 0.512745 -0.330192 153 0 76
-0.066157 0.039462 -0.042031 153 0 76
0.503936 0.332066 -0.307693 153 0 76
-0.480189 0.556206 0.366900 153 0 76
-0.534213 -0.008739 0.209515 153 0 76
0.425813 -0.566195 0.226888 153 0 76
-0.464924 0.354070 0.360648 153 0 76
0.347360 0.302185 0.242555 153 0 76
0.295632 0.639463 0.394929 0 0 255
-0.534213 0.190077 -0.121368 153 0 76
-0.445771 -0.441648 0.323313 153 0 76
-0.170499 0.065067 -0.220174 153 0 76
-0.478855 0.524708 0.394929 255 0 0
0.429868 -0.251778 0.366900 153 0 76
-0.464924 0.614309 0.163340 153 0 76
0.158103 0.259766 0.390547 0 255 0
0.104253 -0.766541 -0.202234 153 0 76
0.224872 -0.678099 0.209812 153 0 76
0.079818 0.578257 0.366900 153 0 76
-0.525367 0.596372 -0.281929 153 0 76
-0.301514 0.501658 0.270139 153 0 76
-0.445771 -0.248681 0.360070 153 0 76
-0.191295 0.124994 -0.440440 153 0 76
-0.272650 0.134356 -0.050606 153 0 76
0.022741 -0.678099 0.335743 153 0 76
-0.534213 -0.271473 -0.116703 153 0 76
-0.281489 0.652792 0.366900 153 0 76
0.425813 -0.231198 -0.159877 153 0 76
-0.131783 -0.557187 -0.444707 153 0 76
0.327110 -0.766541 -0.295913 153 0 76
-0.158145 0.626977 0.157144 153 0 76
-0.432941 0.039462 0.278122 153 0 76
0.503936 0.155890 -0.378765 153 0 76
-0.031159 -0.206224 0.390547 0 127 127
0.062458 -0.438581 0.390547 0 127 127
0.484901 0.498920 0.366900 255 0 0
-0.495689 -0.766541 0.285468 153 0 76
0.307501 -0.476221 -0.440440 153 0 76
-0.232305 -0.595257 -0.444707 153 0 76
0.162775 0.065067 0.177579 153 0 76
0.118858 0.286930 -0.158346 153 0 76
-0.411255 -0.647002 -0.444707 153 0 76
0.209045 -0.137518 0.392758 0 127 127
-0.141556 -0.678099 0.133654 153 0 76
0.327535 0.432369 0.289664 153 0 76
0.481878 0.696267 0.304936 153 0 76
0.311170 -0.400573 -0.440440 153 0 76
0.276924 0.134356 -0.349127 153 0 76
0.362606 0.134356 -0.346612 153 0 76
0.348650 -0.766541 0.051354 153 0 76
-0.330175 0.582034 -0.099567 153 0 76
0.004937 0.582034 -0.282813 153 0 76
0.413821 0.416438 0.390506 255 0 0
0.413909 -0.678099 0.129448 153 0 76
-0.325131 0.065067 -0.421800 153 0 76
-0.378509 -0.417201 0.014834 153 76 0
0.052699 0.696267 -0.206578 153 0 76
0.419166 0.262359 0.283863 153 0 76
-0.477618 0.696267 -0.045066 153 0 76
-0.195434 0.134356 0.106331 153 0 76
0.163014 -0.678099 -0.376736 153 0 76
0.403602 -0.048979 -0.078013 153 0 76
-0.408205 -0.678099 -0.085433 153 0 76
-0.541064 0.150117 0.385419 255 0 0
0.312291 0.134356 0.114349 153 0 76
0.028004 -0.743606 0.366900 153 0 76
0.419166 0.177054 0.201889 153 0 76
-0.192071 0.357131 -0.382786 153 0 76
-0.394555 0.039462 -0.146592 153 0 76
-0.394983 0.696267 -0.053877 153 0 76
-0.534213 -0.343390 -0.090958 153 0 76
0.050911 0.582034 -0.164636 153 0 76
-0.146514 0.065067 -0.397596 153 0 76
0.287160 -0.678099 -0.231221 153 0 76
-0.186268 0.526758 0.394929 153 0 76
-0.021122 -0.409322 -0.131728 153 76 0
0.210830 0.134356 -0.342310 153 0 76
0.502625 0.547893 0.173573 153 0 76
0.495521 0.039462 0.247622 153 0 76
-0.010956 0.432369 -0.059691 153 0 76
0.465967 0.501658 0.143894 153 0 76
-0.172312 0.398412 0.394929 0 255 0
-0.464924 0.421276 -0.319357 153 0 76
0.172756 -0.131775 0.392758 0 127 127
0.036036 -0.414620 0.179908 153 76 0
0.070876 0.696267 0.179953 153 0 76
-0.026082 0.134356 0.095733 153 0 76
-0.534213 -0.396187 -0.170518 153 0 76
0.160017 0.407685 0.390506 255 0 0
0.080585 0.065067 -0.116999 153 0 76
0.029524 0.501658 0.041206 153 0 76
0.388529 -0.678099 -0.283953 153 0 76
-0.339094 -0.627977 -0.444707 153 0 76
-0.525367 0.533059 -0.256736 153 0 76
-0.287856 0.626977 -0.014144 153 0 76
-0.312445 -0.766541 0.010905 153 0 76
-0.445771 -0.319797 -0.345352 153 0 76
-0.525367 0.654763 0.004500 153 0 76
-0.334921 0.134356 0.027110 153 0 76
0.246643 -0.366057 -0.440440 153 0 76
-0.525367 0.641010 0.280282 153 0 76
0.364319 0.039462 0.090515 153 0 76
-0.106346 0.645902 0.394929 153 0 76
0.410012 -0.299960 -0.080419 153 0 76
0.334902 -0.766541 -0.411995 153 0 76
0.362994 -0.730883 -0.440440 153 0 76
0.242327 -0.678099 0.035052 153 0 76
0.006850 -0.766541 -0.291310 153 0 76
0.330708 0.605384 -0.309370 153 0 76
-0.513009 -0.517012 -0.440440 153 0 76
-0.031664 0.341771 -0.382786 153 0 76
-0.349745 -0.273026 -0.263789 76 0 153
0.317314 0.134356 -0.246045 153 0 76
-0.171256 0.582034 -0.249729 153 0 76
0.419166 0.160974 -0.180927 153 0 76
0.080740 0.626977 -0.281665 153 0 76
-0.415360 -0.630841 0.394929 127 0 127
-0.411789 -0.087062 -0.444707 153 0 76
-0.534213 -0.199611 -0.236750 153 0 76
0.487573 0.501658 -0.159994 153 0 76
-0.082498 0.039462 0.241347 153 0 76
-0.088794 0.679948 0.394929 0 0 255
-0.524277 0.495830 0.394929 255 0 0
0.249167 -0.590271 -0.444707 153 0 76
0.503936 -0.730537 -0.086609 153 0 76
0.148579 0.134356 -0.004297 153 0 76
0.502625 0.622127 0.172901 153 0 76
0.112360 0.432369 -0.043982 153 0 76
-0.534213 0.194283 -0.412675 153 0 76
-0.195641 0.582034 -0.103360 153 0 76
-0.209293 -0.027058 0.394929 127 0 127
0.258445 0.480502 0.394929 255 0 0
-0.177793 0.550716 0.366900 153 0 76
0.439841 -0.590101 0.390506 127 0 127
-0.289586 -0.766541 -0.259217 153 0 76
-0.140020 0.065067 0.302423 153 0 76
-0.104538 0.065067 -0.155343 153 0 76
-0.464924 0.224919 0.323481 153 0 76
-0.072341 0.626977 -0.117592 153 0 76
-0.464924 0.271196 0.356577 153 0 76
0.014244 -0.048979 0.204753 153 0 76
-0.467824 -0.679925 -0.440440 153 0 76
-0.265083 -0.288344 0.236715 76 0 153
0.425813 -0.649848 -0.396410 153 0 76
-0.464924 0.247488 -0.288808 153 0 76
-0.266395 0.134356 0.257495 153 0 76
0.327741 -0.008425 -0.440440 153 0 76
0.096771 -0.285249 -0.227775 76 0 153
0.503936 0.368152 -0.122241 153 0 76
-0.160429 0.039462 -0.298879 153 0 76
0.241635 -0.602409 0.394929 127 0 127
0.425813 -0.145708 -0.083479 153 0 76
-0.534213 -0.426794 -0.386002 153 0 76
0.058511 -0.766541 -0.116877 153 0 76
0.058644 0.626977 -0.027750 153 0 76
0.116356 -0.678133 0.366900 153 0 76
-0.289927 -0.766541 -0.417289 153 0 76
-0.259788 0.065067 0.287107 153 0 76
-0.534213 0.484672 -0.036811 153 0 76
-0.445771 -0.167253 0.363486 153 0 76
-0.342032 -0.678099 -0.048379 153 0 76
0.186989 0.468809 0.366900 153 0 76
0.203786 0.134356 -0.041364 153 0 76
0.426660 0.402317 -0.440440 153 0 76
-0.202838 0.512745 0.088330 153 0 76
0.342362 0.134356 -0.049585 153 0 76
0.503936 -0.235138 -0.021156 153 0 76
-0.445771 -0.645917 0.359912 153 0 76
-0.202590 0.432369 0.181620 153 0 76
0.189036 0.039462 -0.198751 153 0 76
-0.066569 -0.243710 -0.440440 153 0 76
-0.368166 0.039462 -0.224494 153 0 76
-0.442832 0.626977 0.287218 153 0 76
0.021237 -0.652094 0.390506 127 0 127
0.300174 0.582034 0.289921 153 0 76
0.305712 0.065067 0.293854 153 0 76
0.266259 -0.348754 0.392758 0 127 127
-0.413610 -0.678099 0.287781 153 0 76
-0.534213 0.072799 -0.319624 153 0 76
-0.014191 0.696267 -0.298890 153 0 76
0.454727 -0.530631 0.366900 153 0 76
0.431956 0.002135 0.366900 153 0 76
-0.464924 0.169747 0.116561 153 0 76
0.081485 0.039462 -0.403956 153 0 76
0.503936 -0.556335 -0.300091 153 0 76
-0.207483 -0.668940 -0.440440 153 0 76
-0.036114 0.134356 -0.172617 153 0 76
-0.272961 -0.287174 0.095954 76 0 153
0.029301 0.696267 0.332103 153 0 76
0.086539 0.432369 -0.174461 153 0 76
0.343519 -0.678099 -0.340934 153 0 76
0.236564 0.039462 -0.203903 153 0 76
-0.451639 0.501658 -0.136849 153 0 76
0.425813 -0.539781 -0.317844 153 0 76
0.132203 -0.678099 0.309838 153 0 76
0.346554 0.254623 0.390547 0 255 0
-0.464924 0.138656 0.068234 153 0 76
-0.399091 -0.443715 0.392758 0 127 127
0.423331 0.566733 0.394929 153 0 76
0.200268 0.123789 0.390506 255 0 0
0.176198 -0.706902 -0.440440 153 0 76
-0.149112 0.068669 -0.440440 153 0 76
-0.271939 0.432369 -0.166523 153 0 76
-0.435340 0.512745 -0.361210 153 0 76
0.474021 -0.366961 -0.440440 153 0 76
0.148079 -0.286178 -0.078417 76 0 153
0.177010 -0.048979 0.214095 153 0 76
-0.221730 0.134356 0.187079 153 0 76
0.382172 0.039462 -0.104013 153 0 76
-0.534213 -0.590649 -0.336199 153 0 76
-0.234424 -0.766541 -0.391744 153 0 76
0.165385 0.039462 -0.131096 153 0 76
-0.534213 -0.057522 -0.142081 153 0 76
-0.302458 -0.694145 -0.440440 153 0 76
-0.290600 -0.766038 0.394929 127 0 127
-0.433505 0.039462 -0.173717 153 0 76
0.503936 0.108996 -0.307514 153 0 76
-0.003848 0.568554 0.366900 153 0 76
0.451243 0.604258 0.394929 153 0 76
-0.085030 0.626977 -0.177425 153 0 76
-0.309683 -0.256128 0.392758 0 127 127
0.503936 -0.369436 0.295412 153 0 76
0.028374 -0.603346 -0.440440 153 0 76
0.425813 -0.205915 0.005896 153 0 76
0.110735 0.626977 0.206535 153 0 76
-0.232188 0.022824 -0.440440 153 0 76
0.204544 0.012230 0.394929 127 0 127
-0.497094 0.001426 0.394929 127 0 127
0.419166 0.224700 0.180660 153 0 76
0.169114 0.192166 0.390547 0 255 0
-0.496666 -0.766541 -0.401339 153 0 76
0.375819 -0.766541 -0.109054 153 0 76
0.289504 0.065067 -0.328553 153 0 76
0.428487 -0.721087 0.366900 127 0 127
-0.191487 0.501658 -0.245553 153 0 76
0.363653 -0.678099 -0.143855 153 0 76
0.425813 -0.552437 -0.236532 153 0 76
0.443987 0.676104 0.394929 153 0 76
-0.354750 -0.678099 -0.249823 153 0 76
-0.151628 0.291225 -0.165903 153 0 76
-0.314483 0.501658 0.011766 153 0 76
-0.227435 0.065067 0.352873 153 0 76
-0.449097 -0.422006 0.113484 153 0 76
-0.392282 0.582034 0.324764 153 0 76
-0.058321 0.626977 0.333843 153 0 76
-0.534213 0.339521 -0.308521 153 0 76
-0.445771 -0.504966 0.200160 153 0 76
-0.331502 0.582034 0.002118 153 0 76
0.408170 -0.207049 -0.440440 153 0 76
-0.077531 0.134356 0.269746 153 0 76
-0.534213 -0.210043 -0.052892 153 0 76
-0.084923 0.642249 0.366900 153 0 76
0.397997 0.039462 -0.408204 153 0 76
0.293649 0.476206 0.366900 153 0 76
0.425813 -0.458073 0.335212 153 0 76
0.511687 0.065025 0.380876 255 0 0
-0.441692 -0.678099 -0.147539 153 0 76
-0.534213 -0.580064 -0.409770 153 0 76
0.064779 0.626977 0.265181 153 0 76
-0.225223 0.649904 0.394929 0 0 255
0.183561 -0.766541 0.218811 153 0 76
-0.499977 0.065067 0.339634 153 0 76
0.168799 -0.652221 -0.440440 153 0 76
-0.293720 0.626977 -0.343936 153 0 76
-0.366735 0.501658 0.098942 153 0 76
-0.445771 -0.478900 0.279502 153 0 76
-0.005688 -0.061356 0.390506 127 0 127
-0.316777 0.297827 -0.188740 153 0 76
-0.378603 -0.678099 0.050931 153 0 76
0.005351 0.432369 0.190427 153 0 76
0.395359 0.065067 -0.317340 153 0 76
0.403554 -0.048979 0.237361 153 0 76
-0.534213 -0.450727 0.133896 153 0 76
-0.240443 0.582034 -0.213217 153 0 76
-0.206370 -0.234542 0.392758 0 127 127
0.005433 0.689625 0.394929 153 0 76
-0.445771 -0.643446 -0.224596 153 0 76
0.084536 0.039462 -0.207599 153 0 76
0.046493 0.065067 -0.353327 153 0 76
-0.002271 0.665364 0.366900 153 0 76
-0.534213 0.232246 -0.129525 153 0 76
0.503936 -0.451227 -0.222698 153 0 76
0.425813 -0.083991 -0.370825 153 0 76
0.211188 0.708784 0.366900 153 0 76
-0.396929 0.432369 0.124716 153 0 76
0.032597 0.039462 -0.329664 153 0 76
-0.405389 0.582034 -0.374487 153 0 76
0.200811 0.696267 -0.128185 153 0 76
0.096771 0.297910 0.026164 153 0 76
-0.525367 0.536619 -0.190941 153 0 76
-0.534213 -0.630108 -0.201164 153 0 76
0.164534 -0.611707 -0.444707 153 0 76
0.237822 0.531624 0.366900 153 0 76
0.204012 -0.684158 0.366900 127 0 127
-0.316405 0.512745 -0.221735 153 0 76
-0.210295 0.626977 0.362053 153 0 76
-0.274951 0.696267 0.066547 153 0 76
0.343294 0.039462 0.356819 153 0 76
-0.528407 -0.060645 0.390506 127 0 127
0.295667 -0.289317 -0.170254 76 0 153
0.425813 -0.411227 -0.363221 153 0 76
-0.112069 0.501658 0.198488 153 0 76
0.461668 0.065067 0.349742 153 0 76
-0.445771 -0.123436 0.366877 153 0 76
0.503936 -0.534607 -0.086668 153 0 76
0.056790 -0.014058 0.366900 153 0 76
-0.534213 -0.709210 -0.220974 153 0 76
-0.338362 0.432369 -0.039239 153 0 76
0.009472 0.288797 0.258049 153 0 76
0.000303 0.696267 0.043831 153 0 76
-0.244877 0.065067 -0.182986 153 0 76
0.137225 -0.409322 0.236327 153 76 0
-0.302663 0.696267 0.338735 153 0 76
-0.417340 -0.048979 0.160127 153 0 76
0.503936 0.267994 -0.295366 153 0 76
0.424615 -0.048979 0.266416 153 0 76
-0.518948 0.039462 -0.267791 153 0 76
-0.445771 -0.122064 0.138595 153 0 76
0.067478 0.251598 -0.382786 153 0 76
-0.534213 -0.635926 0.316824 153 0 76
-0.140083 0.582034 -0.088218 153 0 76
-0.464924 0.153642 0.259967 153 0 76
0.028512 -0.766541 0.019171 153 0 76
0.203200 -0.002775 -0.440440 153 0 76
0.503936 -0.059076 -0.096359 153 0 76
0.102025 0.293688 0.340700 153 0 76
-0.030839 0.065067 -0.155687 153 0 76
0.425813 -0.050746 -0.264058 153 0 76
-0.066422 0.255161 -0.440440 153 0 76
-0.451890 0.065067 -0.233084 153 0 76
0.428402 -0.196176 0.390506 0 127 127
-0.366130 0.582034 -0.248361 153 0 76
-0.534213 0.328330 -0.122164 153 0 76
0.088337 0.087617 -0.440440 153 0 76
0.074369 -0.048979 -0.127470 153 0 76
-0.453245 0.432369 0.356338 153 0 76
-0.145445 0.018386 0.394929 127 0 127
0.503936 -0.126384 -0.338883 153 0 76
-0.013859 0.626977 0.130254 153 0 76
0.503936 -0.060009 -0.177916 153 0 76
-0.411333 0.582034 -0.307510 153 0 76
-0.040791 0.582034 -0.061919 153 0 76
0.201154 0.039462 -0.024229 153 0 76
-0.250718 0.065067 0.198882 153 0 76
0.032479 0.696267 -0.376248 153 0 76
-0.324488 0.444320 0.433748 127 127 0
0.201558 -0.654124 0.390506 127 0 127
-0.042102 0.626977 -0.087774 153 0 76
-0.166688 -0.766541 0.084819 153 0 76
-0.058343 -0.431261 -0.444707 153 0 76
0.425567 -0.766541 0.365108 153 0 76
-0.147021 0.039462 -0.087064 153 0 76
-0.278069 -0.270553 -0.263710 76 0 153
0.099117 -0.719631 -0.440440 153 0 76
0.255859 0.215652 -0.440440 153 0 76
0.049403 0.039462 0.131204 153 0 76
0.377783 0.116564 -0.440440 153 0 76
0.049191 0.696267 -0.087298 153 0 76
-0.174731 0.512745 0.043446 153 0 76
-0.484469 0.696267 -0.157779 153 0 76
-0.032184 0.696267 0.292259 153 0 76
-0.347361 -0.678099 -0.335538 153 0 76
0.047947 0.582034 0.246383 153 0 76
0.385436 0.512745 -0.004270 153 0 76
0.503936 0.474170 -0.426920 153 0 76
0.152020 0.626977 0.096640 153 0 76
-0.445771 -0.388452 0.139009 153 0 76
-0.314903 -0.678099 -0.294466 153 0 76
0.019659 0.501658 -0.108811 153 0 76
0.117801 0.411174 0.451516 127 127 0
-0.219363 -0.294056 0.135984 76 0 153
0.400512 -0.015527 -0.440440 153 0 76
0.084835 -0.766541 0.292403 153 0 76
-0.366375 0.559386 -0.440440 153 0 76
-0.034223 -0.766541 -0.306357 153 0 76
0.434245 0.696267 0.351382 153 0 76
0.479434 0.696267 -0.244813 153 0 76
0.066732 -0.069163 -0.444707 153 0 76
-0.393736 0.065067 -0.121831 153 0 76
0.330681 0.380658 -0.382786 153 0 76
-0.142902 -0.678099 -0.228559 153 0 76
0.161410 0.655650 -0.440440 153 0 76
-0.464924 0.418839 0.036742 153 0 76
-0.273430 -0.016754 0.394929 127 0 127
0.010386 -0.424386 0.349953 153 76 0
0.404742 -0.766541 0.113921 153 0 76
-0.474520 -0.137888 0.394929 127 0 127
0.307529 0.626977 0.047961 153 0 76
-0.177441 0.626977 0.082690 153 0 76
-0.525367 0.614581 -0.055892 153 0 76
-0.070108 0.039462 0.122506 153 0 76
0.094950 -0.354914 0.390547 0 127 127
0.503936 -0.739828 0.108002 153 0 76
-0.190615 -0.048979 -0.304965 153 0 76
-0.127047 0.330961 -0.382786 153 0 76
-0.285575 0.262818 -0.382786 153 0 76
-0.094789 -0.250862 0.390547 0 127 127
-0.034666 0.108072 -0.440440 153 0 76
0.503936 -0.049083 -0.381580 153 0 76
-0.159419 -0.689757 0.394929 127 0 127
0.335629 -0.712504 0.366900 153 0 76
0.061428 0.071922 0.394929 255 0 0
-0.525367 0.662219 0.317301 153 0 76
-0.293905 0.079893 0.394929 255 0 0
0.031256 0.312663 -0.440440 153 0 76
0.503936 0.003580 -0.288150 153 0 76
-0.015282 -0.678099 0.336199 153 0 76
-0.138240 -0.353092 0.390547 0 127 127
-0.445771 -0.354146 -0.350330 153 0 76
0.425813 -0.198925 0.168684 153 0 76
0.425813 -0.491160 -0.299453 153 0 76
-0.464924 0.428483 0.163064 153 0 76
-0.291451 0.582034 -0.048230 153 0 76
-0.534213 0.496715 0.048919 153 0 76
-0.445771 -0.398581 0.361889 153 0 76
-0.338924 0.134356 0.106174 153 0 76
0.227273 0.065067 -0.415018 153 0 76
-0.255146 0.597647 0.366900 153 0 76
-0.525367 0.608486 -0.330681 153 0 76
-0.250828 -0.325912 0.392758 0 127 127
-0.045387 0.065067 -0.325138 153 0 76
-0.356656 0.432369 -0.281415 153 0 76
-0.174330 -0.486521 -0.444707 153 0 76
-0.534213 -0.367610 0.074914 153 0 76
0.146691 0.582034 0.154452 153 0 76
0.286625 -0.400678 -0.228899 153 76 0
0.195775 0.501658 0.309885 153 0 76
-0.279049 -0.441076 -0.444707 153 0 76
-0.287377 0.432369 0.228493 153 0 76
0.273183 0.512745 -0.436230 153 0 76
-0.082394 0.065067 0.091476 153 0 76
0.503936 -0.059480 0.191047 153 0 76
-0.534213 -0.349543 -0.164310 153 0 76
-0.176615 0.134356 -0.346571 153 0 76
-0.329707 0.516557 0.394929 153 0 76
-0.463939 0.039462 0.011831 153 0 76
0.251910 0.654966 0.394929 0 0 255
-0.252784 -0.638844 -0.440440 153 0 76
-0.308355 0.039462 0.247685 153 0 76
-0.445771 -0.577088 0.113262 153 0 76
-0.514853 -0.161930 0.366900 153 0 76
0.236333 0.039462 0.319491 153 0 76
-0.534213 0.488066 -0.234763 153 0 76
-0.534213 -0.095042 -0.343122 153 0 76
0.155168 0.065067 0.286751 153 0 76
0.001394 -0.131393 0.392758 0 127 127
-0.331261 0.642431 0.366900 153 0 76
-0.342349 -0.766541 -0.423787 153 0 76
-0.392496 -0.044657 0.388358 127 0 127
0.419166 0.381374 0.170841 153 0 76
0.425813 -0.530329 -0.190837 153 0 76
0.046765 0.654573 0.366900 153 0 76
0.401194 -0.422549 -0.019566 153 76 0
-0.515230 -0.080412 -0.440440 153 0 76
-0.398319 0.696267 0.207639 153 0 76
-0.341426 0.443691 -0.440440 153 0 76
-0.360699 -0.659918 0.394929 127 0 127
-0.445771 -0.333789 -0.217493 153 0 76
-0.445771 -0.403942 -0.166745 153 0 76
0.135483 0.084059 -0.440440 153 0 76
0.277685 0.581536 -0.440440 153 0 76
-0.334385 -0.048979 -0.083837 153 0 76
-0.534213 -0.472417 0.215710 153 0 76
-0.246054 0.582034 -0.297836 153 0 76
0.346196 -0.410915 -0.063931 153 76 0
0.425813 -0.396155 -0.165640 153 0 76
-0.221356 -0.678099 0.236747 153 0 76
0.219859 0.582034 0.295118 153 0 76
-0.424984 0.067328 0.362991 153 0 76
-0.234253 0.065067 -0.077365 153 0 76
0.240928 0.696267 -0.390405 153 0 76
0.371986 0.308648 0.390547 0 255 0
-0.386786 0.433951 0.411462 127 127 0
0.074031 0.432369 -0.358764 153 0 76
0.425813 -0.495300 -0.365157 153 0 76
0.419166 0.255818 0.074594 153 0 76
-0.225916 -0.766541 0.300938 153 0 76
-0.525367 0.680345 -0.084930 153 0 76
0.503936 -0.027071 -0.026375 153 0 76
-0.445771 -0.466603 -0.000511 153 0 76
0.503936 0.116685 0.117396 153 0 76
0.250636 0.570963 0.394929 0 0 255
-0.534213 0.212605 0.152142 153 0 76
0.135101 0.660378 0.366900 153 0 76
-0.339802 -0.730244 0.394929 127 0 127
-0.451641 0.512745 -0.292839 153 0 76
0.129819 0.578714 -0.440440 153 0 76
-0.434997 0.287097 -0.114872 153 0 76
0.401911 -0.261984 0.394929 0 127 127
0.071649 -0.048979 0.064638 153 0 76
-0.180150 0.432369 -0.309517 153 0 76
-0.318293 0.065067 -0.374139 153 0 76
0.251832 0.501658 0.125710 153 0 76
-0.464924 0.209838 -0.223932 153 0 76
0.399972 0.501658 0.050202 153 0 76
0.419166 0.367958 -0.047715 153 0 76
0.391544 -0.659029 -0.440440 153 0 76
0.479897 -0.766541 -0.259461 153 0 76
0.269259 0.626977 -0.240461 153 0 76
-0.136351 0.235108 0.390547 0 255 0
0.300791 -0.476392 0.392758 0 127 127
-0.399326 -0.014714 0.366900 153 0 76
-0.534213 -0.008954 -0.365722 153 0 76
0.425813 -0.601143 -0.343444 153 0 76
-0.459181 0.432369 -0.030713 153 0 76
-0.534213 -0.030781 0.043685 153 0 76
-0.055336 0.582034 0.014110 153 0 76
-0.418237 -0.766541 0.085859 153 0 76
-0.302630 0.692590 0.394929 0 0 255
-0.361605 0.501658 0.041717 153 0 76
0.505593 0.099777 0.366900 255 0 0
-0.474338 0.468389 0.366900 153 0 76
-0.538514 0.258928 0.363528 153 0 76
0.147148 0.002736 0.366900 153 0 76
-0.016843 0.033769 0.366732 127 0 127
0.099080 0.582034 -0.283236 153 0 76
0.258954 -0.766541 0.113680 153 0 76
0.503936 -0.151907 0.277492 153 0 76
0.502625 0.613536 0.292717 153 0 76
0.024211 -0.702385 -0.440440 153 0 76
-0.534213 -0.520631 -0.174260 153 0 76
0.427187 -0.728738 -0.440440 153 0 76
-0.328840 0.134356 -0.321774 153 0 76
-0.175610 0.617458 -0.440440 153 0 76
-0.366781 -0.549563 -0.440440 153 0 76
0.129213 -0.048979 -0.233083 153 0 76
-0.300113 0.065067 0.134473 153 0 76
0.229132 -0.678099 -0.213518 153 0 76
-0.166734 0.512745 -0.110276 153 0 76
0.373593 -0.048979 -0.004448 153 0 76
-0.274852 0.065067 -0.053926 153 0 76
-0.444621 -0.048979 0.219548 153 0 76
0.304513 0.626977 -0.070478 153 0 76
0.415289 0.134356 0.330559 153 0 76
-0.475344 0.512745 0.120605 153 0 76
0.181666 -0.766541 0.170244 153 0 76
0.305467 -0.766541 -0.083673 153 0 76
0.389734 0.087738 0.366900 153 0 76
-0.102770 0.674266 -0.440440 153 0 76
0.503936 0.431390 -0.237754 153 0 76
-0.445360 -0.534604 -0.444707 153 0 76
-0.355938 0.432369 0.081630 153 0 76
0.163165 -0.766541 0.056611 153 0 76
-0.194621 0.432369 0.253503 153 0 76
-0.201193 0.501658 0.287728 153 0 76
-0.329824 0.582034 -0.204376 153 0 76
0.470811 0.039462 0.012643 153 0 76
-0.263087 0.432369 0.360410 153 0 76
0.322497 0.626977 -0.347762 153 0 76
-0.535405 -0.318708 0.330072 153 0 76
-0.434322 0.287369 -0.207561 153 0 76
-0.265048 0.727237 0.388698 153 0 76
-0.146736 -0.071213 0.453090 76 153 0
0.400499 -0.661839 0.390506 127 0 127
-0.329423 0.224844 -0.440440 153 0 76
-0.525367 0.621182 0.217044 153 0 76
-0.534213 0.201880 0.195033 153 0 76
0.228235 0.039462 0.171355 153 0 76
0.504953 0.662941 0.394929 153 0 76
0.028100 -0.048979 0.170690 153 0 76
-0.151914 0.039462 -0.249045 153 0 76
-0.005640 0.582034 0.271177 153 0 76
-0.382498 -0.417201 0.243692 153 76 0
-0.472076 0.065067 -0.162323 153 0 76
-0.534213 -0.241180 0.018348 153 0 76
0.152034 0.677775 0.394929 153 0 76
0.022232 0.501658 0.336500 153 0 76
-0.124558 0.626977 -0.071317 153 0 76
0.511471 -0.159104 0.357749 153 0 76
-0.062619 0.039462 -0.294209 153 0 76
-0.221747 0.432369 -0.047843 153 0 76
-0.139116 0.065067 0.114878 153 0 76
0.439361 -0.478836 0.366900 153 0 76
-0.265739 0.134356 -0.380553 153 0 76
-0.400899 0.581646 0.394929 153 0 76
-0.534213 -0.018384 -0.416856 153 0 76
0.246909 0.302636 -0.070767 153 0 76
0.121479 0.696267 0.162405 153 0 76
-0.085295 -0.766541 -0.392728 153 0 76
0.035953 -0.048979 0.044594 153 0 76
-0.289539 0.543608 0.390506 153 0 76
0.425813 -0.649865 -0.165472 153 0 76
-0.525367 0.636097 0.140058 153 0 76
-0.012623 0.469614 -0.440440 153 0 76
-0.047552 -0.048979 -0.384477 153 0 76
0.419166 0.346460 -0.135790 153 0 76
-0.038849 -0.755745 -0.440440 153 0 76
0.252923 0.014723 0.394929 127 0 127
0.019141 0.127283 0.366900 153 0 76
0.503936 -0.181555 -0.417538 153 0 76
0.094967 0.065067 -0.009850 153 0 76
0.374542 -0.170551 -0.440440 153 0 76
-0.525367 0.626328 -0.203264 153 0 76
-0.461827 0.065067 -0.296678 153 0 76
0.425813 -0.326770 -0.235987 153 0 76
0.178712 0.261269 -0.440440 153 0 76
0.158044 0.134356 -0.285470 153 0 76
-0.072666 0.065067 -0.434661 153 0 76
0.304341 -0.048979 -0.317551 153 0 76
-0.511742 0.065067 -0.197152 153 0 76
-0.534213 -0.316279 -0.035165 153 0 76
0.437589 0.247770 0.390506 255 0 0
0.265359 0.442894 0.433151 127 127 0
-0.509540 -0.507386 0.366900 153 0 76
0.503936 -0.357470 0.006533 153 0 76
-0.250818 0.492740 0.394929 255 0 0
0.503936 0.449869 -0.117768 153 0 76
0.078716 0.390116 -0.440440 153 0 76
-0.534213 0.084707 -0.037642 153 0 76
-0.333575 -0.288025 -0.444707 153 0 76
0.503936 -0.074064 -0.285829 153 0 76
-0.178584 -0.678099 -0.143359 153 0 76
0.037484 0.626977 -0.202490 153 0 76
0.482742 -0.534421 0.390506 127 0 127
-0.405293 0.065067 -0.297123 153 0 76
0.402193 0.154092 0.394929 255 0 0
0.198405 0.582034 -0.026597 153 0 76
0.326337 0.286930 -0.163815 153 0 76
-0.525367 0.662520 0.079736 153 0 76
-0.495814 0.039462 -0.128398 153 0 76
0.115246 0.696267 0.069014 153 0 76
0.138199 0.696267 0.021158 153 0 76
-0.492690 0.039462 -0.230486 153 0 76
-0.244227 -0.766541 0.174611 153 0 76
-0.439656 -0.048979 -0.309418 153 0 76
0.260678 -0.719564 0.394929 127 0 127
0.205218 -0.048979 -0.017279 153 0 76
0.503936 -0.375221 0.221668 153 0 76
-0.362426 -0.419038 -0.148312 153 76 0
0.325293 -0.766541 -0.215279 153 0 76
-0.330697 0.065067 0.239200 153 0 76
-0.440171 0.134356 -0.215687 153 0 76
0.419166 0.351161 -0.273942 153 0 76
0.443659 0.501658 0.026025 153 0 76
0.119604 0.501658 -0.045073 153 0 76
0.008085 0.065067 -0.177564 153 0 76
0.330907 0.696267 0.023367 153 0 76
0.166207 -0.075143 -0.444707 153 0 76
-0.284639 0.432369 0.073309 153 0 76
0.378392 0.065067 -0.386041 153 0 76
-0.534213 -0.589434 -0.199822 153 0 76
0.016538 0.501658 -0.213014 153 0 76
-0.125626 -0.485683 0.392758 0 127 127
0.151505 0.065067 0.331388 153 0 76
0.366307 -0.766541 0.339004 153 0 76
0.069993 -0.048979 -0.003937 153 0 76
-0.356455 0.696267 0.345802 153 0 76
-0.100948 0.432369 0.194948 153 0 76
0.096771 -0.290553 0.231827 76 0 153
-0.445771 -0.214159 0.238812 153 0 76
-0.119867 -0.766541 -0.299292 153 0 76
0.272869 0.501658 -0.361294 153 0 76
-0.001154 0.415463 0.394929 255 0 0
0.511097 -0.657445 0.366900 153 0 76
-0.445771 -0.204121 0.306247 153 0 76
-0.333746 0.432369 -0.153478 153 0 76
-0.501034 -0.420641 0.394929 127 0 127
0.144986 0.626977 -0.103748 153 0 76
0.503936 -0.582627 -0.397031 153 0 76
0.425813 -0.626693 0.304507 153 0 76
-0.067231 0.626977 0.045022 153 0 76
-0.445771 -0.610475 0.075897 153 0 76
0.073916 -0.678099 0.364512 153 0 76
0.279313 0.582034 -0.338340 153 0 76
0.271350 0.432369 0.082939 153 0 76
0.101303 0.501658 0.243127 153 0 76
0.503936 -0.234846 -0.303885 153 0 76
-0.270184 0.626977 0.319899 153 0 76
-0.415578 0.432369 0.058759 153 0 76
0.425813 -0.432739 0.202917 153 0 76
0.503936 -0.250864 -0.119948 153 0 76
0.063864 -0.678099 0.154014 153 0 76
0.167740 -0.678099 -0.266717 153 0 76
0.294304 0.602249 0.366900 153 0 76
-0.541064 -0.583069 0.386227 127 0 127
0.324695 0.065067 -0.193605 153 0 76
0.343234 0.065067 -0.426468 153 0 76
0.372146 -0.095358 0.394929 127 0 127
0.144826 -0.766541 -0.199784 153 0 76
0.208133 0.286930 0.261858 153 0 76
-0.231935 0.582034 0.314478 153 0 76
0.221421 0.490574 0.366900 153 0 76
0.208865 0.626977 -0.376311 153 0 76
0.110601 0.626977 0.038364 153 0 76
-0.042265 0.039462 0.341043 153 0 76
-0.220990 0.582034 -0.038894 153 0 76
0.438273 0.488693 0.364920 153 0 76
-0.464924 0.155284 0.356520 153 0 76
0.425813 -0.064559 0.336600 153 0 76
0.235754 0.432369 -0.348176 153 0 76
-0.466663 -0.462272 0.394929 127 0 127
0.176678 0.432369 0.229606 153 0 76
0.425813 -0.255043 -0.116443 153 0 76
-0.212204 0.582034 -0.323656 153 0 76
0.241137 0.501658 -0.410091 153 0 76
0.417936 -0.016109 0.394929 127 0 127
-0.072021 -0.039333 0.450766 76 153 0
0.338148 0.065067 -0.374409 153 0 76
-0.534213 -0.005449 -0.130121 153 0 76
-0.534213 0.194805 -0.282911 153 0 76
-0.195688 0.696267 0.146487 153 0 76
-0.025655 -0.766541 0.311520 153 0 76
0.502625 0.656131 -0.399810 153 0 76
0.131166 0.501658 -0.265694 153 0 76
-0.445771 -0.474795 -0.116427 153 0 76
-0.168820 -0.678099 -0.039988 153 0 76
0.092100 0.294757 0.174967 153 0 76
-0.193117 0.284102 -0.382786 153 0 76
-0.507997 0.512745 0.230594 153 0 76
-0.464924 0.603628 -0.335378 153 0 76
-0.044232 0.039462 0.190207 153 0 76
-0.039317 0.134356 0.016536 153 0 76
0.349873 0.389879 -0.440440 153 0 76
0.503936 0.461348 -0.037374 153 0 76
-0.464924 0.208229 -0.037293 153 0 76
0.283115 -0.048979 -0.077537 153 0 76
0.410997 0.134356 -0.217619 153 0 76
-0.115802 0.501658 0.129044 153 0 76
0.054842 0.501658 -0.239772 153 0 76
-0.007021 0.432369 -0.251378 153 0 76
-0.445771 -0.110670 0.286787 153 0 76
0.419166 0.350185 0.362154 153 0 76
0.347632 -0.325571 -0.440440 153 0 76
0.503936 -0.590620 0.219524 153 0 76
-0.028845 -0.055098 -0.440440 153 0 76
-0.361188 0.582034 0.280261 153 0 76
0.310015 -0.048979 -0.419651 153 0 76
0.454541 -0.629119 0.366900 153 0 76
0.412782 -0.281923 -0.233747 153 0 76
0.425813 -0.345181 0.034360 153 0 76
0.043708 0.512745 0.364559 153 0 76
-0.032701 0.707472 0.394929 153 0 76
-0.114382 -0.048979 0.204984 153 0 76
-0.425393 -0.417435 0.267762 153 76 0
0.412360 -0.048979 -0.405453 153 0 76
-0.154136 0.432369 0.153065 153 0 76
-0.092997 0.432369 0.314001 153 0 76
0.033038 -0.320935 0.392758 0 127 127
-0.139501 -0.350426 -0.440440 153 0 76
-0.177503 0.061691 0.389301 255 0 0
0.074970 0.134356 -0.047469 153 0 76
0.225637 -0.678099 0.075800 153 0 76
-0.363509 -0.766541 0.022051 153 0 76
-0.434145 0.501658 0.359652 153 0 76
-0.511141 0.696267 -0.333046 153 0 76
0.476476 0.039462 0.211280 153 0 76
-0.534213 0.464999 -0.306415 153 0 76
-0.373581 -0.766541 -0.225907 153 0 76
0.425813 -0.667632 0.005058 153 0 76
0.425813 -0.477894 -0.420044 153 0 76
-0.065617 0.525220 0.394929 153 0 76
0.503936 -0.306461 -0.339967 153 0 76
0.503936 -0.351069 -0.102218 153 0 76
0.353991 -0.766541 0.130551 153 0 76
0.417618 0.039462 -0.166218 153 0 76
0.038156 0.696267 -0.243466 153 0 76
-0.484727 0.039462 -0.016075 153 0 76
0.307787 -0.225117 0.392758 0 127 127
0.106194 0.039462 0.145521 153 0 76
0.081928 0.432369 0.164327 153 0 76
0.137596 0.696267 0.203322 153 0 76
-0.049181 0.501658 0.192396 153 0 76
0.206154 -0.616475 0.390506 127 0 127
-0.198876 0.065067 -0.110004 153 0 76
0.093162 0.065067 0.080705 153 0 76
0.161748 0.551680 -0.440440 153 0 76
0.081746 0.696267 0.122167 153 0 76
0.059308 0.039462 -0.106230 153 0 76
0.187039 -0.766541 -0.299227 153 0 76
0.205420 -0.394499 -0.254023 153 76 0
0.124019 -0.028474 0.394929 127 0 127
-0.226182 0.039462 -0.383789 153 0 76
-0.534213 0.249268 0.054038 153 0 76
0.229475 0.065067 -0.176194 153 0 76
-0.440922 0.039462 0.311006 153 0 76
-0.348721 0.649812 0.394929 153 0 76
-0.161696 -0.292927 0.303696 76 0 153
-0.334819 0.065067 0.183503 153 0 76
0.143293 0.501658 -0.319622 153 0 76
0.218977 0.512745 0.169903 153 0 76
0.365972 0.579079 -0.440440 153 0 76
0.222237 0.134356 -0.291613 153 0 76
0.503936 0.182673 0.068221 153 0 76
0.172761 0.582034 0.222958 153 0 76
-0.256768 0.189450 0.390547 0 255 0
-0.468969 0.065067 -0.119038 153 0 76
0.303585 -0.678099 -0.400640 153 0 76
-0.320509 0.065067 0.357473 153 0 76
0.298599 0.277800 -0.440440 153 0 76
0.502625 0.675692 -0.141934 153 0 76
-0.534213 -0.391915 0.134825 153 0 76
0.078465 0.696267 -0.389374 153 0 76
0.503936 -0.524768 -0.361711 153 0 76
0.272617 0.065067 -0.385185 153 0 76
-0.321657 -0.042862 0.427834 76 153 0
0.382754 0.134356 -0.006173 153 0 76
0.473561 -0.766541 0.353545 153 0 76
-0.293228 0.442865 -0.440440 153 0 76
-0.445771 -0.385910 0.053976 153 0 76
0.442082 -0.766541 0.137631 153 0 76
-0.264923 0.039462 0.099790 153 0 76
0.267434 0.039462 0.177308 153 0 76
0.503936 0.206385 0.247266 153 0 76
0.185149 -0.417201 0.199675 153 76 0
0.425813 -0.375712 0.347910 153 0 76
0.272525 -0.678099 -0.145480 153 0 76
-0.534213 0.184049 0.096984 153 0 76
-0.096923 0.065067 -0.190750 153 0 76
0.331279 0.501658 -0.325158 153 0 76
0.305522 0.065067 -0.359284 153 0 76
-0.385468 0.501658 0.210986 153 0 76
0.285298 0.039910 0.394929 127 0 127
-0.135085 0.432369 0.215597 153 0 76
0.310771 -0.686781 0.394929 127 0 127
-0.156632 0.626977 0.204718 153 0 76
0.497794 0.653887 -0.440440 153 0 76
0.425813 -0.525067 0.117730 153 0 76
0.316985 0.209849 -0.382786 153 0 76
0.203580 0.259896 0.390547 0 255 0
-0.375944 0.626977 -0.214144 153 0 76
0.245500 0.294757 0.049291 153 0 76
-0.458445 -0.070011 0.408168 76 153 0
-0.464924 0.340066 -0.100393 153 0 76
