0.079435 0.109305 -0.040636 1.000000 0.000000 0.000000
-0.127602 0.075369 -0.011222 1.000000 0.000000 0.000000
-0.004728 0.057587 0.400570 0.600000 0.000000 0.300000
0.061306 0.154557 0.223747 0.500000 0.000000 0.500000
-0.460994 0.171748 0.200329 0.500000 0.000000 0.500000
-0.188062 0.090116 0.400570 0.600000 0.000000 0.300000
-0.226177 0.183939 0.168682 0.500000 0.000000 0.500000
-0.420611 0.176966 -0.369089 0.500000 0.000000 0.500000
0.064724 0.012359 0.280519 0.000000 1.000000 0.000000
0.308785 -0.106979 -0.310261 0.600000 0.000000 0.300000
-0.272271 0.159428 -0.095341 0.500000 0.000000 0.500000
0.323372 -0.583306 0.181038 0.000000 0.500000 0.500000
-0.215075 0.154525 -0.105801 0.500000 0.000000 0.500000
-0.280489 -0.021957 -0.100237 0.600000 0.000000 0.300000
-0.256502 -0.002348 0.050278 0.300000 0.600000 0.000000
-0.299218 0.015105 0.097971 0.600000 0.000000 0.300000
-0.245227 -0.002348 0.374287 0.800000 0.200000 0.500000
0.152041 0.183939 -0.363853 0.500000 0.000000 0.500000
-0.154662 0.183939 0.110871 0.500000 0.000000 0.500000
0.465987 0.159428 -0.062607 0.500000 0.000000 0.500000
0.010044 0.063892 -0.040636 1.000000 0.000000 0.000000
0.298483 -0.752207 -0.310261 0.600000 0.000000 0.300000
-0.299218 -0.005999 0.026201 0.600000 0.000000 0.300000
0.480098 0.183939 -0.004386 0.500000 0.000000 0.500000
0.335235 0.154525 -0.044638 0.500000 0.000000 0.500000
0.425504 0.159428 0.219786 0.500000 0.000000 0.500000
0.298860 0.115130 -0.265606 0.600000 0.000000 0.300000
0.266158 0.134916 -0.075350 0.600000 0.300000 0.000000
0.071053 0.005262 0.400570 0.600000 0.000000 0.300000
0.193395 0.037040 -0.275945 1.000000 0.000000 0.000000
-0.222340 0.183939 0.198455 0.500000 0.000000 0.500000
-0.229974 0.063718 0.064569 0.800000 0.200000 0.500000
0.367394 0.165977 -0.369089 0.500000 0.000000 0.500000
-0.249583 0.016251 0.288106 0.800000 0.200000 0.500000
0.000311 0.012359 0.237784 0.000000 1.000000 0.000000
0.307411 -0.023977 0.199576 0.000000 0.500000 0.500000
0.129729 0.025007 -0.040636 1.000000 0.000000 0.000000
-0.045837 0.019341 -0.275945 1.000000 0.000000 0.000000
-0.042761 0.154525 -0.051561 0.500000 0.000000 0.500000
0.223138 0.183939 -0.284856 0.500000 0.000000 0.500000
0.286656 -0.021957 0.008268 0.000000 0.500000 0.500000
-0.076141 0.154525 -0.297607 0.500000 0.000000 0.500000
0.158224 0.183939 -0.338132 0.500000 0.000000 0.500000
0.268834 0.108257 0.259210 0.000000 0.000000 1.000000
0.172982 0.154525 -0.053819 0.500000 0.000000 0.500000
0.289056 0.011831 0.039993 0.500000 0.000000 0.500000
-0.250196 0.000778 -0.284303 0.300000 0.600000 0.000000
0.275251 -0.409706 -0.294268 0.600000 0.000000 0.300000
-0.299218 0.077077 -0.140874 0.600000 0.000000 0.300000
0.160714 0.183939 0.037703 0.500000 0.000000 0.500000
-0.199655 0.012359 0.089812 0.000000 1.000000 0.000000
-0.254291 -0.312823 0.182584 0.300000 0.000000 0.600000
-0.433384 0.183939 -0.356995 0.500000 0.000000 0.500000
0.480245 0.168232 -0.204956 0.500000 0.000000 0.500000
0.268834 0.095223 0.272685 0.000000 0.000000 1.000000
-0.393129 0.181942 -0.369089 0.500000 0.000000 0.500000
0.195171 0.021631 0.410374 0.600000 0.000000 0.300000
0.167519 0.076008 0.429983 0.600000 0.000000 0.300000
0.323372 -0.389560 -0.274111 0.600000 0.000000 0.300000
-0.275819 0.159428 -0.070918 0.500000 0.000000 0.500000
0.289056 0.142683 0.013419 0.600000 0.300000 0.000000
0.304563 0.183939 0.180523 0.500000 0.000000 0.500000
-0.033589 0.038268 0.429983 0.600000 0.000000 0.300000
0.318469 0.010086 0.075804 0.300000 0.000000 0.600000
0.410052 0.154525 -0.097365 0.500000 0.000000 0.500000
-0.197332 0.159428 0.255610 0.500000 0.000000 0.500000
0.391530 0.159428 -0.329804 0.500000 0.000000 0.500000
0.071082 0.012359 0.219209 0.000000 1.000000 0.000000
-0.189090 0.022164 0.035371 0.000000 1.000000 0.000000
-0.384384 0.154525 -0.149246 0.500000 0.000000 0.500000
-0.391289 0.160491 0.258404 0.500000 0.000000 0.500000
-0.277686 -0.475184 -0.263296 0.300000 0.600000 0.000000
-0.236903 0.121216 -0.018390 1.000000 0.000000 0.000000
0.235731 0.183939 0.114973 0.500000 0.000000 0.500000
-0.304121 0.052469 0.176422 0.300000 0.000000 0.600000
-0.286364 -0.804429 -0.310261 0.300000 0.600000 0.000000
-0.229974 0.063963 0.230534 0.800000 0.200000 0.500000
-0.220782 0.138255 0.104386 0.300000 0.000000 0.600000
-0.249583 0.120670 0.243784 0.800000 0.200000 0.500000
0.220421 0.022164 0.085982 0.000000 1.000000 0.000000
0.269446 0.113751 -0.297055 0.600000 0.000000 0.300000
-0.077397 0.022164 0.269025 0.000000 1.000000 0.000000
0.151865 0.183939 -0.182612 0.500000 0.000000 0.500000
-0.263790 0.091966 -0.295555 1.000000 0.000000 0.000000
-0.299218 0.136703 -0.018825 0.600000 0.000000 0.300000
-0.000297 0.154525 -0.062341 0.500000 0.000000 0.500000
-0.236966 -0.021957 -0.124635 0.300000 0.600000 0.000000
0.323372 0.023807 0.148536 0.000000 0.500000 0.500000
0.269446 -0.002876 -0.295697 1.000000 0.000000 0.000000
0.269795 -0.100538 -0.294109 0.600000 0.000000 0.300000
0.169722 0.154525 -0.261167 0.500000 0.000000 0.500000
0.157459 0.075433 -0.040636 1.000000 0.000000 0.000000
0.261050 0.154525 -0.240720 0.600000 0.300000 0.000000
-0.115307 0.183939 -0.206497 0.500000 0.000000 0.500000
0.335154 0.159428 -0.279259 0.500000 0.000000 0.500000
-0.304121 -0.898724 0.188397 0.300000 0.000000 0.600000
0.279180 -0.632344 -0.286259 0.600000 0.000000 0.300000
0.026371 0.183939 -0.124912 0.500000 0.000000 0.500000
-0.029090 0.142058 -0.275945 1.000000 0.000000 0.000000
0.187063 0.012359 0.298677 0.000000 1.000000 0.000000
-0.250196 0.044418 -0.059028 0.500000 0.000000 0.500000
0.182444 0.183939 0.228468 0.500000 0.000000 0.500000
-0.229974 0.051969 -0.000658 0.800000 0.200000 0.500000
-0.299218 0.079764 0.115441 0.600000 0.000000 0.300000
0.019071 0.012359 0.181147 0.000000 1.000000 0.000000
0.298279 -0.501636 -0.263763 0.600000 0.000000 0.300000
-0.303522 0.071254 -0.310261 0.300000 0.600000 0.000000
0.302523 -0.021957 -0.140407 0.300000 0.000000 0.600000
0.188512 0.145122 -0.305359 1.000000 0.000000 0.000000
-0.299218 0.034779 -0.157176 0.600000 0.000000 0.300000
0.182275 0.141286 0.165260 0.500000 0.000000 0.500000
0.386272 0.154525 -0.294767 0.500000 0.000000 0.500000
-0.138862 0.128315 -0.305359 1.000000 0.000000 0.000000
-0.251061 -0.129806 -0.289294 0.300000 0.600000 0.000000
-0.250196 0.036220 -0.297345 0.300000 0.600000 0.000000
-0.264139 -0.870852 -0.307888 0.300000 0.600000 0.000000
-0.166372 0.159428 0.092970 0.500000 0.000000 0.500000
0.217896 0.159428 0.001989 0.500000 0.000000 0.500000
0.323372 -0.477619 -0.269029 0.600000 0.000000 0.300000
0.384241 0.183939 0.124870 0.500000 0.000000 0.500000
-0.272418 -0.892158 0.159970 0.300000 0.000000 0.600000
0.214361 0.123127 -0.275945 1.000000 0.000000 0.000000
0.469450 0.159428 0.082719 0.500000 0.000000 0.500000
0.107806 -0.002348 0.176700 0.600000 0.000000 0.300000
0.412871 0.159428 -0.243683 0.500000 0.000000 0.500000
0.266838 0.015334 -0.275945 1.000000 0.000000 0.000000
-0.229974 0.030723 0.315511 0.800000 0.200000 0.500000
-0.170855 0.183939 0.080759 0.500000 0.000000 0.500000
0.213193 0.015439 -0.275945 1.000000 0.000000 0.000000
0.245723 0.022164 0.135864 0.000000 1.000000 0.000000
0.268834 0.068902 0.060991 0.000000 0.000000 1.000000
0.318469 0.146818 -0.143209 0.300000 0.000000 0.600000
0.200752 0.154525 0.173612 0.500000 0.000000 0.500000
0.174917 0.125660 0.429983 0.600000 0.000000 0.300000
-0.214495 0.183939 0.102041 0.500000 0.000000 0.500000
-0.133152 0.078198 0.400570 0.600000 0.000000 0.300000
-0.252289 0.183939 0.119552 0.500000 0.000000 0.500000
-0.059489 0.022164 0.212219 0.000000 1.000000 0.000000
-0.246092 0.180667 -0.369089 0.500000 0.000000 0.500000
0.256426 0.012359 0.061073 0.000000 0.000000 1.000000
0.285850 -0.021957 0.044330 0.000000 0.500000 0.500000
0.249225 0.024584 0.234727 0.000000 0.000000 1.000000
-0.209102 0.154525 0.164157 0.500000 0.000000 0.500000
-0.288227 0.183939 0.239705 0.500000 0.000000 0.500000
-0.198419 0.183939 -0.190275 0.500000 0.000000 0.500000
0.186234 0.183939 -0.361774 0.500000 0.000000 0.500000
0.056885 0.183939 0.171485 0.500000 0.000000 0.500000
0.323372 -0.258836 -0.280741 0.600000 0.000000 0.300000
0.139224 0.159428 0.068554 0.500000 0.000000 0.500000
-0.229974 0.058469 0.295686 0.800000 0.200000 0.500000
0.127217 0.012359 0.220050 0.000000 1.000000 0.000000
-0.122398 0.137515 0.194674 0.500000 0.000000 0.500000
0.323871 0.183939 0.167509 0.500000 0.000000 0.500000
0.334786 0.159428 0.145535 0.500000 0.000000 0.500000
-0.397584 0.159428 0.227534 0.500000 0.000000 0.500000
-0.023163 0.012359 0.218592 0.000000 1.000000 0.000000
0.124366 0.183939 -0.093113 0.500000 0.000000 0.500000
-0.186959 0.023068 -0.275945 1.000000 0.000000 0.000000
0.286958 -0.515873 -0.264014 0.600000 0.000000 0.300000
-0.300225 0.159428 -0.349215 0.500000 0.000000 0.500000
-0.289414 0.086969 0.164817 0.600000 0.000000 0.300000
0.276585 -0.021957 -0.247141 0.000000 0.500000 0.500000
-0.157920 0.023351 -0.040636 1.000000 0.000000 0.000000
0.185038 -0.021957 0.185803 0.600000 0.000000 0.300000
0.426776 0.159428 -0.164009 0.500000 0.000000 0.500000
-0.299218 0.026325 -0.070249 0.600000 0.000000 0.300000
0.318469 -0.018423 0.056896 0.300000 0.000000 0.600000
0.257300 0.173878 0.258404 0.500000 0.000000 0.500000
0.117673 0.012359 0.012776 0.000000 1.000000 0.000000
0.249225 0.004400 0.384365 0.000000 0.000000 1.000000
-0.057007 0.154525 0.151290 0.500000 0.000000 0.500000
-0.052217 0.022164 0.015065 0.000000 1.000000 0.000000
-0.280572 -0.820856 -0.310261 0.300000 0.600000 0.000000
0.289056 -0.017103 -0.152306 0.300000 0.000000 0.600000
-0.273912 0.161771 0.258404 0.500000 0.000000 0.500000
-0.399588 0.183939 0.075863 0.500000 0.000000 0.500000
-0.160693 0.183939 -0.338114 0.500000 0.000000 0.500000
0.289056 0.030606 -0.219420 0.300000 0.000000 0.600000
0.282311 -0.809810 0.190005 0.000000 0.500000 0.500000
0.446698 0.159428 -0.098912 0.500000 0.000000 0.500000
-0.304121 0.088113 -0.287234 0.300000 0.600000 0.000000
-0.182656 0.159428 -0.358947 0.500000 0.000000 0.500000
0.308177 -0.411070 -0.310261 0.600000 0.000000 0.300000
0.120652 0.159428 -0.047337 0.500000 0.000000 0.500000
-0.220782 -0.015071 -0.094888 0.300000 0.600000 0.000000
0.131124 0.082518 0.429983 0.600000 0.000000 0.300000
-0.239778 0.017255 0.149356 0.800000 0.200000 0.500000
0.347879 0.154525 0.173350 0.500000 0.000000 0.500000
0.268834 0.018210 0.355177 0.000000 0.000000 1.000000
0.272298 0.140814 -0.256336 0.600000 0.000000 0.300000
0.265552 0.133691 0.280080 0.000000 0.000000 1.000000
0.209634 0.154525 -0.222383 0.500000 0.000000 0.500000
0.095184 0.159428 -0.320367 0.500000 0.000000 0.500000
0.084614 0.022164 0.371264 0.000000 1.000000 0.000000
-0.186687 -0.021957 0.183177 0.600000 0.000000 0.300000
0.307416 -0.338434 0.199576 0.000000 0.500000 0.500000
-0.250196 0.143709 -0.284005 0.300000 0.600000 0.000000
-0.254780 -0.340536 -0.295546 0.300000 0.600000 0.000000
-0.069407 0.183939 -0.221596 0.500000 0.000000 0.500000
-0.354046 0.159428 0.226924 0.500000 0.000000 0.500000
-0.271324 0.007618 -0.310261 0.300000 0.600000 0.000000
-0.118415 0.183939 0.189774 0.500000 0.000000 0.500000
0.318469 -0.000088 -0.158602 0.300000 0.000000 0.600000
0.152258 0.183939 0.125701 0.500000 0.000000 0.500000
0.323372 -0.019951 0.185542 0.000000 0.500000 0.500000
0.273697 -0.321682 0.174356 0.000000 0.500000 0.500000
0.232735 0.069666 0.400570 0.600000 0.000000 0.300000
0.194196 0.154525 -0.250554 0.500000 0.000000 0.500000
-0.121746 -0.011409 0.194674 0.600000 0.000000 0.300000
-0.239778 0.018764 0.009731 0.800000 0.200000 0.500000
-0.261649 0.159428 0.163520 0.500000 0.000000 0.500000
-0.064236 0.037965 -0.011222 1.000000 0.000000 0.000000
-0.238865 0.134916 -0.177384 0.300000 0.000000 0.600000
0.423394 0.183939 0.105264 0.500000 0.000000 0.500000
0.273755 -0.324943 -0.265957 0.600000 0.000000 0.300000
-0.223683 0.022164 -0.019460 0.000000 1.000000 0.000000
-0.269805 0.111697 0.016692 0.600000 0.000000 0.300000
0.249225 0.101903 0.418429 0.600000 0.000000 0.300000
0.318469 0.108962 -0.093383 0.300000 0.000000 0.600000
-0.185574 0.054214 0.429983 0.600000 0.000000 0.300000
-0.178574 0.012359 -0.021314 0.000000 1.000000 0.000000
-0.229974 0.001501 0.197321 0.800000 0.200000 0.500000
-0.047454 0.183939 -0.106141 0.500000 0.000000 0.500000
0.217332 -0.017595 0.165260 0.600000 0.000000 0.300000
-0.402643 0.159428 -0.280238 0.500000 0.000000 0.500000
0.004905 0.154525 0.180946 0.500000 0.000000 0.500000
-0.320269 0.154525 -0.198773 0.500000 0.000000 0.500000
0.129432 0.154525 0.098638 0.500000 0.000000 0.500000
0.211939 0.180598 -0.369089 0.500000 0.000000 0.500000
0.272274 -0.241039 0.161102 0.000000 0.500000 0.500000
-0.296833 0.159428 -0.287300 0.500000 0.000000 0.500000
0.250604 -0.002348 0.044221 0.000000 0.000000 1.000000
0.318469 0.088375 -0.000033 0.300000 0.000000 0.600000
0.017184 0.012359 0.050116 0.000000 1.000000 0.000000
-0.265819 0.173322 -0.369089 0.500000 0.000000 0.500000
0.335891 0.154525 -0.317865 0.500000 0.000000 0.500000
0.318469 -0.008988 -0.090361 0.300000 0.000000 0.600000
0.304053 -0.362806 -0.261313 0.600000 0.000000 0.300000
0.323372 -0.149914 0.186160 0.000000 0.500000 0.500000
0.064646 0.150407 0.194674 0.500000 0.000000 0.500000
-0.285581 0.183939 -0.346792 0.500000 0.000000 0.500000
0.480245 0.167739 0.239209 0.500000 0.000000 0.500000
-0.112726 0.183939 -0.299402 0.500000 0.000000 0.500000
-0.229974 0.095590 0.228497 0.800000 0.200000 0.500000
0.154477 0.035962 -0.305359 1.000000 0.000000 0.000000
-0.299218 0.047240 0.044161 0.600000 0.000000 0.300000
0.316262 0.154525 -0.075494 0.300000 0.000000 0.600000
-0.185316 -0.002348 0.403398 0.600000 0.000000 0.300000
0.023756 0.133691 0.402727 0.600000 0.000000 0.300000
0.277431 -0.533242 -0.304161 0.600000 0.000000 0.300000
-0.091295 0.012359 0.328185 0.000000 1.000000 0.000000
-0.269805 0.015361 -0.206464 0.500000 0.000000 0.500000
-0.319505 0.154525 0.199502 0.500000 0.000000 0.500000
0.237954 0.017829 -0.040636 0.000000 1.000000 0.000000
-0.304121 -0.169385 0.155824 0.300000 0.000000 0.600000
-0.231680 0.154525 0.101003 0.500000 0.000000 0.500000
-0.265696 0.134916 -0.157434 0.300000 0.000000 0.600000
-0.181849 -0.021957 -0.284940 1.000000 0.000000 0.000000
0.296236 -0.442345 0.152032 0.000000 0.500000 0.500000
-0.436064 0.155924 -0.051353 0.500000 0.000000 0.500000
-0.017160 0.022164 -0.010381 0.000000 1.000000 0.000000
0.323372 -0.148488 -0.289042 0.600000 0.000000 0.300000
-0.066285 0.026452 0.429983 0.600000 0.000000 0.300000
-0.232449 0.183939 -0.131809 0.500000 0.000000 0.500000
-0.307255 0.159428 -0.110009 0.500000 0.000000 0.500000
-0.249583 0.055963 0.352497 0.800000 0.200000 0.500000
0.249225 0.053030 -0.004535 0.000000 0.000000 1.000000
0.078886 0.183939 -0.226667 0.500000 0.000000 0.500000
0.290592 0.183939 0.256709 0.500000 0.000000 0.500000
-0.314388 0.176605 -0.369089 0.500000 0.000000 0.500000
-0.289214 -0.102846 0.146040 0.300000 0.000000 0.600000
-0.357051 0.154525 0.078161 0.500000 0.000000 0.500000
-0.299218 0.117470 0.134634 0.600000 0.000000 0.300000
0.400643 0.183939 0.078575 0.500000 0.000000 0.500000
-0.389417 0.183939 0.201901 0.500000 0.000000 0.500000
0.322207 0.183939 0.095317 0.500000 0.000000 0.500000
-0.038414 0.044458 -0.040636 1.000000 0.000000 0.000000
-0.304121 -0.220953 -0.277143 0.300000 0.600000 0.000000
-0.304121 0.091032 0.157382 0.300000 0.000000 0.600000
-0.090552 0.154525 0.015810 0.500000 0.000000 0.500000
-0.229974 0.103234 0.204659 0.800000 0.200000 0.500000
0.164033 0.022164 0.370108 0.000000 1.000000 0.000000
-0.269805 0.037221 -0.171952 0.600000 0.000000 0.300000
-0.250196 -0.029999 -0.294082 0.300000 0.600000 0.000000
0.206697 -0.002348 0.189879 0.600000 0.000000 0.300000
-0.113612 0.012359 0.155731 0.000000 1.000000 0.000000
0.307260 -0.021957 -0.161300 0.300000 0.000000 0.600000
-0.291297 -0.521200 0.199576 0.300000 0.000000 0.600000
-0.414443 0.159428 -0.149930 0.500000 0.000000 0.500000
-0.221187 -0.002348 -0.007446 0.300000 0.600000 0.000000
0.279485 -0.014768 0.165260 0.000000 0.500000 0.500000
0.042360 0.154525 -0.250123 0.500000 0.000000 0.500000
0.265938 0.154525 -0.087666 0.600000 0.300000 0.000000
0.013467 0.183939 0.150138 0.500000 0.000000 0.500000
0.284779 0.032781 0.145651 0.500000 0.000000 0.500000
0.422650 0.183939 -0.053517 0.500000 0.000000 0.500000
0.471791 0.159428 0.201501 0.500000 0.000000 0.500000
0.323372 -0.743502 0.167965 0.000000 0.500000 0.500000
-0.161150 0.154525 -0.266623 0.500000 0.000000 0.500000
-0.146075 0.134916 0.180840 0.500000 0.000000 0.500000
-0.123927 -0.002348 0.179874 0.600000 0.000000 0.300000
0.108942 0.183939 -0.043477 0.500000 0.000000 0.500000
-0.263339 0.154525 -0.282379 0.300000 0.600000 0.000000
-0.246960 0.159428 -0.321233 0.500000 0.000000 0.500000
-0.233622 0.134916 0.067591 0.300000 0.000000 0.600000
0.073694 0.012359 0.261796 0.000000 1.000000 0.000000
-0.304121 -0.194786 0.165657 0.300000 0.000000 0.600000
-0.239127 0.110527 0.429983 0.600000 0.000000 0.300000
-0.016236 0.012359 0.171523 0.000000 1.000000 0.000000
-0.249583 0.053018 0.182374 0.800000 0.200000 0.500000
0.275769 0.134916 -0.014561 0.600000 0.300000 0.000000
-0.087662 0.159428 0.240904 0.500000 0.000000 0.500000
-0.395127 0.154525 -0.097719 0.500000 0.000000 0.500000
0.270492 0.111800 -0.256336 0.600000 0.000000 0.300000
-0.164724 0.159428 -0.160551 0.500000 0.000000 0.500000
0.283730 -0.890210 -0.306108 0.600000 0.000000 0.300000
-0.388866 0.157666 -0.356553 0.500000 0.000000 0.500000
0.480245 0.170435 -0.039074 0.500000 0.000000 0.500000
-0.128282 0.022164 -0.022570 0.000000 1.000000 0.000000
-0.299218 0.035957 0.125400 0.600000 0.000000 0.300000
-0.304121 0.106169 0.174707 0.300000 0.000000 0.600000
-0.056606 0.159428 -0.112010 0.500000 0.000000 0.500000
-0.261008 -0.693482 0.172524 0.300000 0.000000 0.600000
-0.366787 0.183939 0.120949 0.500000 0.000000 0.500000
-0.084080 0.183939 -0.138168 0.500000 0.000000 0.500000
0.418495 0.183939 -0.297309 0.500000 0.000000 0.500000
0.268834 0.012563 0.324015 0.000000 0.000000 1.000000
-0.251955 -0.180438 -0.303811 0.300000 0.600000 0.000000
-0.250196 -0.009785 0.162583 0.300000 0.000000 0.600000
0.323372 -0.116833 0.164530 0.000000 0.500000 0.500000
-0.201891 0.183939 0.116396 0.500000 0.000000 0.500000
-0.213099 0.022164 0.246756 0.000000 1.000000 0.000000
0.105062 0.133691 0.417562 0.600000 0.000000 0.300000
0.134086 0.154525 -0.077912 0.500000 0.000000 0.500000
0.171476 0.183939 0.177789 0.500000 0.000000 0.500000
0.390995 0.159428 -0.044508 0.500000 0.000000 0.500000
-0.144178 0.183939 -0.287151 0.500000 0.000000 0.500000
-0.092340 0.134916 0.180551 0.500000 0.000000 0.500000
0.161119 0.183939 -0.056144 0.500000 0.000000 0.500000
0.249225 0.126264 0.037018 0.000000 0.000000 1.000000
0.323372 -0.719965 -0.290446 0.600000 0.000000 0.300000
-0.388149 0.159428 0.096660 0.500000 0.000000 0.500000
0.063847 0.183939 -0.348096 0.500000 0.000000 0.500000
0.267341 -0.002348 -0.169087 0.000000 0.500000 0.500000
-0.326494 0.159428 0.012080 0.500000 0.000000 0.500000
0.017357 0.183939 -0.300282 0.500000 0.000000 0.500000
0.160161 0.183939 -0.013298 0.500000 0.000000 0.500000
-0.166729 0.183939 -0.080427 0.500000 0.000000 0.500000
-0.019913 -0.021957 0.176269 0.600000 0.000000 0.300000
-0.009398 0.107635 -0.040636 1.000000 0.000000 0.000000
0.283282 0.046675 -0.029758 0.500000 0.000000 0.500000
0.105247 0.183939 0.059014 0.500000 0.000000 0.500000
-0.304121 -0.125485 -0.258684 0.300000 0.600000 0.000000
0.072806 0.178554 0.258404 0.500000 0.000000 0.500000
-0.230637 0.183939 -0.246071 0.500000 0.000000 0.500000
0.331103 0.159428 -0.346220 0.500000 0.000000 0.500000
-0.197666 0.183939 0.141894 0.500000 0.000000 0.500000
0.291413 -0.617019 0.199576 0.000000 0.500000 0.500000
-0.249583 0.027258 0.411568 0.800000 0.200000 0.500000
-0.289414 0.112422 0.178313 0.600000 0.000000 0.300000
-0.229974 0.098807 0.264829 0.800000 0.200000 0.500000
-0.249583 0.009410 0.257413 0.800000 0.200000 0.500000
-0.020209 0.183939 -0.258034 0.500000 0.000000 0.500000
0.289292 -0.367004 0.150702 0.000000 0.500000 0.500000
-0.177212 -0.002348 0.186688 0.600000 0.000000 0.300000
-0.286675 0.183939 0.140355 0.500000 0.000000 0.500000
-0.287997 0.132720 -0.256336 0.300000 0.600000 0.000000
0.456769 0.183939 0.243862 0.500000 0.000000 0.500000
-0.207357 -0.007167 0.194674 0.600000 0.000000 0.300000
0.249225 0.096073 0.169184 0.000000 0.000000 1.000000
-0.299218 0.096855 -0.066052 0.600000 0.000000 0.300000
0.187973 0.159428 0.194509 0.500000 0.000000 0.500000
0.268834 0.004482 0.033050 0.000000 0.000000 1.000000
-0.264037 -0.865120 0.160941 0.300000 0.000000 0.600000
-0.031465 -0.002348 0.425442 0.600000 0.000000 0.300000
0.387256 0.168139 0.258404 0.500000 0.000000 0.500000
-0.125433 0.183939 -0.057747 0.500000 0.000000 0.500000
-0.270405 0.183939 -0.027910 0.500000 0.000000 0.500000
-0.304121 -0.284024 0.199010 0.300000 0.000000 0.600000
0.240515 -0.021957 -0.184905 0.000000 0.500000 0.500000
0.162131 0.183939 -0.300129 0.500000 0.000000 0.500000
0.401899 0.159428 -0.024192 0.500000 0.000000 0.500000
-0.242973 0.133691 0.327702 0.800000 0.200000 0.500000
-0.133428 0.154801 -0.336171 0.500000 0.000000 0.500000
-0.289345 -0.138874 -0.257361 0.300000 0.600000 0.000000
-0.255955 -0.155284 -0.257651 0.300000 0.600000 0.000000
-0.178611 0.183939 -0.101507 0.500000 0.000000 0.500000
-0.370441 0.183939 -0.071744 0.500000 0.000000 0.500000
-0.249583 0.084408 -0.029412 0.800000 0.200000 0.500000
-0.049578 0.159428 -0.198199 0.500000 0.000000 0.500000
-0.194457 0.022164 0.356409 0.000000 1.000000 0.000000
-0.261097 -0.522770 -0.264136 0.300000 0.600000 0.000000
0.104827 0.027617 0.429983 0.600000 0.000000 0.300000
-0.001482 0.079489 0.429983 0.600000 0.000000 0.300000
-0.225519 -0.021957 -0.262323 0.300000 0.600000 0.000000
0.318469 0.039090 -0.157855 0.300000 0.000000 0.600000
0.272306 -0.242852 -0.296756 0.600000 0.000000 0.300000
-0.258544 -0.154373 0.199576 0.300000 0.000000 0.600000
0.332901 0.154525 0.073183 0.500000 0.000000 0.500000
0.270486 -0.139723 0.192863 0.000000 0.500000 0.500000
-0.304121 -0.315003 -0.270949 0.300000 0.600000 0.000000
-0.134404 0.159428 -0.301281 0.500000 0.000000 0.500000
-0.008279 0.183939 -0.239659 0.500000 0.000000 0.500000
-0.289414 0.022057 0.183734 0.300000 0.000000 0.600000
-0.304121 -0.690972 -0.288093 0.300000 0.600000 0.000000
-0.093606 0.092527 0.400570 0.600000 0.000000 0.300000
0.323372 -0.525793 0.191256 0.000000 0.500000 0.500000
0.227710 0.154525 0.192680 0.500000 0.000000 0.500000
0.269446 0.091240 0.147508 0.000000 0.500000 0.500000
0.376211 0.183939 -0.295536 0.500000 0.000000 0.500000
-0.135308 0.012359 0.253049 0.000000 1.000000 0.000000
-0.376891 0.183939 -0.035444 0.500000 0.000000 0.500000
-0.294046 -0.866491 -0.310261 0.300000 0.600000 0.000000
-0.219556 0.159428 -0.334232 0.500000 0.000000 0.500000
-0.215835 0.012359 0.166178 0.000000 1.000000 0.000000
-0.269805 0.080191 0.136773 0.600000 0.000000 0.300000
0.452854 0.155578 0.071080 0.500000 0.000000 0.500000
-0.279675 -0.271636 0.199576 0.300000 0.000000 0.600000
-0.423589 0.159428 -0.219911 0.500000 0.000000 0.500000
0.268834 0.066509 0.321539 0.000000 0.000000 1.000000
0.435330 0.183939 -0.295360 0.500000 0.000000 0.500000
-0.143204 0.159428 -0.044452 0.500000 0.000000 0.500000
0.078175 0.134916 0.180043 0.500000 0.000000 0.500000
-0.107305 0.183939 0.155703 0.500000 0.000000 0.500000
-0.166405 0.062790 -0.011222 1.000000 0.000000 0.000000
0.252345 0.183939 -0.280404 0.500000 0.000000 0.500000
0.166220 0.154525 -0.234782 0.500000 0.000000 0.500000
0.107172 0.022164 -0.010540 0.000000 1.000000 0.000000
0.181259 0.183939 -0.203465 0.500000 0.000000 0.500000
0.167937 0.159428 0.006539 0.500000 0.000000 0.500000
0.104389 0.159428 0.029105 0.500000 0.000000 0.500000
-0.234252 0.012359 0.390295 0.000000 1.000000 0.000000
-0.338979 0.183939 -0.163259 0.500000 0.000000 0.500000
0.270414 0.134916 -0.219926 0.600000 0.300000 0.000000
-0.289414 0.057491 -0.278576 0.300000 0.600000 0.000000
0.240033 0.145113 0.141009 0.600000 0.300000 0.000000
0.308165 -0.820071 -0.269382 0.600000 0.000000 0.300000
-0.250196 0.014218 -0.088728 0.500000 0.000000 0.500000
0.441865 0.183939 0.130187 0.500000 0.000000 0.500000
-0.289414 0.080348 -0.286044 0.300000 0.600000 0.000000
-0.375435 0.183939 0.245770 0.500000 0.000000 0.500000
-0.216426 0.183939 -0.293928 0.500000 0.000000 0.500000
0.202090 0.061449 -0.305359 1.000000 0.000000 0.000000
0.203037 0.079760 0.400570 0.600000 0.000000 0.300000
0.323372 -0.902031 0.176491 0.000000 0.500000 0.500000
0.317992 -0.193227 0.147635 0.000000 0.500000 0.500000
0.334560 0.154525 0.205098 0.500000 0.000000 0.500000
0.141624 0.103350 0.429983 0.600000 0.000000 0.300000
0.276789 -0.468593 0.152495 0.000000 0.500000 0.500000
0.266409 0.183939 -0.158862 0.500000 0.000000 0.500000
-0.239769 0.022164 0.254463 0.000000 1.000000 0.000000
-0.154549 0.183939 -0.155160 0.500000 0.000000 0.500000
0.261359 0.183939 -0.044364 0.500000 0.000000 0.500000
-0.277935 -0.366589 0.150695 0.300000 0.000000 0.600000
-0.041795 0.039114 -0.305359 1.000000 0.000000 0.000000
0.152071 0.183939 0.080213 0.500000 0.000000 0.500000
0.153523 0.022164 0.123707 0.000000 1.000000 0.000000
0.038919 0.012359 0.075611 0.000000 1.000000 0.000000
0.158852 0.027340 -0.040636 1.000000 0.000000 0.000000
-0.263366 -0.827057 -0.293823 0.300000 0.600000 0.000000
-0.274927 -0.507516 -0.263867 0.300000 0.600000 0.000000
-0.428017 0.183939 -0.234728 0.500000 0.000000 0.500000
-0.073130 0.110609 -0.011222 1.000000 0.000000 0.000000
0.302331 0.139932 0.145651 0.000000 0.500000 0.500000
-0.271880 0.052512 -0.295555 1.000000 0.000000 0.000000
-0.381536 0.159428 -0.000099 0.500000 0.000000 0.500000
0.192473 0.183939 0.077752 0.500000 0.000000 0.500000
0.157076 0.012359 0.401800 0.000000 1.000000 0.000000
-0.096316 0.183939 0.095618 0.500000 0.000000 0.500000
-0.220757 -0.021957 -0.288394 1.000000 0.000000 0.000000
0.097472 0.183939 -0.028395 0.500000 0.000000 0.500000
-0.023391 0.032448 0.400570 0.600000 0.000000 0.300000
0.291512 -0.375900 0.199576 0.000000 0.500000 0.500000
-0.118042 0.183939 -0.018998 0.500000 0.000000 0.500000
-0.304121 -0.294401 -0.302469 0.300000 0.600000 0.000000
0.439995 0.159428 -0.366587 0.500000 0.000000 0.500000
0.268631 0.134916 -0.109890 0.600000 0.300000 0.000000
-0.240096 -0.002348 -0.056035 0.300000 0.600000 0.000000
-0.017760 0.154525 -0.215674 0.500000 0.000000 0.500000
0.171072 0.022164 0.144879 0.000000 1.000000 0.000000
-0.270563 -0.437087 -0.310261 0.300000 0.600000 0.000000
-0.168235 0.154525 0.167260 0.500000 0.000000 0.500000
-0.455116 0.159428 0.137643 0.500000 0.000000 0.500000
0.299674 -0.696322 0.199576 0.000000 0.500000 0.500000
-0.299218 0.068718 -0.064055 0.600000 0.000000 0.300000
-0.086775 0.022164 0.134530 0.000000 1.000000 0.000000
-0.144700 0.022164 0.035159 0.000000 1.000000 0.000000
0.055817 0.100088 0.429983 0.600000 0.000000 0.300000
0.235148 0.133691 -0.025079 1.000000 0.000000 0.000000
-0.299218 0.126624 0.006579 0.600000 0.000000 0.300000
-0.089906 0.183939 -0.260807 0.500000 0.000000 0.500000
-0.369331 0.159428 0.051425 0.500000 0.000000 0.500000
-0.240962 0.035139 -0.014821 0.800000 0.200000 0.500000
-0.304121 0.041103 0.154341 0.300000 0.000000 0.600000
0.276000 -0.423307 0.151696 0.000000 0.500000 0.500000
0.195969 0.022164 0.022155 0.000000 1.000000 0.000000
-0.040770 -0.021957 0.188656 0.600000 0.000000 0.300000
0.106016 0.022164 0.104552 0.000000 1.000000 0.000000
0.304850 -0.434568 0.199576 0.000000 0.500000 0.500000
-0.119302 0.111398 0.400570 0.600000 0.000000 0.300000
-0.057226 0.183939 -0.126538 0.500000 0.000000 0.500000
-0.082062 0.012359 0.019788 0.000000 1.000000 0.000000
-0.042864 0.012359 0.206059 0.000000 1.000000 0.000000
-0.071358 -0.021957 -0.288334 1.000000 0.000000 0.000000
-0.460994 0.172783 -0.354677 0.500000 0.000000 0.500000
0.318469 0.067914 -0.140678 0.300000 0.000000 0.600000
0.051755 0.052872 0.400570 0.600000 0.000000 0.300000
-0.299218 0.070742 0.065963 0.600000 0.000000 0.300000
-0.270813 -0.025486 0.145651 0.300000 0.000000 0.600000
0.318469 0.027323 -0.214467 0.300000 0.000000 0.600000
0.304465 -0.720566 -0.267626 0.600000 0.000000 0.300000
0.208230 0.183939 0.013101 0.500000 0.000000 0.500000
-0.137954 0.183939 0.110532 0.500000 0.000000 0.500000
-0.304121 -0.583568 0.177423 0.300000 0.000000 0.600000
0.050812 0.012359 0.109574 0.000000 1.000000 0.000000
-0.126340 0.159428 -0.006162 0.500000 0.000000 0.500000
0.042377 0.012359 0.405761 0.000000 1.000000 0.000000
-0.410084 0.154525 -0.012792 0.500000 0.000000 0.500000
-0.216033 0.012359 0.336344 0.000000 1.000000 0.000000
0.023468 0.020552 0.410374 0.600000 0.000000 0.300000
-0.421172 0.159428 0.011958 0.500000 0.000000 0.500000
-0.357751 0.154525 -0.295200 0.500000 0.000000 0.500000
-0.267369 0.154525 -0.316600 0.500000 0.000000 0.500000
0.323372 -0.407760 -0.296091 0.600000 0.000000 0.300000
-0.220840 0.031062 -0.040636 1.000000 0.000000 0.000000
-0.159325 0.094960 -0.011222 1.000000 0.000000 0.000000
0.029664 0.154525 0.149215 0.500000 0.000000 0.500000
-0.295041 0.089432 -0.256336 0.600000 0.000000 0.300000
-0.235091 0.159428 -0.296685 0.500000 0.000000 0.500000
0.031643 0.159428 0.209785 0.500000 0.000000 0.500000
0.323372 -0.882013 0.194087 0.000000 0.500000 0.500000
0.027418 0.031255 -0.040636 1.000000 0.000000 0.000000
-0.227107 0.154525 -0.239900 0.500000 0.000000 0.500000
-0.220782 0.135790 0.028543 0.300000 0.000000 0.600000
0.308665 0.068578 0.163187 0.000000 0.500000 0.500000
-0.263568 -0.838500 0.178521 0.300000 0.000000 0.600000
-0.157368 0.022164 0.003274 0.000000 1.000000 0.000000
0.312018 -0.914172 0.171817 0.000000 0.500000 0.500000
0.291235 0.183939 -0.206956 0.500000 0.000000 0.500000
0.318469 0.053946 0.036708 0.300000 0.000000 0.600000
-0.286912 0.183939 -0.182841 0.500000 0.000000 0.500000
0.247395 0.159428 -0.248510 0.500000 0.000000 0.500000
-0.033862 0.098933 -0.305359 1.000000 0.000000 0.000000
0.268834 0.108616 0.369302 0.000000 0.000000 1.000000
0.323372 -0.511924 -0.272480 0.600000 0.000000 0.300000
0.040393 0.158401 0.251097 0.500000 0.000000 0.500000
-0.248099 0.154525 0.144046 0.300000 0.000000 0.600000
-0.386301 0.183939 -0.048192 0.500000 0.000000 0.500000
-0.140560 0.138200 -0.275945 1.000000 0.000000 0.000000
0.320751 -0.072251 0.145651 0.000000 0.500000 0.500000
-0.229974 0.050316 0.210077 0.800000 0.200000 0.500000
-0.061063 0.183939 -0.249934 0.500000 0.000000 0.500000
0.305813 0.183939 -0.009212 0.500000 0.000000 0.500000
-0.194520 0.114511 -0.040636 1.000000 0.000000 0.000000
-0.304121 -0.664055 -0.274161 0.300000 0.600000 0.000000
-0.304121 -0.463990 -0.298241 0.300000 0.600000 0.000000
0.147313 0.183939 -0.120646 0.500000 0.000000 0.500000
0.323372 -0.750245 -0.296598 0.600000 0.000000 0.300000
-0.427726 0.183939 -0.329909 0.500000 0.000000 0.500000
-0.026906 0.022164 0.189148 0.000000 1.000000 0.000000
0.277033 0.106302 0.145651 0.000000 0.500000 0.500000
0.254625 0.128123 -0.011222 1.000000 0.000000 0.000000
0.278096 -0.570962 0.171259 0.000000 0.500000 0.500000
-0.293518 -0.127074 0.199576 0.300000 0.000000 0.600000
-0.264360 -0.114073 -0.310261 0.300000 0.600000 0.000000
0.131770 0.154525 -0.205112 0.500000 0.000000 0.500000
0.269446 -0.031855 0.146023 0.000000 0.500000 0.500000
-0.274542 -0.234491 0.148364 0.300000 0.000000 0.600000
0.295378 -0.007250 0.178752 0.000000 0.500000 0.500000
-0.061714 0.022164 -0.023442 0.000000 1.000000 0.000000
0.147440 0.159428 -0.040012 0.500000 0.000000 0.500000
-0.027914 0.154525 -0.323977 0.500000 0.000000 0.500000
0.055842 0.032886 -0.305359 1.000000 0.000000 0.000000
-0.294643 0.183939 -0.148771 0.500000 0.000000 0.500000
-0.401931 0.159428 0.194910 0.500000 0.000000 0.500000
-0.229974 0.036024 0.078532 0.800000 0.200000 0.500000
0.085313 0.077733 -0.040636 1.000000 0.000000 0.000000
-0.359440 0.159428 -0.270609 0.500000 0.000000 0.500000
-0.283412 0.097294 0.184869 0.600000 0.000000 0.300000
-0.213028 0.009318 -0.275945 1.000000 0.000000 0.000000
0.202912 0.183939 -0.138112 0.500000 0.000000 0.500000
0.336518 0.159428 -0.247110 0.500000 0.000000 0.500000
-0.209972 0.036133 0.400570 0.600000 0.000000 0.300000
0.270658 0.183939 0.194129 0.500000 0.000000 0.500000
-0.088980 0.074234 -0.040636 1.000000 0.000000 0.000000
0.268834 0.084115 0.081390 0.000000 0.000000 1.000000
0.258817 0.036578 0.429983 0.600000 0.000000 0.300000
-0.299218 0.100012 -0.150095 0.600000 0.000000 0.300000
-0.443313 0.183939 -0.085700 0.500000 0.000000 0.500000
0.196389 0.183939 -0.189227 0.500000 0.000000 0.500000
-0.298859 -0.811108 0.199576 0.300000 0.000000 0.600000
-0.429028 0.159428 -0.311874 0.500000 0.000000 0.500000
-0.252942 -0.236363 -0.302427 0.300000 0.600000 0.000000
0.315019 0.098344 0.199576 0.000000 0.500000 0.500000
-0.325293 0.159428 0.091783 0.500000 0.000000 0.500000
0.281739 -0.777358 0.167483 0.000000 0.500000 0.500000
-0.269805 0.062263 -0.086879 0.600000 0.000000 0.300000
-0.083640 0.022164 -0.027476 0.000000 1.000000 0.000000
-0.453581 0.158386 -0.206305 0.500000 0.000000 0.500000
-0.258878 0.154525 -0.047059 0.500000 0.000000 0.500000
0.164993 0.127372 0.400570 0.600000 0.000000 0.300000
0.135556 0.167869 -0.369089 0.500000 0.000000 0.500000
0.167672 0.159428 -0.212507 0.500000 0.000000 0.500000
-0.238413 0.012359 0.178845 0.800000 0.200000 0.500000
-0.269367 -0.495404 -0.310261 0.300000 0.600000 0.000000
0.283684 0.183939 -0.041721 0.500000 0.000000 0.500000
-0.000941 0.154525 -0.089011 0.500000 0.000000 0.500000
-0.150527 0.183939 0.095686 0.500000 0.000000 0.500000
0.269446 0.029292 -0.050678 0.500000 0.000000 0.500000
-0.230804 0.133691 0.152775 0.800000 0.200000 0.500000
-0.109734 0.159428 -0.204045 0.500000 0.000000 0.500000
-0.229974 0.023945 0.112257 0.800000 0.200000 0.500000
-0.196838 0.154525 -0.129840 0.500000 0.000000 0.500000
-0.159811 0.013622 0.410374 0.000000 1.000000 0.000000
0.244185 0.012359 0.319351 0.000000 1.000000 0.000000
0.301851 -0.901132 -0.270813 0.600000 0.000000 0.300000
0.011585 -0.008512 0.194674 0.600000 0.000000 0.300000
-0.379297 0.159428 -0.320748 0.500000 0.000000 0.500000
-0.111639 0.183939 -0.325851 0.500000 0.000000 0.500000
-0.256458 0.139819 0.183806 0.500000 0.000000 0.500000
-0.064193 0.159428 0.221536 0.500000 0.000000 0.500000
0.288765 -0.002348 -0.238361 0.500000 0.000000 0.500000
-0.256635 -0.021957 -0.221891 0.300000 0.600000 0.000000
0.357333 0.154525 0.187061 0.500000 0.000000 0.500000
-0.220782 -0.018779 0.098021 0.300000 0.600000 0.000000
-0.396336 0.183939 0.046340 0.500000 0.000000 0.500000
0.249225 0.044068 0.039176 0.000000 0.000000 1.000000
0.143328 0.022164 0.023108 0.000000 1.000000 0.000000
0.240660 -0.002348 0.183747 0.600000 0.000000 0.300000
0.231887 0.154525 -0.248026 0.500000 0.000000 0.500000
0.049801 0.183939 -0.062633 0.500000 0.000000 0.500000
0.286894 -0.579619 -0.310261 0.600000 0.000000 0.300000
-0.269805 0.076478 0.070283 0.600000 0.000000 0.300000
-0.130022 0.022164 0.308100 0.000000 1.000000 0.000000
0.323597 0.159428 -0.368953 0.500000 0.000000 0.500000
-0.259749 -0.622101 0.196308 0.300000 0.000000 0.600000
0.268834 0.032845 0.375852 0.000000 0.000000 1.000000
0.111458 0.159428 -0.346065 0.500000 0.000000 0.500000
-0.045318 0.012359 0.090902 0.000000 1.000000 0.000000
0.190225 0.086910 0.429983 0.600000 0.000000 0.300000
-0.257840 -0.247061 -0.259270 0.300000 0.600000 0.000000
0.264769 -0.002348 0.254861 0.000000 0.000000 1.000000
0.065046 0.159428 -0.050237 0.500000 0.000000 0.500000
0.254551 0.084288 0.429983 0.600000 0.000000 0.300000
0.106944 0.154525 -0.168143 0.500000 0.000000 0.500000
0.269488 0.046675 -0.185304 0.500000 0.000000 0.500000
-0.179720 0.101612 -0.040636 1.000000 0.000000 0.000000
0.291823 0.157961 0.247969 0.500000 0.000000 0.500000
0.202610 0.012359 0.262033 0.000000 1.000000 0.000000
0.080148 0.183939 -0.065903 0.500000 0.000000 0.500000
0.185261 0.044895 -0.040636 1.000000 0.000000 0.000000
-0.127126 0.012359 0.322820 0.000000 1.000000 0.000000
-0.063044 0.159428 -0.358096 0.500000 0.000000 0.500000
0.472585 0.183939 0.216337 0.500000 0.000000 0.500000
0.251454 -0.021957 -0.246979 0.000000 0.500000 0.500000
-0.197589 0.159428 -0.266114 0.500000 0.000000 0.500000
0.289056 -0.010753 0.104244 0.000000 0.500000 0.500000
-0.304121 -0.741711 0.175968 0.300000 0.000000 0.600000
-0.244756 0.134916 -0.143519 0.300000 0.000000 0.600000
0.323372 -0.433567 0.189368 0.000000 0.500000 0.500000
-0.098600 0.022164 0.270157 0.000000 1.000000 0.000000
0.000116 0.012359 0.277113 0.000000 1.000000 0.000000
-0.075312 0.159428 0.064584 0.500000 0.000000 0.500000
-0.191478 0.159428 0.052928 0.500000 0.000000 0.500000
0.128490 -0.002348 0.412462 0.600000 0.000000 0.300000
-0.269805 0.024631 -0.069523 0.500000 0.000000 0.500000
0.359922 0.159428 0.147592 0.500000 0.000000 0.500000
-0.045126 0.012359 0.186974 0.000000 1.000000 0.000000
-0.249583 0.046107 0.384105 0.800000 0.200000 0.500000
-0.020289 0.045643 -0.275945 1.000000 0.000000 0.000000
-0.099410 0.154525 -0.041960 0.500000 0.000000 0.500000
0.167745 -0.009749 0.194674 0.600000 0.000000 0.300000
0.036534 0.022164 0.221167 0.000000 1.000000 0.000000
0.376113 0.159428 -0.033536 0.500000 0.000000 0.500000
-0.320024 0.183939 -0.117351 0.500000 0.000000 0.500000
0.256350 0.012359 0.105489 0.000000 0.000000 1.000000
0.275555 0.046675 0.145214 0.500000 0.000000 0.500000
0.289056 0.122211 -0.238008 0.300000 0.000000 0.600000
-0.014611 0.022164 0.201309 0.000000 1.000000 0.000000
-0.107956 0.133691 -0.037300 1.000000 0.000000 0.000000
-0.140474 0.120446 -0.040636 1.000000 0.000000 0.000000
-0.229974 0.056846 0.022820 0.800000 0.200000 0.500000
0.017862 0.012359 0.355899 0.000000 1.000000 0.000000
-0.276318 0.140737 0.145651 0.300000 0.000000 0.600000
0.014751 0.133691 -0.016707 1.000000 0.000000 0.000000
-0.132595 0.082804 -0.040636 1.000000 0.000000 0.000000
-0.134173 0.159428 0.154553 0.500000 0.000000 0.500000
-0.225362 0.183939 -0.167351 0.500000 0.000000 0.500000
-0.374470 0.183939 0.003180 0.500000 0.000000 0.500000
-0.083742 0.176751 0.258404 0.500000 0.000000 0.500000
-0.304121 0.014885 0.160506 0.300000 0.000000 0.600000
0.205760 0.154525 0.205030 0.500000 0.000000 0.500000
0.108955 0.143191 -0.305359 1.000000 0.000000 0.000000
0.161690 0.154525 0.126757 0.500000 0.000000 0.500000
-0.304121 -0.794676 0.170782 0.300000 0.000000 0.600000
0.321694 0.159428 -0.211201 0.500000 0.000000 0.500000
-0.403008 0.159428 0.020771 0.500000 0.000000 0.500000
-0.366474 0.159428 -0.134074 0.500000 0.000000 0.500000
0.243029 0.084351 -0.275945 1.000000 0.000000 0.000000
-0.164867 -0.002348 0.408413 0.600000 0.000000 0.300000
-0.274374 0.154525 0.084338 0.500000 0.000000 0.500000
0.455671 0.183939 0.059065 0.500000 0.000000 0.500000
0.271351 -0.188705 -0.274085 0.600000 0.000000 0.300000
0.318469 0.102896 -0.163115 0.300000 0.000000 0.600000
0.256922 0.133691 0.303790 0.000000 0.000000 1.000000
0.255873 -0.002348 0.068234 0.000000 0.500000 0.500000
-0.280407 0.183939 0.179674 0.500000 0.000000 0.500000
0.379643 0.154525 -0.311137 0.500000 0.000000 0.500000
0.276932 -0.423609 -0.262386 0.600000 0.000000 0.300000
0.131073 0.183939 -0.077912 0.500000 0.000000 0.500000
-0.096067 0.154525 0.069022 0.500000 0.000000 0.500000
0.318469 0.069619 0.061786 0.300000 0.000000 0.600000
0.273681 -0.070704 -0.310261 0.600000 0.000000 0.300000
0.461986 0.156862 -0.223794 0.500000 0.000000 0.500000
0.249225 0.032342 0.283921 0.000000 0.000000 1.000000
-0.304121 -0.352112 -0.268382 0.300000 0.600000 0.000000
0.084110 0.133691 -0.021936 1.000000 0.000000 0.000000
-0.257645 -0.502898 0.184756 0.300000 0.000000 0.600000
0.318469 0.100177 0.066139 0.300000 0.000000 0.600000
0.422458 0.183939 -0.244911 0.500000 0.000000 0.500000
0.318469 -0.001583 0.023815 0.300000 0.000000 0.600000
-0.328148 0.183939 0.208669 0.500000 0.000000 0.500000
-0.304121 -0.078743 -0.278406 0.300000 0.600000 0.000000
-0.207317 0.183939 0.029766 0.500000 0.000000 0.500000
0.022797 0.022164 0.004922 0.000000 1.000000 0.000000
-0.302991 0.154525 -0.000113 0.500000 0.000000 0.500000
0.268834 0.060795 0.273138 0.000000 0.000000 1.000000
-0.420536 0.159428 -0.107459 0.500000 0.000000 0.500000
0.237200 0.159428 -0.321259 0.500000 0.000000 0.500000
0.274541 0.183939 -0.007513 0.500000 0.000000 0.500000
-0.032117 0.012359 -0.012036 0.000000 1.000000 0.000000
-0.015863 0.012359 0.135246 0.000000 1.000000 0.000000
0.183156 0.159428 0.009775 0.500000 0.000000 0.500000
-0.273202 0.127448 0.199576 0.300000 0.000000 0.600000
-0.018565 0.148638 0.165260 0.500000 0.000000 0.500000
-0.181544 0.183939 -0.322057 0.500000 0.000000 0.500000
0.408721 0.183939 0.153849 0.500000 0.000000 0.500000
0.280234 0.159428 -0.322557 0.500000 0.000000 0.500000
-0.231549 0.159428 -0.141009 0.500000 0.000000 0.500000
0.287383 -0.021957 0.133112 0.000000 0.500000 0.500000
-0.101721 0.154525 -0.268134 0.500000 0.000000 0.500000
0.027627 0.048933 0.429983 0.600000 0.000000 0.300000
0.130262 -0.007302 -0.305359 1.000000 0.000000 0.000000
0.044113 0.183939 -0.330518 0.500000 0.000000 0.500000
-0.087465 0.012359 0.165145 0.000000 1.000000 0.000000
0.358039 0.159428 0.003234 0.500000 0.000000 0.500000
-0.280904 -0.045942 -0.256336 0.300000 0.600000 0.000000
-0.299218 0.060031 -0.122785 0.600000 0.000000 0.300000
-0.226176 0.183939 -0.030049 0.500000 0.000000 0.500000
0.320596 -0.214163 -0.310261 0.600000 0.000000 0.300000
-0.229974 0.076330 0.087520 0.800000 0.200000 0.500000
0.017377 0.101466 -0.040636 1.000000 0.000000 0.000000
0.318469 0.068947 -0.088543 0.300000 0.000000 0.600000
0.110524 0.022164 0.058558 0.000000 1.000000 0.000000
0.188672 0.183939 0.120313 0.500000 0.000000 0.500000
0.448127 0.159428 -0.131769 0.500000 0.000000 0.500000
-0.141776 0.154525 0.046946 0.500000 0.000000 0.500000
-0.460994 0.179392 0.147115 0.500000 0.000000 0.500000
0.161929 0.154525 0.215387 0.500000 0.000000 0.500000
-0.366052 0.183939 -0.219354 0.500000 0.000000 0.500000
0.205416 0.062064 -0.011222 1.000000 0.000000 0.000000
0.271300 0.154525 -0.140078 0.600000 0.300000 0.000000
-0.068055 0.133691 0.414141 0.600000 0.000000 0.300000
-0.229974 0.091931 0.135374 0.800000 0.200000 0.500000
-0.402118 0.159428 -0.305023 0.500000 0.000000 0.500000
0.230060 0.012359 0.301559 0.000000 1.000000 0.000000
-0.254371 0.134916 -0.177289 0.300000 0.000000 0.600000
0.323372 -0.694583 -0.294237 0.600000 0.000000 0.300000
0.166789 0.012359 0.342846 0.000000 1.000000 0.000000
0.132324 0.012359 0.084680 0.000000 1.000000 0.000000
-0.250196 -0.058293 -0.304367 0.300000 0.600000 0.000000
-0.229974 0.073170 0.329480 0.800000 0.200000 0.500000
0.225237 0.159428 0.221483 0.500000 0.000000 0.500000
0.323372 -0.801917 -0.309604 0.600000 0.000000 0.300000
-0.257780 -0.317083 0.149821 0.300000 0.000000 0.600000
0.193926 0.183939 -0.066929 0.500000 0.000000 0.500000
0.380412 0.183939 0.174958 0.500000 0.000000 0.500000
0.440722 0.183939 0.005269 0.500000 0.000000 0.500000
-0.039455 0.022164 0.159318 0.000000 1.000000 0.000000
-0.072032 0.159428 -0.061824 0.500000 0.000000 0.500000
-0.091740 0.012359 0.250292 0.000000 1.000000 0.000000
0.335293 0.154525 -0.131607 0.500000 0.000000 0.500000
-0.268316 0.183939 0.195247 0.500000 0.000000 0.500000
0.323372 -0.301489 -0.305497 0.600000 0.000000 0.300000
-0.232504 0.090512 0.419411 0.800000 0.200000 0.500000
-0.260294 -0.652983 -0.290323 0.300000 0.600000 0.000000
0.065938 0.159428 -0.267951 0.500000 0.000000 0.500000
-0.304121 0.035894 -0.260390 0.300000 0.600000 0.000000
0.254266 -0.021957 -0.177791 0.000000 0.500000 0.500000
-0.304121 -0.507001 0.191817 0.300000 0.000000 0.600000
-0.249232 -0.002348 0.101146 0.300000 0.600000 0.000000
0.146109 0.183939 0.223086 0.500000 0.000000 0.500000
-0.256324 -0.428015 0.193728 0.300000 0.000000 0.600000
-0.044328 0.159428 0.043410 0.500000 0.000000 0.500000
0.323372 -0.237368 -0.289466 0.600000 0.000000 0.300000
0.298778 -0.021957 -0.010119 0.300000 0.000000 0.600000
0.156104 0.012359 0.202332 0.000000 1.000000 0.000000
-0.299218 0.000063 0.046358 0.600000 0.000000 0.300000
-0.167014 0.041973 0.429983 0.600000 0.000000 0.300000
0.110295 0.022164 0.159206 0.000000 1.000000 0.000000
0.266182 -0.021957 -0.041546 0.000000 0.500000 0.500000
-0.304121 -0.828408 -0.286438 0.300000 0.600000 0.000000
-0.081746 0.115563 -0.040636 1.000000 0.000000 0.000000
0.049567 0.154525 0.072349 0.500000 0.000000 0.500000
-0.101731 0.012359 0.312477 0.000000 1.000000 0.000000
-0.228824 0.043338 0.429983 0.600000 0.000000 0.300000
-0.208907 0.055222 0.400570 0.600000 0.000000 0.300000
0.323372 -0.307638 -0.275726 0.600000 0.000000 0.300000
0.271064 -0.112615 -0.310261 0.600000 0.000000 0.300000
0.236991 0.110678 0.400570 0.600000 0.000000 0.300000
0.311138 0.159428 -0.138115 0.500000 0.000000 0.500000
0.176036 0.159428 -0.098950 0.500000 0.000000 0.500000
0.286532 -0.563379 -0.310261 0.600000 0.000000 0.300000
0.195042 0.110248 -0.305359 1.000000 0.000000 0.000000
0.029968 0.183939 -0.041220 0.500000 0.000000 0.500000
-0.150525 0.183939 -0.230879 0.500000 0.000000 0.500000
0.172839 0.183939 -0.023707 0.500000 0.000000 0.500000
0.318469 0.029083 -0.169842 0.300000 0.000000 0.600000
-0.288090 -0.231445 -0.310261 0.300000 0.600000 0.000000
-0.262448 -0.021957 -0.240794 0.300000 0.600000 0.000000
0.300906 0.154525 -0.275701 0.500000 0.000000 0.500000
0.102593 0.042929 -0.275945 1.000000 0.000000 0.000000
0.323372 -0.234638 0.187036 0.000000 0.500000 0.500000
-0.092689 0.012359 -0.011364 0.000000 1.000000 0.000000
-0.078861 0.091448 -0.305359 1.000000 0.000000 0.000000
-0.220782 0.147289 -0.134239 0.300000 0.000000 0.600000
-0.299218 0.009476 -0.099889 0.600000 0.000000 0.300000
-0.057416 0.183939 0.016906 0.500000 0.000000 0.500000
0.269446 -0.035141 -0.297766 0.600000 0.000000 0.300000
0.220393 0.046737 0.429983 0.600000 0.000000 0.300000
0.030277 0.012359 -0.021051 0.000000 1.000000 0.000000
0.003601 0.154525 -0.293580 0.500000 0.000000 0.500000
0.163455 0.022164 0.272728 0.000000 1.000000 0.000000
0.138406 0.159428 0.041860 0.500000 0.000000 0.500000
0.310081 0.183939 -0.098586 0.500000 0.000000 0.500000
0.323372 -0.535241 -0.285553 0.600000 0.000000 0.300000
-0.296052 -0.663570 -0.310261 0.300000 0.600000 0.000000
0.279760 -0.180923 0.199576 0.000000 0.500000 0.500000
0.022243 0.159428 0.052703 0.500000 0.000000 0.500000
0.047085 0.183939 -0.176033 0.500000 0.000000 0.500000
-0.299218 -0.015359 0.111013 0.600000 0.000000 0.300000
-0.238031 -0.002348 0.324759 0.800000 0.200000 0.500000
0.278162 0.159428 -0.259432 0.500000 0.000000 0.500000
-0.445308 0.183939 0.011307 0.500000 0.000000 0.500000
-0.054682 0.054687 0.429983 0.600000 0.000000 0.300000
-0.147171 0.012359 0.285098 0.000000 1.000000 0.000000
0.308425 -0.277327 -0.310261 0.600000 0.000000 0.300000
0.269814 -0.101617 -0.262919 0.600000 0.000000 0.300000
-0.001174 0.022164 0.255430 0.000000 1.000000 0.000000
0.323372 0.101920 -0.259167 0.600000 0.000000 0.300000
0.125836 0.090777 -0.011222 1.000000 0.000000 0.000000
0.257802 0.070476 -0.018787 0.000000 0.000000 1.000000
-0.299218 0.126998 -0.101545 0.600000 0.000000 0.300000
-0.151834 0.183939 -0.059177 0.500000 0.000000 0.500000
-0.108651 0.154525 0.046705 0.500000 0.000000 0.500000
-0.269805 0.032889 -0.099840 0.600000 0.000000 0.300000
-0.249583 0.119968 0.362643 0.800000 0.200000 0.500000
0.122487 0.183939 -0.237207 0.500000 0.000000 0.500000
0.265037 0.000114 0.400570 0.600000 0.000000 0.300000
0.060744 0.183939 0.242125 0.500000 0.000000 0.500000
-0.146680 0.183939 0.070451 0.500000 0.000000 0.500000
-0.359307 0.159428 -0.055803 0.500000 0.000000 0.500000
-0.231232 -0.002348 -0.207946 0.300000 0.600000 0.000000
0.310993 -0.728901 0.199576 0.000000 0.500000 0.500000
0.307716 0.159428 -0.047131 0.500000 0.000000 0.500000
0.270607 -0.013076 0.145651 0.000000 0.500000 0.500000
-0.299218 -0.016854 -0.010038 0.600000 0.000000 0.300000
-0.249583 0.007135 0.330210 0.800000 0.200000 0.500000
