0.649735 -0.081637 0.124243 0.500000 0.500000 0.000000
0.268299 0.652480 -0.392973 0.300000 0.000000 0.600000
0.356712 0.293998 -0.329716 0.300000 0.000000 0.600000
0.612704 0.491587 -0.348840 0.600000 0.300000 0.000000
0.398645 0.056481 -0.232751 0.600000 0.300000 0.000000
-0.390431 -0.202842 -0.071164 0.000000 0.500000 0.500000
-0.607451 -0.202804 0.529924 0.000000 0.500000 0.500000
-0.706669 0.062130 -0.216850 0.300000 0.000000 0.600000
-0.672945 -0.088922 0.559158 0.000000 0.500000 0.500000
-0.231209 -0.088135 0.441451 0.600000 0.000000 0.300000
0.656050 -0.082811 0.337507 0.500000 0.500000 0.000000
0.676588 -0.202841 0.158856 0.000000 0.500000 0.500000
0.009619 0.544899 -0.396818 0.300000 0.000000 0.600000
0.290965 0.318734 -0.336208 0.300000 0.000000 0.600000
-0.698983 0.354185 -0.345449 0.300000 0.000000 0.600000
0.341270 -0.070747 -0.137472 0.000000 0.500000 0.500000
-0.738603 -0.120190 0.112627 0.000000 0.500000 0.500000
0.457501 -0.074610 -0.079214 0.500000 0.500000 0.000000
-0.726073 0.513400 -0.384747 0.300000 0.000000 0.600000
0.488039 -0.202842 0.151474 0.000000 0.500000 0.500000
-0.000477 0.133461 -0.286677 0.300000 0.000000 0.600000
0.663038 -0.202841 0.201303 0.000000 0.500000 0.500000
-0.546269 0.388149 -0.320918 0.600000 0.300000 0.000000
0.316780 -0.070769 -0.137294 0.000000 0.500000 0.500000
-0.191991 -0.077566 0.050295 0.500000 0.500000 0.000000
-0.171500 0.045557 -0.229058 0.600000 0.300000 0.000000
-0.208816 -0.077795 -0.066057 0.500000 0.500000 0.000000
0.562433 -0.202842 0.389683 0.000000 0.500000 0.500000
-0.695379 0.184941 -0.250647 0.300000 0.000000 0.600000
-0.018018 -0.185641 -0.335431 0.000000 0.500000 0.500000
0.253170 -0.075603 0.002787 0.500000 0.500000 0.000000
-0.012017 -0.202842 -0.260008 0.000000 0.500000 0.500000
0.143209 0.348714 -0.344204 0.300000 0.000000 0.600000
-0.721234 -0.200339 0.296883 0.000000 0.500000 0.500000
-0.455950 -0.202842 0.421098 0.000000 0.500000 0.500000
0.293463 -0.079123 0.167614 0.500000 0.500000 0.000000
0.390643 -0.073469 -0.104087 0.500000 0.500000 0.000000
-0.672758 0.303255 -0.288541 0.300000 0.000000 0.600000
-0.521637 -0.202772 0.533305 0.000000 0.500000 0.500000
-0.433436 -0.077549 0.041570 0.500000 0.500000 0.000000
-0.421088 -0.098322 -0.248440 0.000000 0.500000 0.500000
-0.447790 -0.184297 -0.333702 0.000000 0.500000 0.500000
0.735560 -0.137349 0.032735 0.000000 0.500000 0.500000
-0.493505 -0.077064 0.077084 0.500000 0.500000 0.000000
0.317174 -0.202842 -0.059144 0.000000 0.500000 0.500000
0.172396 -0.077735 -0.242065 0.300000 0.000000 0.600000
-0.463095 -0.202842 -0.259749 0.000000 0.500000 0.500000
-0.556205 -0.078774 0.221290 0.500000 0.500000 0.000000
0.616756 -0.036130 -0.194606 0.300000 0.000000 0.600000
-0.461645 0.420567 -0.363476 0.300000 0.000000 0.600000
0.332635 0.258818 -0.286269 0.600000 0.300000 0.000000
-0.531471 0.190268 -0.301783 0.300000 0.000000 0.600000
-0.723019 -0.200029 0.057997 0.000000 0.500000 0.500000
-0.575323 -0.202842 0.321581 0.000000 0.500000 0.500000
-0.011896 -0.083437 0.335890 0.000000 0.500000 0.500000
-0.476809 0.268484 -0.288813 0.600000 0.300000 0.000000
0.664759 -0.202841 0.246072 0.000000 0.500000 0.500000
0.735927 -0.134804 0.233491 0.000000 0.500000 0.500000
0.526651 -0.202842 -0.187704 0.000000 0.500000 0.500000
0.328780 0.633907 -0.416740 0.300000 0.000000 0.600000
0.497385 -0.069167 -0.150638 0.000000 0.500000 0.500000
0.197813 0.098044 -0.277041 0.300000 0.000000 0.600000
0.370052 -0.078932 0.142261 0.500000 0.500000 0.000000
0.303296 -0.080830 0.249650 0.000000 0.500000 0.500000
0.276782 0.333935 -0.306347 0.600000 0.300000 0.000000
-0.562500 0.101938 -0.244164 0.600000 0.300000 0.000000
-0.679106 -0.048004 -0.181993 0.300000 0.000000 0.600000
0.292638 0.608638 -0.413780 0.300000 0.000000 0.600000
-0.065789 -0.202842 -0.089004 0.000000 0.500000 0.500000
-0.713196 -0.201732 0.436589 0.000000 0.500000 0.500000
0.264239 0.459176 -0.373806 0.300000 0.000000 0.600000
-0.261336 0.434624 -0.367226 0.300000 0.000000 0.600000
-0.110828 0.024801 -0.223570 0.600000 0.300000 0.000000
0.018905 -0.202842 0.104408 0.000000 0.500000 0.500000
0.660722 0.330823 -0.296894 0.300000 0.000000 0.600000
-0.681167 0.583606 -0.358609 0.300000 0.000000 0.600000
-0.400259 -0.202842 0.159359 0.000000 0.500000 0.500000
-0.367066 0.052986 -0.265054 0.300000 0.000000 0.600000
0.662472 -0.092344 -0.245390 0.300000 0.000000 0.600000
0.409495 -0.080590 0.229339 0.500000 0.500000 0.000000
-0.186739 -0.202648 0.546018 0.000000 0.500000 0.500000
-0.659092 -0.077113 0.069802 0.000000 0.500000 0.500000
-0.637007 -0.123091 -0.265509 0.000000 0.500000 0.500000
0.587439 -0.073231 -0.114823 0.500000 0.500000 0.000000
0.560497 -0.202842 -0.106542 0.000000 0.500000 0.500000
-0.518333 -0.049116 -0.240208 0.300000 0.000000 0.600000
0.677183 0.529906 -0.392885 0.300000 0.000000 0.600000
0.701568 -0.202661 0.084381 0.000000 0.500000 0.500000
-0.127674 0.591797 -0.367281 0.300000 0.000000 0.600000
-0.729453 -0.086230 0.162413 0.000000 0.500000 0.500000
-0.373654 -0.202781 0.532304 0.000000 0.500000 0.500000
0.346300 -0.202842 0.233692 0.000000 0.500000 0.500000
-0.328911 -0.202842 0.096568 0.000000 0.500000 0.500000
0.083552 -0.082257 0.302375 0.000000 0.500000 0.500000
0.298674 -0.151918 -0.297978 0.000000 0.500000 0.500000
-0.230732 0.254923 -0.319172 0.300000 0.000000 0.600000
0.312744 0.004674 -0.218275 0.600000 0.300000 0.000000
0.642151 0.433943 -0.367043 0.300000 0.000000 0.600000
-0.608865 -0.202842 0.404987 0.000000 0.500000 0.500000
-0.617005 -0.085253 0.460826 0.000000 0.500000 0.500000
-0.402724 -0.078305 0.136494 0.500000 0.500000 0.000000
-0.582536 -0.074114 -0.064613 0.500000 0.500000 0.000000
-0.737844 -0.185539 0.289289 0.000000 0.500000 0.500000
-0.576422 0.205720 -0.305887 0.300000 0.000000 0.600000
0.671379 0.323031 -0.337333 0.300000 0.000000 0.600000
0.236530 0.653306 -0.389079 0.300000 0.000000 0.600000
-0.007565 0.092391 -0.275528 0.300000 0.000000 0.600000
-0.074678 -0.202842 0.475364 0.000000 0.500000 0.500000
0.170125 -0.086182 0.491633 0.000000 0.500000 0.500000
0.574118 -0.202842 -0.060906 0.000000 0.500000 0.500000
0.623390 0.014819 -0.254909 0.300000 0.000000 0.600000
-0.633637 0.169132 -0.260038 0.600000 0.300000 0.000000
-0.280458 -0.202842 0.104606 0.000000 0.500000 0.500000
-0.370254 -0.202842 -0.276248 0.000000 0.500000 0.500000
0.160858 -0.136598 -0.280534 0.000000 0.500000 0.500000
-0.475443 -0.202842 -0.092118 0.000000 0.500000 0.500000
0.431255 -0.202835 0.513317 0.000000 0.500000 0.500000
0.450129 0.332112 -0.305848 0.600000 0.300000 0.000000
-0.148944 -0.202842 -0.237762 0.000000 0.500000 0.500000
-0.014568 0.518361 -0.389836 0.300000 0.000000 0.600000
-0.364151 -0.075441 -0.000645 0.500000 0.500000 0.000000
0.130713 -0.202831 -0.290836 0.000000 0.500000 0.500000
0.534122 0.640638 -0.372303 0.300000 0.000000 0.600000
-0.263611 -0.114475 0.573434 0.000000 0.500000 0.500000
-0.594612 0.021755 -0.256768 0.300000 0.000000 0.600000
-0.363694 -0.077495 0.083756 0.500000 0.500000 0.000000
0.732638 0.402011 -0.332831 0.300000 0.000000 0.600000
-0.285876 -0.087032 0.394137 0.300000 0.600000 0.000000
0.319151 0.361390 -0.313749 0.600000 0.300000 0.000000
-0.738525 -0.173043 -0.110319 0.000000 0.500000 0.500000
-0.581652 0.157286 -0.293085 0.300000 0.000000 0.600000
-0.030700 -0.084622 0.409024 0.000000 0.500000 0.500000
0.167234 -0.202842 0.295163 0.000000 0.500000 0.500000
0.407865 -0.200914 -0.345759 0.000000 0.500000 0.500000
0.316150 -0.202842 0.197719 0.000000 0.500000 0.500000
-0.465307 0.355051 -0.312050 0.600000 0.300000 0.000000
-0.551701 -0.202842 0.367846 0.000000 0.500000 0.500000
0.172835 0.355207 -0.312092 0.600000 0.300000 0.000000
-0.738743 -0.149073 -0.189778 0.000000 0.500000 0.500000
0.687799 -0.202763 0.422847 0.000000 0.500000 0.500000
-0.478253 -0.202842 0.290184 0.000000 0.500000 0.500000
0.292283 -0.038618 -0.192825 0.300000 0.000000 0.600000
-0.213613 -0.129032 -0.272201 0.000000 0.500000 0.500000
-0.040983 0.010415 -0.253728 0.300000 0.000000 0.600000
-0.068581 -0.086008 0.444209 0.600000 0.000000 0.300000
0.440208 -0.086451 0.517755 0.500000 0.500000 0.000000
0.488842 0.613821 -0.415135 0.300000 0.000000 0.600000
0.360325 0.205077 -0.305714 0.300000 0.000000 0.600000
-0.321213 0.394868 -0.356739 0.300000 0.000000 0.600000
0.467312 0.436501 -0.367729 0.300000 0.000000 0.600000
-0.636475 -0.075470 -0.005805 0.500000 0.500000 0.000000
0.378202 0.264262 -0.321745 0.300000 0.000000 0.600000
-0.048467 0.403775 -0.359074 0.300000 0.000000 0.600000
0.025632 -0.101255 0.571980 0.000000 0.500000 0.500000
-0.308833 0.650764 -0.400742 0.300000 0.000000 0.600000
-0.589583 0.449629 -0.337276 0.600000 0.300000 0.000000
-0.181653 0.374658 -0.317475 0.600000 0.300000 0.000000
0.596189 0.344864 -0.309326 0.600000 0.300000 0.000000
-0.691154 -0.202680 0.332322 0.000000 0.500000 0.500000
0.197485 -0.076129 0.032364 0.500000 0.500000 0.000000
-0.144208 -0.075650 0.233249 0.500000 0.500000 0.000000
-0.043240 -0.202842 0.460844 0.000000 0.500000 0.500000
0.126901 0.146958 -0.257349 0.600000 0.300000 0.000000
-0.496150 0.262160 -0.287149 0.600000 0.300000 0.000000
0.231748 0.267787 -0.288629 0.600000 0.300000 0.000000
0.073758 -0.076432 0.046870 0.500000 0.500000 0.000000
0.442917 -0.202842 0.349423 0.000000 0.500000 0.500000
-0.714712 0.543165 -0.346654 0.300000 0.000000 0.600000
0.147752 -0.169229 0.573572 0.000000 0.500000 0.500000
-0.562695 -0.202842 -0.178481 0.000000 0.500000 0.500000
-0.313908 -0.014873 -0.206995 0.600000 0.300000 0.000000
0.458558 0.362551 -0.314061 0.600000 0.300000 0.000000
-0.606875 0.651074 -0.390171 0.300000 0.000000 0.600000
0.297887 0.570651 -0.365230 0.600000 0.300000 0.000000
0.724483 -0.088465 0.407171 0.000000 0.500000 0.500000
0.085206 -0.170445 -0.318851 0.000000 0.500000 0.500000
-0.190969 0.315073 -0.301195 0.600000 0.300000 0.000000
0.713461 -0.087336 0.476640 0.000000 0.500000 0.500000
0.101866 0.021342 -0.223683 0.600000 0.300000 0.000000
0.514313 0.622965 -0.416455 0.300000 0.000000 0.600000
-0.164248 -0.202842 -0.022820 0.000000 0.500000 0.500000
-0.481668 0.092740 -0.275620 0.300000 0.000000 0.600000
0.065004 -0.193447 0.570247 0.000000 0.500000 0.500000
-0.448995 0.108669 -0.246013 0.600000 0.300000 0.000000
-0.118293 -0.191987 0.570747 0.000000 0.500000 0.500000
0.369515 -0.202842 -0.142602 0.000000 0.500000 0.500000
0.651660 0.592561 -0.409546 0.300000 0.000000 0.600000
-0.312956 -0.202842 0.034629 0.000000 0.500000 0.500000
0.519645 0.105374 -0.279006 0.300000 0.000000 0.600000
0.589987 0.330418 -0.339300 0.300000 0.000000 0.600000
0.657047 -0.202842 -0.170231 0.000000 0.500000 0.500000
-0.240911 -0.050256 -0.180977 0.300000 0.000000 0.600000
-0.450819 0.583404 -0.407093 0.300000 0.000000 0.600000
-0.003205 -0.202821 -0.301737 0.000000 0.500000 0.500000
0.212315 -0.086008 0.483309 0.000000 0.500000 0.500000
0.168303 -0.084692 0.404162 0.000000 0.500000 0.500000
0.618907 -0.170425 0.573544 0.000000 0.500000 0.500000
0.735571 -0.134480 0.428228 0.000000 0.500000 0.500000
-0.438198 0.208884 -0.272865 0.600000 0.300000 0.000000
-0.438897 0.344162 -0.309131 0.600000 0.300000 0.000000
0.444565 0.524770 -0.357495 0.600000 0.300000 0.000000
-0.200571 0.408845 -0.326805 0.600000 0.300000 0.000000
-0.681491 0.458674 -0.373670 0.300000 0.000000 0.600000
0.178120 -0.157214 0.573704 0.000000 0.500000 0.500000
-0.079198 0.546103 -0.397133 0.300000 0.000000 0.600000
-0.461336 0.231215 -0.312719 0.300000 0.000000 0.600000
-0.734428 -0.190707 -0.242024 0.000000 0.500000 0.500000
-0.161863 -0.202842 -0.151909 0.000000 0.500000 0.500000
0.285817 -0.027978 -0.243254 0.300000 0.000000 0.600000
0.130740 0.442609 -0.335370 0.600000 0.300000 0.000000
0.598556 0.552928 -0.398928 0.300000 0.000000 0.600000
0.426913 -0.047570 -0.183819 0.300000 0.000000 0.600000
0.519475 0.347074 -0.309911 0.600000 0.300000 0.000000
-0.322001 0.439505 -0.334818 0.600000 0.300000 0.000000
0.437727 -0.107747 0.573413 0.000000 0.500000 0.500000
-0.646992 0.335287 -0.340607 0.300000 0.000000 0.600000
0.733644 0.146178 -0.267528 0.300000 0.000000 0.600000
-0.504195 -0.078370 0.132018 0.500000 0.500000 0.000000
-0.437262 -0.088543 0.484925 0.300000 0.000000 0.600000
-0.088900 0.101202 -0.277888 0.300000 0.000000 0.600000
-0.264839 -0.184932 -0.334172 0.000000 0.500000 0.500000
0.176120 -0.202842 -0.005654 0.000000 0.500000 0.500000
-0.713285 0.622206 -0.366972 0.300000 0.000000 0.600000
0.052191 -0.084490 0.397204 0.000000 0.500000 0.500000
0.144554 -0.143146 -0.288016 0.000000 0.500000 0.500000
0.028207 -0.202842 0.375250 0.000000 0.500000 0.500000
-0.352287 -0.202842 -0.008073 0.000000 0.500000 0.500000
-0.380188 -0.077669 0.288638 0.300000 0.600000 0.000000
0.201415 -0.202842 0.483580 0.000000 0.500000 0.500000
0.013552 0.188636 -0.301357 0.300000 0.000000 0.600000
-0.643751 -0.202842 0.146271 0.000000 0.500000 0.500000
0.588377 -0.202842 -0.013803 0.000000 0.500000 0.500000
-0.221860 -0.080093 0.312884 0.300000 0.600000 0.000000
-0.393349 0.339119 -0.307768 0.600000 0.300000 0.000000
-0.172712 -0.088331 0.512333 0.600000 0.000000 0.300000
-0.315772 -0.077625 -0.074681 0.500000 0.500000 0.000000
0.664630 0.033266 -0.216759 0.600000 0.300000 0.000000
-0.038647 0.112851 -0.247394 0.600000 0.300000 0.000000
-0.159224 -0.202842 0.230346 0.000000 0.500000 0.500000
-0.259887 0.515604 -0.389098 0.300000 0.000000 0.600000
0.218799 0.382359 -0.319374 0.600000 0.300000 0.000000
0.530937 -0.156533 -0.303179 0.000000 0.500000 0.500000
-0.639946 -0.202842 0.362706 0.000000 0.500000 0.500000
0.260161 -0.202842 -0.056586 0.000000 0.500000 0.500000
0.103944 0.076546 -0.271280 0.300000 0.000000 0.600000
0.648799 0.631728 -0.369762 0.300000 0.000000 0.600000
0.571609 0.459450 -0.339963 0.600000 0.300000 0.000000
-0.269751 -0.188432 0.571716 0.000000 0.500000 0.500000
-0.446437 -0.124675 -0.267294 0.000000 0.500000 0.500000
-0.334967 -0.092103 0.493204 0.300000 0.600000 0.000000
0.417335 -0.202842 0.302899 0.000000 0.500000 0.500000
-0.168646 0.421756 -0.363787 0.300000 0.000000 0.600000
0.601086 0.455182 -0.372736 0.300000 0.000000 0.600000
-0.011408 0.296283 -0.296167 0.600000 0.300000 0.000000
0.020980 -0.202842 -0.140238 0.000000 0.500000 0.500000
0.475786 -0.076513 0.036200 0.500000 0.500000 0.000000
-0.030014 -0.202842 0.354095 0.000000 0.500000 0.500000
0.557078 -0.202839 -0.283077 0.000000 0.500000 0.500000
0.211424 0.380045 -0.352672 0.300000 0.000000 0.600000
-0.420583 -0.202842 -0.025910 0.000000 0.500000 0.500000
-0.487265 0.464268 -0.375171 0.300000 0.000000 0.600000
-0.734759 0.016788 -0.218239 0.300000 0.000000 0.600000
0.473708 0.072905 -0.270303 0.300000 0.000000 0.600000
0.235398 0.477702 -0.378836 0.300000 0.000000 0.600000
-0.738743 -0.142588 -0.130043 0.000000 0.500000 0.500000
0.525078 -0.202842 -0.113149 0.000000 0.500000 0.500000
-0.550793 0.504529 -0.352107 0.600000 0.300000 0.000000
0.708526 -0.202254 -0.258777 0.000000 0.500000 0.500000
-0.073642 0.187384 -0.266995 0.600000 0.300000 0.000000
-0.718318 0.490128 -0.333838 0.300000 0.000000 0.600000
0.057787 0.464102 -0.375127 0.300000 0.000000 0.600000
0.093097 -0.024732 -0.244128 0.300000 0.000000 0.600000
0.476924 -0.083442 0.364371 0.500000 0.500000 0.000000
-0.716720 -0.133392 -0.274009 0.000000 0.500000 0.500000
0.256066 0.323302 -0.337405 0.300000 0.000000 0.600000
-0.089562 -0.202842 0.458782 0.000000 0.500000 0.500000
-0.459914 0.299416 -0.331144 0.300000 0.000000 0.600000
-0.578332 0.423813 -0.330339 0.600000 0.300000 0.000000
0.559821 0.441823 -0.369155 0.300000 0.000000 0.600000
-0.265298 0.387624 -0.320794 0.600000 0.300000 0.000000
0.735100 -0.133976 -0.190809 0.000000 0.500000 0.500000
-0.214062 -0.202842 -0.252739 0.000000 0.500000 0.500000
-0.200533 -0.080065 0.157061 0.500000 0.500000 0.000000
-0.321559 0.128655 -0.285354 0.300000 0.000000 0.600000
0.640421 0.051477 -0.225298 0.600000 0.300000 0.000000
0.458339 0.298760 -0.296830 0.600000 0.300000 0.000000
0.309065 -0.014656 -0.207827 0.600000 0.300000 0.000000
-0.141803 0.277797 -0.291263 0.600000 0.300000 0.000000
-0.362786 0.540572 -0.362318 0.600000 0.300000 0.000000
0.734318 -0.183453 0.026164 0.000000 0.500000 0.500000
-0.733245 0.283113 -0.296989 0.300000 0.000000 0.600000
0.509930 -0.202842 0.299598 0.000000 0.500000 0.500000
-0.589268 -0.082411 0.320893 0.000000 0.500000 0.500000
-0.612225 -0.202842 -0.211484 0.000000 0.500000 0.500000
-0.689880 -0.202696 0.147726 0.000000 0.500000 0.500000
-0.468740 0.075710 -0.271057 0.300000 0.000000 0.600000
-0.513306 -0.075985 -0.076795 0.500000 0.500000 0.000000
-0.328926 0.065414 -0.268311 0.300000 0.000000 0.600000
-0.342680 -0.087876 0.550723 0.300000 0.600000 0.000000
0.281765 0.397980 -0.357555 0.300000 0.000000 0.600000
0.567613 0.056847 -0.266065 0.300000 0.000000 0.600000
0.272595 -0.202833 0.518897 0.000000 0.500000 0.500000
-0.251713 0.293414 -0.295399 0.600000 0.300000 0.000000
-0.471887 0.239460 -0.281083 0.600000 0.300000 0.000000
0.296070 -0.105703 0.573370 0.000000 0.500000 0.500000
0.298922 0.069825 -0.269480 0.300000 0.000000 0.600000
0.715366 0.556821 -0.395577 0.300000 0.000000 0.600000
-0.267852 0.049188 -0.264058 0.300000 0.000000 0.600000
-0.737084 -0.100291 0.250879 0.000000 0.500000 0.500000
0.339385 0.160098 -0.259918 0.600000 0.300000 0.000000
0.030320 -0.078014 0.122655 0.500000 0.500000 0.000000
0.009170 0.088336 -0.241239 0.600000 0.300000 0.000000
0.656902 0.437969 -0.326090 0.300000 0.000000 0.600000
0.665242 0.257376 -0.276707 0.300000 0.000000 0.600000
0.672414 -0.012564 -0.199131 0.300000 0.000000 0.600000
0.046645 -0.202842 0.455234 0.000000 0.500000 0.500000
0.734624 -0.177764 -0.020079 0.000000 0.500000 0.500000
-0.221651 0.006839 -0.252759 0.300000 0.000000 0.600000
-0.661256 -0.202842 0.019934 0.000000 0.500000 0.500000
-0.205209 -0.202842 0.234023 0.000000 0.500000 0.500000
0.014089 0.533908 -0.360093 0.600000 0.300000 0.000000
0.624349 0.456826 -0.373176 0.300000 0.000000 0.600000
-0.335363 0.491023 -0.382503 0.300000 0.000000 0.600000
0.710014 -0.061423 -0.166032 0.000000 0.500000 0.500000
0.272449 0.425531 -0.364789 0.300000 0.000000 0.600000
0.547868 -0.202842 0.235598 0.000000 0.500000 0.500000
-0.099120 -0.079954 0.036946 0.500000 0.500000 0.000000
0.642038 -0.075696 0.003047 0.500000 0.500000 0.000000
-0.081274 0.587193 -0.366931 0.300000 0.000000 0.600000
0.731160 0.051599 -0.230556 0.300000 0.000000 0.600000
0.539658 -0.076870 0.059012 0.500000 0.500000 0.000000
-0.043333 0.579854 -0.366372 0.300000 0.000000 0.600000
-0.389757 0.570354 -0.403598 0.300000 0.000000 0.600000
-0.017371 0.501129 -0.351683 0.600000 0.300000 0.000000
0.392069 0.294734 -0.295752 0.600000 0.300000 0.000000
-0.587537 -0.202842 0.207989 0.000000 0.500000 0.500000
-0.588343 0.178197 -0.298621 0.300000 0.000000 0.600000
-0.668715 0.483018 -0.380299 0.300000 0.000000 0.600000
-0.212208 -0.077776 0.289974 0.300000 0.600000 0.000000
0.708542 0.434142 -0.365123 0.300000 0.000000 0.600000
-0.727030 -0.084979 0.120114 0.000000 0.500000 0.500000
0.360452 -0.202842 0.458220 0.000000 0.500000 0.500000
-0.029427 -0.202842 -0.256276 0.000000 0.500000 0.500000
-0.569677 -0.078792 0.172894 0.500000 0.500000 0.000000
0.090702 -0.112409 -0.255644 0.000000 0.500000 0.500000
0.479428 -0.078053 0.114130 0.500000 0.500000 0.000000
0.026624 -0.090655 -0.244547 0.300000 0.000000 0.600000
-0.111004 -0.080202 0.048838 0.500000 0.500000 0.000000
0.701716 0.585723 -0.407505 0.300000 0.000000 0.600000
-0.042710 -0.085282 0.428361 0.300000 0.600000 0.000000
0.591149 -0.077306 0.074531 0.500000 0.500000 0.000000
-0.566060 -0.086094 0.484432 0.000000 0.500000 0.500000
-0.008857 -0.202842 0.415243 0.000000 0.500000 0.500000
0.235747 -0.075261 -0.016788 0.500000 0.500000 0.000000
-0.487487 -0.088421 0.498558 0.300000 0.000000 0.600000
0.378555 -0.202842 0.482741 0.000000 0.500000 0.500000
0.341870 0.046929 -0.230452 0.600000 0.300000 0.000000
0.526593 0.198473 -0.270013 0.600000 0.300000 0.000000
-0.738743 -0.131374 0.368442 0.000000 0.500000 0.500000
-0.511958 -0.077050 0.251491 0.300000 0.600000 0.000000
0.614970 0.200941 -0.269654 0.600000 0.300000 0.000000
-0.337243 -0.086117 0.376610 0.300000 0.600000 0.000000
-0.617439 0.478426 -0.379035 0.300000 0.000000 0.600000
-0.187815 -0.088558 0.472230 0.600000 0.000000 0.300000
0.581028 -0.075999 0.019257 0.500000 0.500000 0.000000
0.146304 0.237049 -0.314283 0.300000 0.000000 0.600000
-0.597598 -0.085809 0.487479 0.000000 0.500000 0.500000
0.033244 -0.082999 0.317223 0.000000 0.500000 0.500000
0.562713 -0.120911 -0.263052 0.000000 0.500000 0.500000
0.393572 -0.187871 0.572158 0.000000 0.500000 0.500000
-0.185079 -0.202842 0.185545 0.000000 0.500000 0.500000
0.018804 -0.146953 -0.292151 0.000000 0.500000 0.500000
0.675270 -0.202841 -0.254963 0.000000 0.500000 0.500000
0.690435 0.278958 -0.276079 0.300000 0.000000 0.600000
-0.523418 -0.016573 -0.206084 0.600000 0.300000 0.000000
0.140528 0.468426 -0.376286 0.300000 0.000000 0.600000
-0.613532 -0.202842 0.030979 0.000000 0.500000 0.500000
0.149785 0.399803 -0.358033 0.300000 0.000000 0.600000
0.363603 -0.030263 -0.199192 0.600000 0.300000 0.000000
0.070909 0.146115 -0.290092 0.300000 0.000000 0.600000
-0.450301 0.281887 -0.326473 0.300000 0.000000 0.600000
0.017032 -0.087434 0.533709 0.000000 0.500000 0.500000
0.613791 0.392104 -0.321773 0.600000 0.300000 0.000000
0.292107 0.409094 -0.326430 0.600000 0.300000 0.000000
0.697130 -0.089875 0.564173 0.000000 0.500000 0.500000
-0.444263 -0.075719 0.010513 0.500000 0.500000 0.000000
-0.664084 -0.057967 -0.172334 0.000000 0.500000 0.500000
0.692103 -0.202732 0.474246 0.000000 0.500000 0.500000
-0.073911 -0.202842 0.304253 0.000000 0.500000 0.500000
0.387319 -0.202842 0.215054 0.000000 0.500000 0.500000
-0.396758 0.176808 -0.298257 0.300000 0.000000 0.600000
-0.377376 -0.202842 0.353560 0.000000 0.500000 0.500000
-0.170531 -0.077476 0.096852 0.500000 0.500000 0.000000
0.713461 -0.199464 0.566781 0.000000 0.500000 0.500000
-0.381968 0.258359 -0.286149 0.600000 0.300000 0.000000
0.015583 0.598376 -0.367736 0.300000 0.000000 0.600000
0.420563 0.431078 -0.332284 0.600000 0.300000 0.000000
0.045305 -0.202842 0.401380 0.000000 0.500000 0.500000
-0.231135 -0.088464 0.503841 0.600000 0.000000 0.300000
-0.678392 0.372669 -0.350602 0.300000 0.000000 0.600000
-0.239721 0.134455 -0.252963 0.600000 0.300000 0.000000
-0.434449 -0.202792 0.531212 0.000000 0.500000 0.500000
0.734901 -0.173866 0.178256 0.000000 0.500000 0.500000
0.023865 -0.084046 0.367164 0.000000 0.500000 0.500000
0.071285 -0.202842 -0.164076 0.000000 0.500000 0.500000
0.482575 -0.071069 -0.134792 0.000000 0.500000 0.500000
-0.328527 0.536417 -0.361277 0.600000 0.300000 0.000000
-0.399102 0.150167 -0.291177 0.300000 0.000000 0.600000
0.393054 0.114302 -0.247811 0.600000 0.300000 0.000000
0.485349 0.550446 -0.363249 0.600000 0.300000 0.000000
-0.068579 -0.202842 0.161789 0.000000 0.500000 0.500000
-0.501164 -0.202842 0.319760 0.000000 0.500000 0.500000
0.680904 -0.201435 0.557803 0.000000 0.500000 0.500000
0.416163 0.243709 -0.282222 0.600000 0.300000 0.000000
0.158650 -0.077131 0.080334 0.500000 0.500000 0.000000
-0.131431 -0.154688 -0.300382 0.000000 0.500000 0.500000
-0.738350 -0.102380 -0.012875 0.000000 0.500000 0.500000
-0.238051 0.344735 -0.309284 0.600000 0.300000 0.000000
-0.493110 0.092378 -0.241537 0.600000 0.300000 0.000000
-0.140522 0.106838 -0.279397 0.300000 0.000000 0.600000
0.268323 -0.202842 -0.012330 0.000000 0.500000 0.500000
0.735134 -0.104956 0.404489 0.000000 0.500000 0.500000
0.089266 -0.081383 0.274040 0.000000 0.500000 0.500000
0.529147 0.366803 -0.315201 0.600000 0.300000 0.000000
0.252930 -0.084689 0.431213 0.000000 0.500000 0.500000
-0.469574 -0.202842 0.252676 0.000000 0.500000 0.500000
-0.159080 0.080715 -0.272397 0.300000 0.000000 0.600000
0.588627 -0.202842 -0.266765 0.000000 0.500000 0.500000
-0.220162 0.482696 -0.380211 0.300000 0.000000 0.600000
0.627420 -0.009432 -0.248280 0.300000 0.000000 0.600000
-0.233249 -0.202842 0.285082 0.000000 0.500000 0.500000
0.272617 -0.076322 0.029807 0.500000 0.500000 0.000000
-0.236398 0.111210 -0.280569 0.300000 0.000000 0.600000
-0.230864 0.556832 -0.364404 0.600000 0.300000 0.000000
-0.094245 0.516968 -0.389463 0.300000 0.000000 0.600000
0.692733 -0.074336 -0.091565 0.500000 0.500000 0.000000
-0.162791 -0.071633 -0.126203 0.000000 0.500000 0.500000
0.153178 0.031715 -0.226448 0.600000 0.300000 0.000000
-0.141396 -0.006591 -0.211343 0.600000 0.300000 0.000000
-0.034107 -0.202842 -0.190703 0.000000 0.500000 0.500000
-0.351414 -0.002125 -0.250291 0.300000 0.000000 0.600000
-0.057937 -0.186882 -0.336487 0.000000 0.500000 0.500000
0.321498 -0.165435 -0.313209 0.000000 0.500000 0.500000
0.590099 -0.081033 0.256129 0.500000 0.500000 0.000000
0.320765 -0.202842 0.469239 0.000000 0.500000 0.500000
-0.105174 0.585983 -0.407784 0.300000 0.000000 0.600000
0.534205 -0.202842 0.036616 0.000000 0.500000 0.500000
-0.732696 -0.093933 0.085068 0.000000 0.500000 0.500000
0.257601 -0.083883 0.395097 0.000000 0.500000 0.500000
0.017037 -0.202842 0.082128 0.000000 0.500000 0.500000
0.182530 -0.078133 0.128353 0.500000 0.500000 0.000000
-0.594985 -0.202842 0.172403 0.000000 0.500000 0.500000
-0.102717 -0.095655 -0.246936 0.000000 0.500000 0.500000
-0.165605 -0.077975 0.292443 0.300000 0.600000 0.000000
-0.624774 -0.146583 -0.291966 0.000000 0.500000 0.500000
-0.012131 -0.202842 -0.014594 0.000000 0.500000 0.500000
0.236493 -0.139105 -0.283547 0.000000 0.500000 0.500000
-0.690701 -0.132304 0.573601 0.000000 0.500000 0.500000
0.118963 0.202770 -0.305096 0.300000 0.000000 0.600000
-0.203433 -0.088426 0.504946 0.600000 0.000000 0.300000
-0.540469 -0.202831 0.525339 0.000000 0.500000 0.500000
-0.673703 0.133518 -0.242603 0.300000 0.000000 0.600000
-0.736450 -0.098514 0.171955 0.000000 0.500000 0.500000
-0.738146 0.132962 -0.257921 0.300000 0.000000 0.600000
0.662973 0.084150 -0.229919 0.300000 0.000000 0.600000
-0.164635 0.168528 -0.262049 0.600000 0.300000 0.000000
-0.189648 -0.085711 0.368838 0.300000 0.600000 0.000000
-0.639295 0.130357 -0.285822 0.300000 0.000000 0.600000
-0.459607 0.627586 -0.416575 0.300000 0.000000 0.600000
-0.341488 -0.080586 0.317384 0.300000 0.600000 0.000000
0.211954 -0.202842 0.000218 0.000000 0.500000 0.500000
0.372011 0.271925 -0.289718 0.600000 0.300000 0.000000
0.588928 0.313030 -0.300653 0.600000 0.300000 0.000000
0.340302 -0.202842 0.291685 0.000000 0.500000 0.500000
0.733120 0.170034 -0.271627 0.300000 0.000000 0.600000
-0.550458 0.340791 -0.308226 0.600000 0.300000 0.000000
0.660594 -0.202842 0.150437 0.000000 0.500000 0.500000
0.515377 -0.107784 0.573414 0.000000 0.500000 0.500000
0.450201 -0.179289 -0.328761 0.000000 0.500000 0.500000
-0.509339 0.476117 -0.344489 0.600000 0.300000 0.000000
-0.738714 -0.161434 -0.236321 0.000000 0.500000 0.500000
-0.489537 0.015544 -0.221095 0.600000 0.300000 0.000000
0.237366 -0.164920 -0.312629 0.000000 0.500000 0.500000
-0.724438 -0.199783 -0.128928 0.000000 0.500000 0.500000
-0.490614 -0.088005 0.522758 0.300000 0.000000 0.600000
-0.253912 0.238128 -0.280726 0.600000 0.300000 0.000000
0.427621 0.323400 -0.303460 0.600000 0.300000 0.000000
-0.440702 -0.202842 -0.002997 0.000000 0.500000 0.500000
0.186071 0.571557 -0.365318 0.600000 0.300000 0.000000
0.516266 0.035979 -0.260580 0.300000 0.000000 0.600000
-0.476304 -0.202842 -0.132092 0.000000 0.500000 0.500000
0.234218 -0.202842 0.131848 0.000000 0.500000 0.500000
-0.007012 -0.018878 -0.205237 0.600000 0.300000 0.000000
0.276565 -0.069883 -0.240737 0.300000 0.000000 0.600000
-0.670263 0.359461 -0.304733 0.300000 0.000000 0.600000
0.716367 -0.200829 -0.030561 0.000000 0.500000 0.500000
0.108244 -0.080704 0.244916 0.000000 0.500000 0.500000
0.513718 0.125625 -0.250596 0.600000 0.300000 0.000000
0.176787 0.230254 -0.278688 0.600000 0.300000 0.000000
-0.636174 -0.077781 0.097856 0.500000 0.500000 0.000000
0.731926 -0.065561 -0.202336 0.000000 0.500000 0.500000
0.375286 -0.202842 -0.279997 0.000000 0.500000 0.500000
0.008959 0.189227 -0.268271 0.600000 0.300000 0.000000
0.293185 -0.202842 0.042595 0.000000 0.500000 0.500000
-0.398979 -0.202842 0.427270 0.000000 0.500000 0.500000
0.506689 -0.202842 -0.001832 0.000000 0.500000 0.500000
-0.257503 0.480649 -0.346660 0.600000 0.300000 0.000000
-0.218334 -0.116190 -0.258514 0.000000 0.500000 0.500000
0.041341 -0.085713 0.448010 0.000000 0.500000 0.500000
0.649283 -0.086539 0.520264 0.500000 0.500000 0.000000
0.599776 -0.075867 0.012488 0.500000 0.500000 0.000000
0.463798 0.647499 -0.411158 0.300000 0.000000 0.600000
0.383719 0.547649 -0.397539 0.300000 0.000000 0.600000
-0.557804 -0.084492 0.385342 0.000000 0.500000 0.500000
-0.601929 -0.202842 -0.255566 0.000000 0.500000 0.500000
0.208825 -0.063095 -0.239601 0.300000 0.000000 0.600000
0.328371 0.074302 -0.237606 0.600000 0.300000 0.000000
-0.208918 -0.077425 0.094403 0.500000 0.500000 0.000000
-0.689120 -0.000936 -0.250558 0.300000 0.000000 0.600000
0.684824 -0.084417 0.401862 0.500000 0.500000 0.000000
0.373699 0.594675 -0.410113 0.300000 0.000000 0.600000
-0.308461 -0.076986 0.065383 0.500000 0.500000 0.000000
0.728225 0.572884 -0.389036 0.300000 0.000000 0.600000
0.440753 -0.202842 -0.037217 0.000000 0.500000 0.500000
-0.533421 -0.095324 0.570005 0.000000 0.500000 0.500000
0.647637 -0.077631 0.086842 0.500000 0.500000 0.000000
0.526511 0.070235 -0.269590 0.300000 0.000000 0.600000
0.380798 0.228351 -0.278104 0.600000 0.300000 0.000000
0.273438 0.472646 -0.377444 0.300000 0.000000 0.600000
0.710187 0.569152 -0.352774 0.300000 0.000000 0.600000
0.396051 0.472692 -0.377457 0.300000 0.000000 0.600000
-0.687054 -0.074923 -0.052658 0.000000 0.500000 0.500000
0.078521 -0.077954 0.119767 0.500000 0.500000 0.000000
-0.388054 0.088083 -0.274373 0.300000 0.000000 0.600000
-0.684022 0.247868 -0.317210 0.300000 0.000000 0.600000
0.337169 -0.202842 -0.257768 0.000000 0.500000 0.500000
0.550818 0.059559 -0.266777 0.300000 0.000000 0.600000
-0.104083 0.112783 -0.280990 0.300000 0.000000 0.600000
0.035113 0.324432 -0.337701 0.300000 0.000000 0.600000
-0.061881 -0.073596 -0.092040 0.500000 0.500000 0.000000
0.476199 0.181076 -0.299375 0.300000 0.000000 0.600000
0.310331 -0.084156 0.408192 0.000000 0.500000 0.500000
-0.688405 0.318831 -0.289346 0.300000 0.000000 0.600000
0.229205 -0.067763 -0.240294 0.300000 0.000000 0.600000
0.080216 0.260538 -0.320718 0.300000 0.000000 0.600000
0.365071 0.012799 -0.254367 0.300000 0.000000 0.600000
0.189160 0.137492 -0.254802 0.600000 0.300000 0.000000
0.430052 -0.202842 -0.170913 0.000000 0.500000 0.500000
-0.264127 -0.202842 -0.035803 0.000000 0.500000 0.500000
-0.219739 0.320079 -0.302550 0.600000 0.300000 0.000000
-0.540915 0.037295 -0.226884 0.600000 0.300000 0.000000
-0.373883 0.460068 -0.340243 0.600000 0.300000 0.000000
-0.623791 -0.082375 0.311918 0.000000 0.500000 0.500000
0.065732 -0.048391 -0.240149 0.300000 0.000000 0.600000
-0.421652 -0.202842 0.191656 0.000000 0.500000 0.500000
-0.483986 0.582440 -0.406835 0.300000 0.000000 0.600000
-0.094136 -0.202831 0.525867 0.000000 0.500000 0.500000
0.059245 -0.076191 0.035325 0.500000 0.500000 0.000000
0.502345 0.497225 -0.350147 0.600000 0.300000 0.000000
-0.607677 -0.202842 0.102469 0.000000 0.500000 0.500000
-0.311943 0.325509 -0.337984 0.300000 0.000000 0.600000
-0.444892 -0.167342 0.573167 0.000000 0.500000 0.500000
-0.641106 0.062053 -0.229393 0.600000 0.300000 0.000000
0.014225 -0.079487 0.187517 0.500000 0.500000 0.000000
-0.134787 -0.077570 0.172786 0.500000 0.500000 0.000000
0.267791 -0.086074 0.494642 0.000000 0.500000 0.500000
-0.096138 -0.128031 -0.271074 0.000000 0.500000 0.500000
0.067190 -0.202842 -0.043651 0.000000 0.500000 0.500000
-0.532365 -0.202842 -0.052029 0.000000 0.500000 0.500000
0.571450 0.639901 -0.415498 0.300000 0.000000 0.600000
0.316935 -0.074949 -0.026694 0.500000 0.500000 0.000000
-0.066475 -0.202842 0.098286 0.000000 0.500000 0.500000
-0.664647 0.388435 -0.354981 0.300000 0.000000 0.600000
-0.177638 0.236534 -0.314145 0.300000 0.000000 0.600000
0.595829 -0.077886 0.103920 0.500000 0.500000 0.000000
0.086537 0.440110 -0.334701 0.600000 0.300000 0.000000
0.334480 -0.082885 0.347280 0.500000 0.500000 0.000000
-0.212774 -0.202842 -0.165389 0.000000 0.500000 0.500000
0.405341 0.225351 -0.277300 0.600000 0.300000 0.000000
-0.662810 -0.202841 0.191975 0.000000 0.500000 0.500000
0.558312 -0.202842 0.111645 0.000000 0.500000 0.500000
-0.138781 0.049896 -0.230199 0.600000 0.300000 0.000000
-0.669800 -0.202841 0.402092 0.000000 0.500000 0.500000
-0.506120 0.357575 -0.312727 0.600000 0.300000 0.000000
-0.478060 -0.066584 -0.155609 0.000000 0.500000 0.500000
-0.156614 0.632012 -0.416691 0.300000 0.000000 0.600000
0.051131 -0.086989 0.497192 0.000000 0.500000 0.500000
-0.315744 -0.202842 0.306536 0.000000 0.500000 0.500000
0.158049 -0.073599 -0.089275 0.500000 0.500000 0.000000
0.457902 0.020668 -0.223397 0.600000 0.300000 0.000000
0.381085 -0.082625 0.333473 0.500000 0.500000 0.000000
0.425505 0.196971 -0.269602 0.600000 0.300000 0.000000
0.298130 0.398264 -0.357629 0.300000 0.000000 0.600000
0.174000 -0.064748 -0.159120 0.000000 0.500000 0.500000
-0.463669 0.528655 -0.358724 0.600000 0.300000 0.000000
-0.404005 0.559815 -0.400774 0.300000 0.000000 0.600000
-0.144313 -0.120189 0.573596 0.000000 0.500000 0.500000
0.359423 -0.080962 0.253937 0.500000 0.500000 0.000000
0.591730 0.146179 -0.290109 0.300000 0.000000 0.600000
0.597023 -0.202842 0.490490 0.000000 0.500000 0.500000
0.279400 -0.010645 -0.210007 0.600000 0.300000 0.000000
0.466948 -0.101778 -0.250389 0.000000 0.500000 0.500000
0.653871 -0.052417 -0.240076 0.300000 0.000000 0.600000
0.734678 -0.107477 -0.202434 0.000000 0.500000 0.500000
0.569542 0.638631 -0.371835 0.300000 0.000000 0.600000
-0.483919 -0.087951 0.432562 0.300000 0.000000 0.600000
0.405901 0.202451 -0.271103 0.600000 0.300000 0.000000
0.674697 -0.078254 0.110801 0.500000 0.500000 0.000000
-0.738682 -0.124631 -0.072129 0.000000 0.500000 0.500000
-0.284345 0.003696 -0.216720 0.600000 0.300000 0.000000
-0.259605 0.642709 -0.374520 0.300000 0.000000 0.600000
0.091910 0.642969 -0.413834 0.300000 0.000000 0.600000
-0.656374 -0.144620 -0.289756 0.000000 0.500000 0.500000
-0.477084 -0.077713 0.108196 0.500000 0.500000 0.000000
-0.738743 -0.140716 0.109977 0.000000 0.500000 0.500000
-0.567768 0.343575 -0.308974 0.600000 0.300000 0.000000
-0.738743 -0.135578 -0.222680 0.000000 0.500000 0.500000
-0.374845 -0.150405 0.573489 0.000000 0.500000 0.500000
0.489845 -0.052163 -0.240087 0.300000 0.000000 0.600000
0.216619 0.407417 -0.360029 0.300000 0.000000 0.600000
-0.710484 -0.202202 0.170838 0.000000 0.500000 0.500000
0.321029 -0.077069 0.056952 0.500000 0.500000 0.000000
-0.433266 0.177407 -0.264378 0.600000 0.300000 0.000000
-0.675296 -0.202841 -0.246186 0.000000 0.500000 0.500000
-0.114309 -0.077042 -0.048030 0.500000 0.500000 0.000000
0.340824 0.291245 -0.294819 0.600000 0.300000 0.000000
0.356522 0.282153 -0.292409 0.600000 0.300000 0.000000
-0.165012 -0.202842 0.412948 0.000000 0.500000 0.500000
-0.360361 0.554265 -0.399287 0.300000 0.000000 0.600000
-0.306931 0.559255 -0.364617 0.600000 0.300000 0.000000
0.511566 0.191986 -0.268237 0.600000 0.300000 0.000000
-0.351431 -0.075881 0.265021 0.300000 0.600000 0.000000
-0.706075 0.524471 -0.391256 0.300000 0.000000 0.600000
-0.429140 0.466165 -0.341804 0.600000 0.300000 0.000000
-0.650101 -0.080781 0.233381 0.000000 0.500000 0.500000
0.713947 -0.201269 0.012461 0.000000 0.500000 0.500000
-0.137063 0.546517 -0.397242 0.300000 0.000000 0.600000
-0.737298 -0.103278 0.034040 0.000000 0.500000 0.500000
0.548067 -0.095217 0.569984 0.000000 0.500000 0.500000
-0.594315 -0.147749 -0.293280 0.000000 0.500000 0.500000
-0.374029 0.139993 -0.254448 0.600000 0.300000 0.000000
-0.454184 -0.148551 -0.294171 0.000000 0.500000 0.500000
0.376490 -0.000301 -0.215590 0.600000 0.300000 0.000000
0.039966 0.280231 -0.326029 0.300000 0.000000 0.600000
0.487747 0.099090 -0.277321 0.300000 0.000000 0.600000
-0.412991 -0.180144 -0.329198 0.000000 0.500000 0.500000
-0.380798 0.516174 -0.355779 0.600000 0.300000 0.000000
0.102838 0.467758 -0.376107 0.300000 0.000000 0.600000
-0.043191 -0.077100 0.078825 0.500000 0.500000 0.000000
-0.066699 0.069141 -0.269295 0.300000 0.000000 0.600000
-0.475332 0.002552 -0.216121 0.600000 0.300000 0.000000
0.062750 -0.202842 0.345244 0.000000 0.500000 0.500000
0.353625 0.227008 -0.277744 0.600000 0.300000 0.000000
-0.573842 -0.147411 -0.292898 0.000000 0.500000 0.500000
-0.089643 0.313067 -0.300701 0.600000 0.300000 0.000000
-0.711152 0.287157 -0.327085 0.300000 0.000000 0.600000
0.168853 -0.028594 -0.243089 0.300000 0.000000 0.600000
0.342516 -0.142649 0.573816 0.000000 0.500000 0.500000
0.567372 -0.060418 -0.239762 0.300000 0.000000 0.600000
-0.359570 -0.202842 -0.247804 0.000000 0.500000 0.500000
-0.459654 -0.071451 -0.131611 0.000000 0.500000 0.500000
-0.229646 0.455825 -0.372908 0.300000 0.000000 0.600000
-0.372126 0.626445 -0.369586 0.300000 0.000000 0.600000
0.488553 -0.202842 -0.086657 0.000000 0.500000 0.500000
0.732803 -0.187336 -0.265075 0.000000 0.500000 0.500000
-0.498831 0.564506 -0.364628 0.600000 0.300000 0.000000
-0.653876 0.170384 -0.296573 0.300000 0.000000 0.600000
0.371299 0.549036 -0.363111 0.600000 0.300000 0.000000
0.734624 -0.177757 -0.161271 0.000000 0.500000 0.500000
0.193818 0.228596 -0.312017 0.300000 0.000000 0.600000
0.378460 -0.078249 0.118423 0.500000 0.500000 0.000000
-0.677433 -0.077831 0.095086 0.000000 0.500000 0.500000
0.421587 0.013971 -0.221715 0.600000 0.300000 0.000000
0.684745 0.541146 -0.347330 0.300000 0.000000 0.600000
0.716911 0.319383 -0.330772 0.300000 0.000000 0.600000
0.534312 0.651068 -0.398068 0.300000 0.000000 0.600000
0.515372 -0.202842 0.040006 0.000000 0.500000 0.500000
-0.205666 -0.115817 0.573297 0.000000 0.500000 0.500000
0.734868 -0.167241 0.535832 0.000000 0.500000 0.500000
0.735439 -0.108691 0.328250 0.000000 0.500000 0.500000
0.003040 0.119803 -0.249786 0.600000 0.300000 0.000000
0.373159 -0.086901 0.458431 0.500000 0.500000 0.000000
0.318894 -0.018094 -0.245914 0.300000 0.000000 0.600000
0.641388 -0.085133 0.416356 0.500000 0.500000 0.000000
0.137274 -0.087020 0.511454 0.000000 0.500000 0.500000
-0.004121 -0.080046 0.210939 0.500000 0.500000 0.000000
-0.738742 -0.150983 0.390938 0.000000 0.500000 0.500000
0.661748 0.341765 -0.342341 0.300000 0.000000 0.600000
0.033833 -0.202842 0.429916 0.000000 0.500000 0.500000
0.357716 -0.202832 0.521992 0.000000 0.500000 0.500000
0.416921 -0.074386 -0.067196 0.500000 0.500000 0.000000
0.066346 0.651470 -0.397737 0.300000 0.000000 0.600000
-0.406276 -0.202842 -0.178049 0.000000 0.500000 0.500000
0.079001 -0.116463 0.573505 0.000000 0.500000 0.500000
0.735559 -0.147460 -0.099887 0.000000 0.500000 0.500000
-0.342898 0.048800 -0.263955 0.300000 0.000000 0.600000
0.623939 -0.202842 -0.061437 0.000000 0.500000 0.500000
0.517486 0.568612 -0.403131 0.300000 0.000000 0.600000
0.685289 0.146576 -0.290134 0.300000 0.000000 0.600000
-0.080714 -0.114122 -0.257347 0.000000 0.500000 0.500000
-0.648964 -0.202842 -0.275690 0.000000 0.500000 0.500000
-0.457906 0.396636 -0.323151 0.600000 0.300000 0.000000
0.513273 -0.202609 0.550031 0.000000 0.500000 0.500000
-0.578422 -0.084103 0.400274 0.000000 0.500000 0.500000
-0.404569 0.488069 -0.381690 0.300000 0.000000 0.600000
0.346789 0.317764 -0.301916 0.600000 0.300000 0.000000
-0.544191 -0.202842 0.162882 0.000000 0.500000 0.500000
0.633550 -0.083230 0.357794 0.500000 0.500000 0.000000
-0.732930 0.573015 -0.388268 0.300000 0.000000 0.600000
-0.426793 -0.085994 0.373613 0.300000 0.600000 0.000000
0.010876 -0.124529 -0.266285 0.000000 0.500000 0.500000
0.309905 -0.202842 0.110441 0.000000 0.500000 0.500000
0.106154 -0.112996 -0.255976 0.000000 0.500000 0.500000
0.508497 -0.083620 0.376613 0.500000 0.500000 0.000000
0.222558 -0.082894 0.347743 0.000000 0.500000 0.500000
0.401313 0.305071 -0.332627 0.300000 0.000000 0.600000
0.723984 -0.085669 0.241877 0.000000 0.500000 0.500000
0.684512 0.587476 -0.361229 0.300000 0.000000 0.600000
-0.654081 -0.077866 0.099030 0.000000 0.500000 0.500000
-0.084630 -0.039532 -0.240582 0.300000 0.000000 0.600000
-0.395339 -0.162486 -0.309415 0.000000 0.500000 0.500000
-0.013581 0.112824 -0.247656 0.600000 0.300000 0.000000
-0.560492 -0.180315 0.573030 0.000000 0.500000 0.500000
0.116970 -0.191605 0.570878 0.000000 0.500000 0.500000
-0.722855 -0.200087 -0.188008 0.000000 0.500000 0.500000
0.609012 -0.081687 0.282821 0.500000 0.500000 0.000000
-0.738561 -0.116939 0.131523 0.000000 0.500000 0.500000
0.106074 0.075217 -0.237965 0.600000 0.300000 0.000000
-0.202117 -0.093012 0.569119 0.000000 0.500000 0.500000
-0.554617 -0.074657 -0.076959 0.500000 0.500000 0.000000
-0.141431 -0.031299 -0.242360 0.300000 0.000000 0.600000
-0.369361 -0.088694 0.467705 0.300000 0.000000 0.600000
0.050906 -0.202842 0.303552 0.000000 0.500000 0.500000
-0.683034 0.029205 -0.213722 0.300000 0.000000 0.600000
-0.072019 -0.079244 0.268719 0.300000 0.600000 0.000000
-0.515421 -0.202842 -0.242162 0.000000 0.500000 0.500000
-0.477653 -0.127361 0.573298 0.000000 0.500000 0.500000
-0.032244 -0.202842 -0.089527 0.000000 0.500000 0.500000
-0.413194 -0.075493 0.233252 0.500000 0.500000 0.000000
0.601337 0.648450 -0.407545 0.300000 0.000000 0.600000
-0.101347 -0.093094 0.569187 0.000000 0.500000 0.500000
-0.339624 0.419031 -0.363073 0.300000 0.000000 0.600000
-0.675557 -0.202841 0.220399 0.000000 0.500000 0.500000
0.154157 -0.085348 0.445062 0.000000 0.500000 0.500000
0.592283 -0.202842 0.392051 0.000000 0.500000 0.500000
-0.171479 -0.068989 -0.149297 0.000000 0.500000 0.500000
-0.570437 -0.202830 -0.292089 0.000000 0.500000 0.500000
0.113747 0.325821 -0.338069 0.300000 0.000000 0.600000
-0.570142 -0.202842 0.375907 0.000000 0.500000 0.500000
0.675923 -0.202841 0.121075 0.000000 0.500000 0.500000
0.306274 -0.202842 0.081262 0.000000 0.500000 0.500000
-0.035538 -0.202842 0.118357 0.000000 0.500000 0.500000
0.559605 -0.148721 -0.294374 0.000000 0.500000 0.500000
0.308443 -0.202842 0.299361 0.000000 0.500000 0.500000
-0.361393 -0.202842 -0.130501 0.000000 0.500000 0.500000
-0.635785 -0.202842 -0.187800 0.000000 0.500000 0.500000
0.138053 -0.202842 0.313266 0.000000 0.500000 0.500000
0.251083 0.290165 -0.328690 0.300000 0.000000 0.600000
-0.094822 0.164570 -0.261011 0.600000 0.300000 0.000000
-0.420701 -0.075343 -0.008638 0.500000 0.500000 0.000000
-0.547504 -0.165426 -0.313199 0.000000 0.500000 0.500000
0.220961 -0.202842 0.303164 0.000000 0.500000 0.500000
-0.432158 -0.202842 -0.262226 0.000000 0.500000 0.500000
0.091028 -0.202842 0.064167 0.000000 0.500000 0.500000
0.189854 0.015174 -0.255004 0.300000 0.000000 0.600000
0.183920 -0.202842 0.301840 0.000000 0.500000 0.500000
-0.572586 -0.191903 0.570645 0.000000 0.500000 0.500000
-0.722662 -0.116359 0.570063 0.000000 0.500000 0.500000
-0.540804 0.201820 -0.304841 0.300000 0.000000 0.600000
-0.738743 -0.151057 -0.161084 0.000000 0.500000 0.500000
-0.080668 -0.080875 0.321674 0.300000 0.600000 0.000000
-0.137301 -0.088117 0.503667 0.600000 0.000000 0.300000
0.246553 -0.109791 0.573326 0.000000 0.500000 0.500000
0.035083 -0.202831 -0.290848 0.000000 0.500000 0.500000
0.273707 0.183004 -0.299880 0.300000 0.000000 0.600000
-0.233086 -0.202842 -0.140338 0.000000 0.500000 0.500000
0.310768 -0.140811 -0.285468 0.000000 0.500000 0.500000
-0.503448 -0.067369 -0.154108 0.000000 0.500000 0.500000
-0.715570 0.062599 -0.265207 0.300000 0.000000 0.600000
-0.242621 0.021010 -0.222557 0.600000 0.300000 0.000000
0.367360 -0.074323 -0.062265 0.500000 0.500000 0.000000
0.540681 -0.202842 0.433293 0.000000 0.500000 0.500000
0.277822 -0.082837 0.345008 0.000000 0.500000 0.500000
0.735093 -0.121874 -0.167807 0.000000 0.500000 0.500000
0.412972 -0.028069 -0.243229 0.300000 0.000000 0.600000
-0.389091 -0.081239 0.323347 0.300000 0.600000 0.000000
-0.638539 -0.202842 0.018223 0.000000 0.500000 0.500000
0.546032 -0.202842 0.379288 0.000000 0.500000 0.500000
0.665701 0.512105 -0.388159 0.300000 0.000000 0.600000
0.518170 -0.057204 -0.173547 0.000000 0.500000 0.500000
0.305305 -0.074860 -0.078813 0.500000 0.500000 0.000000
-0.664792 -0.202841 0.288203 0.000000 0.500000 0.500000
0.349404 -0.202842 0.144014 0.000000 0.500000 0.500000
-0.708155 0.638052 -0.371809 0.300000 0.000000 0.600000
-0.369718 -0.073970 -0.074526 0.500000 0.500000 0.000000
-0.312245 0.263432 -0.287483 0.600000 0.300000 0.000000
-0.727328 0.365087 -0.303327 0.300000 0.000000 0.600000
0.609402 0.123595 -0.283961 0.300000 0.000000 0.600000
-0.010023 0.297442 -0.330627 0.300000 0.000000 0.600000
-0.348952 0.267651 -0.288593 0.600000 0.300000 0.000000
-0.528977 0.268040 -0.322764 0.300000 0.000000 0.600000
0.070918 -0.096124 0.570241 0.000000 0.500000 0.500000
0.635633 0.186761 -0.300864 0.300000 0.000000 0.600000
0.648181 -0.202842 0.095758 0.000000 0.500000 0.500000
0.461699 -0.202842 0.426353 0.000000 0.500000 0.500000
0.136204 0.297417 -0.330621 0.300000 0.000000 0.600000
-0.326333 -0.090185 0.452602 0.300000 0.600000 0.000000
-0.426957 -0.145175 -0.290381 0.000000 0.500000 0.500000
-0.448435 -0.202841 0.498918 0.000000 0.500000 0.500000
-0.298590 0.098059 -0.277045 0.300000 0.000000 0.600000
-0.202710 0.255217 -0.319252 0.300000 0.000000 0.600000
-0.577917 -0.202596 0.551401 0.000000 0.500000 0.500000
-0.559658 -0.039558 -0.191574 0.300000 0.000000 0.600000
0.682706 0.411185 -0.313034 0.300000 0.000000 0.600000
0.034945 0.614756 -0.415379 0.300000 0.000000 0.600000
-0.044928 -0.089479 -0.244726 0.300000 0.000000 0.600000
0.578616 -0.202842 0.028422 0.000000 0.500000 0.500000
0.058047 -0.080333 0.222613 0.500000 0.500000 0.000000
-0.156299 -0.202842 -0.049016 0.000000 0.500000 0.500000
-0.144134 -0.161706 -0.308065 0.000000 0.500000 0.500000
0.713306 -0.201388 0.145720 0.000000 0.500000 0.500000
0.441576 -0.202842 0.476010 0.000000 0.500000 0.500000
0.043708 -0.079675 0.194776 0.500000 0.500000 0.000000
0.555008 0.471075 -0.377012 0.300000 0.000000 0.600000
0.101785 -0.086275 0.476636 0.000000 0.500000 0.500000
0.663735 0.390441 -0.312574 0.300000 0.000000 0.600000
0.347328 0.606305 -0.413171 0.300000 0.000000 0.600000
-0.633522 0.024189 -0.257420 0.300000 0.000000 0.600000
0.223415 -0.074592 -0.044166 0.500000 0.500000 0.000000
0.400378 -0.202836 0.512239 0.000000 0.500000 0.500000
0.006871 0.563429 -0.364713 0.600000 0.300000 0.000000
-0.473026 -0.073409 -0.099475 0.500000 0.500000 0.000000
-0.616909 -0.070088 -0.240777 0.300000 0.000000 0.600000
0.277161 0.378578 -0.352269 0.300000 0.000000 0.600000
0.289170 -0.202842 -0.272950 0.000000 0.500000 0.500000
0.735215 -0.105059 0.025066 0.000000 0.500000 0.500000
-0.703564 0.149644 -0.290786 0.300000 0.000000 0.600000
0.279677 -0.080247 0.220964 0.500000 0.500000 0.000000
-0.094533 -0.202842 0.154648 0.000000 0.500000 0.500000
-0.531320 -0.202842 0.455154 0.000000 0.500000 0.500000
0.393022 -0.202842 0.268420 0.000000 0.500000 0.500000
-0.161922 -0.061537 -0.239717 0.300000 0.000000 0.600000
-0.676783 -0.202841 -0.092116 0.000000 0.500000 0.500000
0.293872 -0.084107 0.405847 0.000000 0.500000 0.500000
0.375824 0.053345 -0.265148 0.300000 0.000000 0.600000
0.115059 0.277516 -0.325302 0.300000 0.000000 0.600000
-0.738742 -0.152435 0.334339 0.000000 0.500000 0.500000
-0.133919 0.651134 -0.399321 0.300000 0.000000 0.600000
-0.552252 -0.051267 -0.180005 0.300000 0.000000 0.600000
-0.470129 -0.102286 -0.250675 0.000000 0.500000 0.500000
-0.327615 -0.081887 0.329290 0.300000 0.600000 0.000000
-0.632160 0.330421 -0.303282 0.600000 0.300000 0.000000
-0.206089 0.074354 -0.236699 0.600000 0.300000 0.000000
-0.582338 0.105911 -0.279149 0.300000 0.000000 0.600000
0.187412 0.554070 -0.399234 0.300000 0.000000 0.600000
0.732805 0.031511 -0.242031 0.300000 0.000000 0.600000
0.033384 0.529829 -0.392866 0.300000 0.000000 0.600000
-0.434666 -0.069181 -0.150519 0.000000 0.500000 0.500000
0.127516 -0.082025 -0.242799 0.300000 0.000000 0.600000
0.433478 -0.037344 -0.194106 0.300000 0.000000 0.600000
0.561109 -0.202842 -0.075278 0.000000 0.500000 0.500000
