ply
format ascii 1.0
element vertex 1268
property float x
property float y
property float z
property uchar red
property uchar green
property uchar blue
end_header
-0.193032 -0.440143 -0.428311 0 255 0
-0.115746 -0.151010 -0.428311 0 255 0
-0.261390 0.127741 -0.428311 204 51 127
0.237502 0.489136 0.110664 76 153 0
-0.530497 0.436658 -0.283407 204 51 127
0.357053 0.489136 0.288672 76 153 0
-0.569910 -0.608190 -0.185473 76 0 153
-0.317732 -0.507699 0.154268 0 255 0
-0.427378 -0.575029 -0.333133 153 76 0
-0.523224 -0.508519 0.500615 153 76 0
0.100356 -0.575029 -0.393567 153 76 0
0.600843 0.238367 -0.213626 153 0 76
-0.289777 0.555646 -0.409048 76 153 0
0.028623 0.431975 -0.552791 76 153 0
0.600843 -0.136455 0.085437 153 0 76
-0.464051 -0.345534 -0.428311 0 255 0
-0.129263 0.229611 0.574436 204 51 127
-0.359832 0.489136 0.219760 76 153 0
-0.102948 -0.278911 0.657147 255 0 0
0.064573 -0.575029 0.455927 153 76 0
-0.530497 -0.079301 -0.000079 0 255 0
0.600843 -0.012528 0.310452 153 0 76
0.489567 0.555646 0.196019 76 153 0
0.555543 0.172834 -0.443857 204 51 127
0.287159 0.370189 0.574436 204 51 127
0.516129 -0.034582 0.512631 0 255 0
-0.599471 0.126729 0.145013 76 0 153
0.235485 -0.546021 0.613849 153 76 0
0.450732 0.323172 0.574436 204 51 127
0.031711 0.489136 -0.011833 76 153 0
0.126966 -0.267930 0.629647 255 0 0
-0.328189 0.278179 -0.428311 204 51 127
-0.586132 0.555646 -0.156244 76 153 0
0.513171 0.555646 0.508928 76 153 0
0.248596 -0.018971 0.436929 127 127 0
-0.569910 0.417753 0.491322 76 0 153
0.418848 -0.018971 0.326173 127 127 0
0.467656 -0.575029 -0.039296 153 76 0
-0.081475 0.551458 -0.552791 76 153 0
-0.119401 0.400184 0.613849 204 51 127
-0.286109 -0.575029 -0.086596 153 76 0
0.319295 -0.018971 0.110941 127 127 0
-0.480853 -0.575029 0.028111 153 76 0
0.229929 -0.507699 -0.177452 0 255 0
0.367453 0.559588 -0.167835 76 153 0
-0.599471 -0.315907 0.109395 76 0 153
0.102970 -0.575029 0.044672 153 76 0
0.118243 0.128175 -0.552791 76 153 0
0.585478 0.224616 0.629615 153 0 76
-0.391237 -0.575029 0.489226 153 76 0
-0.545888 0.555646 -0.419994 76 153 0
-0.380094 0.555646 -0.266480 76 153 0
0.435792 0.249901 -0.428311 204 51 127
0.600843 -0.254027 0.169716 153 0 76
-0.569910 -0.302067 0.363428 0 255 0
-0.599471 0.496131 0.619464 76 0 153
-0.169495 -0.110303 0.574436 0 255 0
-0.098698 0.555646 0.510862 76 153 0
0.516129 -0.337196 -0.043131 0 255 0
-0.307646 -0.259599 -0.428311 0 255 0
0.088537 0.229771 0.574436 204 51 127
0.431689 0.489136 0.024399 76 153 0
0.516129 -0.205510 0.467214 0 255 0
-0.162843 0.559588 -0.162655 76 153 0
0.495134 -0.141806 -0.467725 0 255 0
0.516129 -0.074178 -0.156217 0 255 0
0.096442 -0.423172 0.613849 0 255 0
0.516129 -0.423047 -0.234581 0 255 0
-0.156884 0.189937 -0.552791 76 153 0
0.367657 0.107039 0.574436 204 51 127
-0.469522 -0.628238 -0.532028 76 153 0
0.516129 -0.444614 0.336044 0 255 0
0.098083 0.489136 0.159422 76 153 0
-0.474623 0.218030 -0.552791 76 153 0
-0.080734 -0.312747 -0.552791 76 153 0
0.600843 0.553759 -0.500063 153 0 76
0.366924 -0.420723 0.574436 0 255 0
-0.205611 -0.575029 -0.474966 153 76 0
-0.329045 -0.091163 -0.552791 76 153 0
-0.599471 -0.114836 0.486593 76 0 153
0.600843 0.219174 -0.001568 153 0 76
-0.086993 -0.575029 -0.064709 153 76 0
-0.599471 0.221592 0.054690 76 0 153
-0.130728 -0.508519 0.350751 153 76 0
0.462200 -0.575029 0.343762 153 76 0
0.600843 0.567414 0.398127 153 0 76
0.571283 -0.624073 0.278022 153 0 76
0.050581 0.559588 -0.429318 76 153 0
0.555543 0.237262 0.373257 204 51 127
0.007298 -0.191627 -0.428311 0 255 0
-0.460293 0.081597 -0.552791 76 153 0
0.600843 0.421928 0.133983 153 0 76
-0.589420 -0.049329 -0.537715 76 153 0
-0.067237 -0.031401 -0.467725 0 255 0
0.600843 0.317362 -0.425823 153 0 76
-0.382862 -0.575029 0.251414 153 76 0
-0.026600 -0.507699 -0.463847 0 255 0
0.115755 0.000342 -0.075773 127 127 0
0.366517 0.012993 -0.428311 204 51 127
-0.493341 -0.344813 -0.552791 76 153 0
-0.599471 -0.553961 -0.439646 76 0 153
-0.011570 -0.018971 -0.010353 127 127 0
0.492525 0.555646 -0.398285 76 153 0
-0.429075 -0.018971 -0.243958 127 127 0
0.542563 0.108305 -0.552791 76 153 0
-0.282017 -0.507699 -0.197231 0 255 0
0.323651 0.394804 -0.523231 76 153 0
-0.164359 0.559588 -0.429759 76 153 0
0.516129 0.427447 -0.145883 204 51 127
0.397306 0.489136 0.443129 76 153 0
-0.243819 0.489136 0.509410 76 153 0
0.572044 -0.628238 0.469297 153 0 76
0.386831 -0.018971 -0.120825 127 127 0
0.223388 0.218602 0.574436 204 51 127
0.516129 0.143904 -0.227647 204 51 127
0.217378 -0.585203 -0.552791 76 153 0
0.103931 0.489136 0.347684 76 153 0
-0.530497 0.060924 -0.420220 204 51 127
0.158399 -0.018971 0.525588 127 127 0
0.219691 -0.236677 -0.428311 0 255 0
-0.324945 0.559588 0.322900 76 153 0
-0.530497 0.315937 -0.117452 204 51 127
-0.271595 0.403012 -0.552791 76 153 0
-0.591638 0.568948 0.244823 76 0 153
-0.326121 -0.426100 -0.428311 0 255 0
-0.408239 0.373437 -0.428311 204 51 127
0.029394 0.555646 0.521424 76 153 0
0.185476 0.000342 0.141631 127 127 0
-0.569910 -0.436880 0.099537 0 255 0
0.439048 0.000342 0.608742 127 127 0
-0.565384 -0.035386 0.613849 0 255 0
-0.599471 -0.031006 -0.089811 76 0 153
-0.569910 0.357276 0.124600 204 51 127
-0.318153 -0.018971 -0.334764 127 127 0
0.309555 0.555646 0.036877 76 153 0
-0.286897 0.555646 0.115257 76 153 0
-0.599471 -0.190806 -0.430663 76 0 153
0.242555 -0.074114 -0.467725 0 255 0
-0.493793 0.489136 0.410273 76 153 0
-0.513521 -0.508519 0.298581 153 76 0
-0.599471 -0.089548 0.336742 76 0 153
0.155436 0.289294 -0.428311 204 51 127
-0.013936 0.559588 -0.324760 76 153 0
-0.531949 0.555646 0.113777 76 153 0
0.327964 -0.575029 0.250312 153 76 0
-0.231711 0.016874 -0.467725 204 51 127
0.043037 0.235885 -0.428311 204 51 127
0.333925 -0.261369 -0.552791 76 153 0
-0.530497 0.233241 0.517069 204 51 127
0.329112 -0.575029 -0.208906 153 76 0
-0.455765 0.000342 0.501083 127 127 0
0.112464 0.559588 -0.088579 76 153 0
-0.599471 -0.345370 -0.306308 76 0 153
-0.530497 0.128459 -0.042412 204 51 127
-0.138200 -0.507699 0.120525 0 255 0
0.600843 -0.505406 -0.250588 153 0 76
0.516129 0.432035 0.549129 204 51 127
0.600843 -0.335040 0.081983 153 0 76
-0.202143 -0.358162 -0.552791 76 153 0
0.479352 -0.575029 0.089008 153 76 0
-0.230608 0.000408 0.354717 204 51 127
-0.345179 0.299305 0.613849 204 51 127
-0.530497 -0.093756 0.234363 0 255 0
0.600843 0.561257 -0.338017 153 0 76
-0.086592 0.559588 0.188923 76 153 0
-0.261874 -0.351504 0.613849 0 255 0
-0.490426 -0.172524 0.574436 0 255 0
0.157778 -0.575029 0.366841 153 76 0
0.592986 -0.559659 0.031558 153 76 0
0.306246 0.555646 0.613828 76 153 0
0.235702 0.489136 0.353885 76 153 0
-0.599471 -0.191699 -0.245543 76 0 153
0.158537 -0.358591 -0.467725 0 255 0
0.600843 -0.257400 -0.017838 153 0 76
0.600843 -0.428801 0.414770 153 0 76
0.516129 0.230373 0.263689 204 51 127
-0.379145 -0.018971 0.189259 127 127 0
0.292610 -0.507699 0.519498 0 255 0
0.600843 0.260890 0.107019 153 0 76
0.294502 0.114727 -0.552791 76 153 0
-0.385758 -0.451212 -0.552791 76 153 0
-0.087729 -0.575029 -0.244533 153 76 0
0.514879 0.000342 0.401740 127 127 0
-0.029567 -0.575029 0.361395 153 76 0
-0.022999 -0.575029 0.153033 153 76 0
-0.192995 -0.508519 -0.058092 153 76 0
0.502152 -0.515791 0.613849 153 76 0
0.600843 -0.348783 0.629522 153 0 76
0.516129 -0.247031 0.324994 0 255 0
-0.014045 -0.018971 0.269236 127 127 0
-0.589420 -0.512125 -0.016230 153 76 0
0.555543 0.468263 0.360449 204 51 127
-0.488839 0.294001 -0.467725 204 51 127
0.295502 0.489136 -0.223190 76 153 0
0.516129 -0.105057 0.014445 0 255 0
-0.225959 0.442867 0.613849 204 51 127
0.516129 0.182908 0.473298 204 51 127
0.305459 0.555646 0.210072 76 153 0
-0.001856 0.086032 -0.523231 76 153 0
0.496109 0.417050 -0.428311 204 51 127
0.056307 -0.147193 -0.523231 76 153 0
0.309472 -0.106374 0.574436 0 255 0
-0.349032 0.489136 -0.480481 76 153 0
0.600843 -0.111661 -0.250444 153 0 76
-0.575276 0.100780 0.629615 76 0 153
0.516129 -0.481436 -0.081859 0 255 0
-0.569910 -0.410352 0.533797 76 0 153
-0.009298 -0.508519 0.511498 153 76 0
0.600843 -0.239535 -0.338276 153 0 76
-0.174422 0.446561 -0.467725 204 51 127
-0.530497 -0.213380 0.141277 0 255 0
-0.011039 0.375594 0.574436 204 51 127
-0.493948 0.489136 0.577836 204 51 127
-0.095752 0.559588 0.062036 76 153 0
0.195878 0.489136 -0.047268 76 153 0
0.284670 -0.508519 -0.424941 153 76 0
0.600843 0.025923 -0.396350 153 0 76
-0.176813 0.000342 0.200381 127 127 0
-0.587428 -0.284308 0.629615 76 0 153
-0.322090 -0.181505 0.574436 0 255 0
0.590426 -0.510266 -0.542938 153 76 0
-0.530497 -0.306412 -0.079423 0 255 0
0.516129 0.335460 0.483962 204 51 127
-0.375896 -0.205119 -0.552791 76 153 0
0.600843 -0.255581 0.413845 153 0 76
0.148405 -0.087754 -0.552791 76 153 0
-0.068657 -0.382020 -0.428311 0 255 0
-0.485733 0.489136 0.031577 76 153 0
-0.492805 0.559588 -0.253954 76 153 0
-0.599471 0.406612 -0.552631 76 0 153
0.478374 0.555646 -0.213241 76 153 0
0.466791 -0.617307 -0.523231 76 153 0
0.516129 0.091871 0.183257 204 51 127
0.287068 0.000342 -0.243826 127 127 0
0.516129 -0.092523 0.155273 0 255 0
-0.599471 0.146256 -0.257434 76 0 153
0.196496 0.489136 -0.301618 76 153 0
0.516129 0.326359 -0.193898 204 51 127
0.516129 0.378859 0.223164 204 51 127
0.482063 0.000408 0.090041 204 51 127
-0.306438 -0.508519 0.295473 153 76 0
-0.569910 0.343727 -0.238772 76 0 153
-0.160836 -0.565962 0.613849 153 76 0
0.358154 0.294527 -0.552791 76 153 0
-0.336505 0.095561 0.613849 204 51 127
-0.537471 -0.507699 -0.361377 0 255 0
0.073183 -0.507699 -0.046178 0 255 0
0.582956 -0.628238 -0.432110 153 0 76
-0.569910 0.212906 -0.463148 204 51 127
-0.493548 -0.089773 -0.428311 0 255 0
-0.431886 -0.508519 -0.068989 153 76 0
-0.056402 0.000408 -0.252620 204 51 127
-0.299672 0.489136 -0.314599 76 153 0
0.465567 0.555646 0.609975 76 153 0
-0.061216 0.261582 -0.552791 76 153 0
0.535265 -0.123997 0.613849 0 255 0
0.231465 0.457392 0.613849 204 51 127
0.516129 -0.315180 -0.200214 0 255 0
-0.189150 -0.507699 -0.263502 0 255 0
-0.220002 0.099349 -0.552791 76 153 0
-0.340483 -0.575029 -0.260535 153 76 0
0.516129 -0.480144 -0.327796 0 255 0
-0.594794 0.568948 0.395777 76 0 153
-0.452124 -0.507699 -0.241230 0 255 0
0.600843 0.116382 0.625226 153 0 76
0.083713 0.555646 -0.209509 76 153 0
0.216383 0.493463 -0.542938 76 153 0
0.448486 0.131717 -0.428311 204 51 127
-0.599471 0.322723 0.571294 76 0 153
0.516129 0.404439 -0.322071 204 51 127
-0.188271 -0.508519 0.493724 153 76 0
0.571283 -0.397985 -0.435338 153 0 76
-0.569910 -0.156020 -0.541498 76 0 153
0.516129 -0.182058 -0.129217 0 255 0
-0.599471 0.442906 -0.366518 76 0 153
-0.306953 -0.507699 0.497392 0 255 0
0.600843 -0.621265 -0.189662 153 0 76
0.516129 0.037324 -0.086218 204 51 127
-0.347948 0.555646 -0.103883 76 153 0
0.059575 0.109471 -0.428311 204 51 127
0.052727 0.559588 0.082257 76 153 0
0.600843 0.111394 -0.014982 153 0 76
0.018713 -0.354367 -0.552791 76 153 0
-0.540313 -0.018971 -0.179793 0 255 0
0.516129 0.391155 -0.043677 204 51 127
0.516129 -0.083316 0.334301 0 255 0
0.571283 0.566356 -0.034350 153 0 76
0.600843 0.098903 0.100223 153 0 76
0.426161 -0.106622 -0.552791 76 153 0
0.109648 0.477345 0.613849 204 51 127
-0.440956 0.559588 0.471558 76 153 0
-0.359658 -0.575029 -0.416138 153 76 0
0.315757 0.000342 0.355848 127 127 0
0.178196 -0.018971 0.310550 127 127 0
0.172666 0.559588 0.403754 76 153 0
0.267600 0.489136 0.518467 76 153 0
0.169894 -0.507699 0.200926 0 255 0
-0.234117 0.489136 0.321123 76 153 0
0.018634 -0.575029 -0.253156 153 76 0
-0.538274 0.489136 -0.087992 204 51 127
0.465909 -0.575029 -0.342998 153 76 0
-0.120440 0.521582 0.613849 76 153 0
0.348535 -0.508519 0.330963 153 76 0
-0.123251 0.559588 -0.324457 76 153 0
-0.599471 -0.514522 -0.247701 76 0 153
-0.234144 0.000408 -0.134014 204 51 127
-0.205502 0.246889 0.646605 153 0 76
-0.222398 -0.196112 -0.428311 0 255 0
-0.389566 -0.575029 0.114527 153 76 0
-0.362353 0.095302 -0.428311 204 51 127
-0.039187 -0.418805 0.574436 0 255 0
0.516129 -0.116299 -0.326928 0 255 0
0.326228 -0.507699 0.142067 0 255 0
0.600843 0.229658 -0.358434 153 0 76
0.485825 -0.417096 0.574436 0 255 0
0.280481 0.489136 -0.402711 76 153 0
0.265689 -0.575029 -0.104141 153 76 0
-0.374277 0.004471 -0.523231 76 153 0
0.600843 -0.542816 0.537047 153 0 76
-0.396042 -0.085148 -0.467725 0 255 0
0.098230 -0.256509 -0.428311 0 255 0
0.032340 -0.214150 0.613849 0 255 0
-0.120582 0.114908 0.574436 204 51 127
0.271213 0.057932 -0.467725 204 51 127
-0.599471 0.436825 0.051385 76 0 153
-0.479824 0.270157 0.613849 204 51 127
0.600843 0.559963 0.172201 153 0 76
-0.099789 0.559588 0.365803 76 153 0
-0.530497 0.117893 0.246060 204 51 127
0.495016 0.489136 0.115197 76 153 0
0.330649 -0.575029 -0.315175 153 76 0
0.361465 0.559588 0.374924 76 153 0
-0.530497 -0.101231 -0.331368 0 255 0
0.016245 0.000408 0.371909 204 51 127
-0.287814 -0.575029 0.080435 153 76 0
0.035211 -0.056248 -0.428311 0 255 0
-0.106654 -0.215770 0.574436 0 255 0
0.087799 0.337031 -0.523231 76 153 0
0.444873 0.208495 0.574436 204 51 127
0.394517 0.498620 -0.552791 76 153 0
0.600843 -0.281682 -0.491941 153 0 76
0.005465 -0.553273 -0.552791 76 153 0
0.548999 -0.053332 -0.467725 0 255 0
-0.530497 -0.260886 -0.203066 0 255 0
0.516129 -0.462063 0.165446 0 255 0
0.317164 -0.320624 0.574436 0 255 0
0.148498 -0.421451 -0.552791 76 153 0
-0.243860 -0.467874 0.613849 0 255 0
0.208157 -0.228411 0.574436 0 255 0
0.361732 -0.366430 -0.552791 76 153 0
-0.493923 -0.575029 0.418912 153 76 0
0.070640 0.559588 0.418317 76 153 0
0.249951 -0.406034 -0.467725 0 255 0
-0.336990 -0.018971 0.329708 127 127 0
-0.386083 0.489136 -0.188280 76 153 0
-0.403368 0.440214 -0.552791 76 153 0
0.571283 0.482221 -0.275852 153 0 76
0.486522 0.246903 -0.552791 76 153 0
0.506776 0.000408 0.271015 204 51 127
-0.377765 0.000408 0.572926 204 51 127
-0.569910 -0.287825 -0.414165 0 255 0
0.441127 0.000342 -0.338889 127 127 0
0.020616 0.550598 -0.542938 76 153 0
0.492465 0.489136 0.282385 76 153 0
-0.207982 0.489136 -0.369644 76 153 0
0.076681 -0.481944 -0.428311 0 255 0
-0.132393 0.000408 0.077612 204 51 127
0.468883 -0.199361 -0.552791 76 153 0
-0.584471 -0.628238 0.621285 76 0 153
-0.328876 0.555646 0.022436 76 153 0
0.377403 0.559588 -0.390418 76 153 0
0.171494 0.559588 0.154458 76 153 0
0.023731 0.000408 0.127883 204 51 127
-0.391363 -0.360706 0.613849 0 255 0
0.394214 -0.249589 0.574436 0 255 0
-0.487690 0.489136 0.176731 76 153 0
-0.599471 0.001204 -0.334921 76 0 153
0.600843 0.336848 0.427775 153 0 76
-0.494793 -0.240567 -0.552791 76 153 0
0.159724 0.240341 -0.523231 76 153 0
-0.599471 -0.236675 0.439206 76 0 153
0.571283 0.567673 0.299060 153 0 76
-0.262685 -0.102914 0.613849 0 255 0
0.131568 -0.529746 -0.542938 153 76 0
0.516129 0.218005 0.162464 204 51 127
0.555543 -0.349151 0.539171 0 255 0
-0.599471 -0.435619 -0.165901 76 0 153
-0.599471 -0.151227 -0.039317 76 0 153
0.379087 0.559588 -0.044461 76 153 0
-0.530497 0.146470 0.074308 204 51 127
0.432369 -0.320668 -0.428311 0 255 0
-0.071714 0.451266 -0.552791 76 153 0
0.516129 0.067987 -0.332052 204 51 127
0.438748 -0.054744 -0.467725 0 255 0
0.318740 -0.121253 -0.552791 76 153 0
-0.367393 0.188339 -0.552791 76 153 0
-0.092301 -0.575029 -0.420206 153 76 0
-0.320519 0.559588 0.475693 76 153 0
-0.064373 0.000342 -0.095806 127 127 0
-0.520470 -0.542328 -0.542938 153 76 0
-0.254498 -0.361111 -0.467725 0 255 0
-0.135108 0.142293 -0.467725 204 51 127
0.118547 0.000408 -0.176602 204 51 127
-0.218180 0.000408 -0.263485 204 51 127
-0.599471 0.388500 -0.061418 76 0 153
-0.495318 0.489734 -0.542938 76 153 0
0.507968 -0.408409 -0.552791 76 153 0
-0.162607 -0.317351 0.574436 0 255 0
0.366682 -0.439120 -0.428311 0 255 0
0.164462 -0.508519 0.550442 153 76 0
-0.184133 0.285190 -0.552791 76 153 0
0.278723 0.125399 0.613849 204 51 127
0.476942 -0.203881 0.613849 0 255 0
0.271023 -0.507699 -0.268744 0 255 0
0.600843 -0.465380 -0.033531 153 0 76
0.600843 -0.373939 -0.221419 153 0 76
0.516129 0.269742 0.000016 204 51 127
-0.530497 0.154466 -0.161636 204 51 127
0.600843 -0.156668 0.510701 153 0 76
0.168001 -0.508519 0.077386 153 76 0
0.600843 -0.518260 0.131248 153 0 76
0.501388 -0.039353 -0.552791 76 153 0
0.023591 -0.507699 0.214174 0 255 0
0.600843 -0.035660 0.462876 153 0 76
-0.505209 -0.575029 -0.079793 153 76 0
-0.014897 0.489136 0.224121 76 153 0
-0.314496 0.528747 0.613849 76 153 0
-0.272836 -0.507699 -0.450897 0 255 0
0.592986 -0.514814 -0.150376 153 76 0
0.363366 0.559588 0.517771 76 153 0
-0.080568 -0.078208 -0.552791 76 153 0
-0.390837 -0.557642 -0.542938 153 76 0
0.600843 0.020748 0.545857 153 0 76
-0.059803 0.163831 -0.552791 76 153 0
-0.161427 0.358056 -0.428311 204 51 127
0.246659 0.391565 -0.428311 204 51 127
0.380501 0.555646 -0.280323 76 153 0
-0.025756 -0.018971 0.592338 0 255 0
0.500252 -0.575029 -0.434267 153 76 0
-0.530497 0.137155 0.546470 204 51 127
-0.569910 -0.021640 0.517429 76 0 153
0.600843 0.096023 0.373975 153 0 76
0.517348 0.478928 -0.552791 76 153 0
0.571283 0.421432 0.040251 153 0 76
0.516129 0.068975 0.519060 204 51 127
-0.599471 -0.386952 0.271354 76 0 153
0.516129 -0.241682 0.215650 0 255 0
0.160289 -0.508519 -0.350267 153 76 0
-0.399345 -0.508519 0.559552 153 76 0
-0.123083 -0.507699 0.019300 0 255 0
0.600843 0.402369 0.305101 153 0 76
-0.530497 0.385521 0.395240 204 51 127
-0.530497 -0.239620 0.300411 0 255 0
0.110298 0.031628 -0.523231 76 153 0
-0.128706 -0.536868 -0.552791 76 153 0
0.287447 0.559588 0.304934 76 153 0
-0.599471 0.351484 0.327330 76 0 153
-0.036806 0.555646 -0.025364 76 153 0
0.491085 -0.575029 0.200345 153 76 0
0.129497 0.559588 -0.370796 76 153 0
0.500441 0.309528 -0.467725 204 51 127
0.060837 -0.121642 0.613849 0 255 0
-0.522659 -0.420716 -0.467725 0 255 0
-0.599471 0.345811 -0.442801 76 0 153
-0.437460 -0.018971 0.394201 127 127 0
0.118551 0.448834 -0.523231 76 153 0
-0.262099 -0.507699 0.016848 0 255 0
-0.599471 0.209881 0.431825 76 0 153
-0.459878 0.555646 -0.044514 76 153 0
-0.173023 0.510326 -0.552791 76 153 0
-0.144140 -0.242964 -0.523231 76 153 0
0.600843 0.465654 0.580879 153 0 76
0.600843 0.191210 0.302622 153 0 76
0.431387 0.087666 -0.552791 76 153 0
-0.160149 -0.058957 -0.428311 0 255 0
-0.249556 -0.153805 -0.523231 76 153 0
0.065228 0.069631 0.574436 204 51 127
0.265876 -0.575029 0.452935 153 76 0
0.177341 -0.240426 -0.523231 76 153 0
-0.512655 -0.575029 -0.285462 153 76 0
0.240112 -0.454167 -0.552791 76 153 0
-0.504733 0.000408 -0.349881 204 51 127
0.261800 0.559588 -0.113214 76 153 0
0.412686 -0.575029 0.494075 153 76 0
-0.530497 0.474505 -0.187401 204 51 127
0.516129 0.487302 -0.021750 204 51 127
0.294530 -0.471443 0.613849 0 255 0
0.339647 -0.575029 -0.044347 153 76 0
0.600843 0.484417 -0.176398 153 0 76
0.410533 -0.508519 -0.477088 153 76 0
0.405665 0.559588 0.082605 76 153 0
-0.505482 0.000342 0.045256 127 127 0
-0.250176 -0.575029 -0.291182 153 76 0
-0.181227 -0.575029 0.395963 153 76 0
0.600843 -0.104521 -0.535036 153 0 76
0.600843 -0.163940 -0.171348 153 0 76
0.600843 0.333509 -0.311380 153 0 76
0.516129 -0.354975 -0.368169 0 255 0
0.064799 0.489136 -0.144700 76 153 0
0.600843 -0.509904 0.625806 153 0 76
-0.297128 0.555646 -0.212872 76 153 0
-0.509983 -0.575029 0.231434 153 76 0
-0.573766 -0.427941 0.629615 76 0 153
0.426470 0.555646 0.269979 76 153 0
-0.104926 0.000408 0.520371 204 51 127
0.512566 -0.486795 -0.467725 0 255 0
-0.589420 -0.356489 -0.533323 76 153 0
-0.530497 0.228060 -0.354641 204 51 127
0.516129 0.232098 -0.172599 204 51 127
-0.533900 0.489136 0.261550 76 153 0
0.430032 0.489136 -0.164215 76 153 0
-0.257929 -0.558644 -0.552791 76 153 0
-0.216228 -0.507699 0.175479 0 255 0
0.226698 0.559588 -0.458741 76 153 0
-0.538765 -0.018971 0.308022 0 255 0
-0.009273 0.559588 -0.224042 76 153 0
0.516129 0.160120 -0.351618 204 51 127
0.120005 -0.575029 0.272200 153 76 0
0.516129 0.091190 0.425806 204 51 127
0.600843 0.065803 -0.492574 153 0 76
0.077798 -0.508519 -0.169464 153 76 0
-0.184705 -0.628238 -0.550321 76 153 0
-0.569910 0.290643 -0.019355 76 0 153
-0.599471 -0.048108 0.069629 76 0 153
-0.355884 -0.575029 0.400240 153 76 0
-0.349483 -0.177382 -0.467725 0 255 0
0.262214 -0.508519 0.377037 153 76 0
-0.599471 0.049988 0.419647 76 0 153
-0.478914 -0.447163 -0.552791 76 153 0
0.035873 -0.507699 0.605583 0 255 0
0.516129 -0.358395 0.289947 0 255 0
-0.415543 -0.427698 -0.467725 0 255 0
0.571283 -0.050138 -0.053872 153 0 76
0.388316 -0.575029 0.171378 153 76 0
-0.427139 0.363864 0.574436 204 51 127
0.532386 -0.286294 0.613849 0 255 0
0.259562 0.312271 -0.523231 76 153 0
0.486031 0.000408 -0.202637 204 51 127
0.232665 0.220191 -0.428311 204 51 127
0.125795 0.559588 0.533033 76 153 0
0.600843 -0.190228 0.348122 153 0 76
0.010098 -0.575029 -0.037954 153 76 0
-0.530497 0.060789 0.354352 204 51 127
-0.423341 0.559588 0.361904 76 153 0
-0.311579 0.194684 -0.467725 204 51 127
-0.530497 0.372370 -0.373361 204 51 127
-0.024689 0.218216 0.574436 204 51 127
-0.375827 -0.018971 -0.139988 127 127 0
-0.312366 -0.018971 -0.439401 127 127 0
0.153227 -0.575029 -0.200696 153 76 0
0.439031 -0.219045 -0.467725 0 255 0
-0.599471 -0.490777 0.333243 76 0 153
-0.530497 -0.091889 -0.093774 0 255 0
-0.409343 0.559588 -0.443021 76 153 0
0.327609 -0.234225 -0.428311 0 255 0
0.538685 0.045597 0.613849 204 51 127
0.215563 0.305383 0.613849 204 51 127
0.178809 -0.034459 0.613849 0 255 0
-0.031491 -0.274880 -0.428311 0 255 0
-0.499270 0.347717 -0.552791 76 153 0
-0.124436 -0.575029 0.287762 153 76 0
-0.599471 -0.217254 0.080795 76 0 153
0.600843 0.117949 -0.203574 153 0 76
0.325116 -0.575029 0.052169 153 76 0
-0.036569 0.489136 0.499959 76 153 0
0.492742 -0.507699 0.017553 0 255 0
0.038638 0.464438 -0.467725 204 51 127
0.600843 0.201584 -0.104921 153 0 76
0.398412 0.333187 -0.428311 204 51 127
-0.599471 -0.283039 0.194473 76 0 153
-0.005199 0.555646 0.345106 76 153 0
-0.487355 -0.575029 0.119068 153 76 0
-0.246150 0.000408 0.004850 204 51 127
0.600843 0.382080 0.544467 153 0 76
0.571283 -0.502398 0.460915 153 0 76
-0.087107 0.219724 -0.467725 204 51 127
-0.406811 -0.018971 -0.016941 127 127 0
-0.119352 0.489136 0.428836 76 153 0
0.516129 -0.274265 -0.302527 0 255 0
-0.569910 0.173442 -0.545551 76 0 153
-0.180681 0.489136 0.202662 76 153 0
-0.165789 0.489136 -0.226379 76 153 0
-0.138823 -0.506608 -0.467725 0 255 0
-0.244809 -0.012192 -0.552791 76 153 0
-0.139176 0.049465 -0.467725 204 51 127
0.600843 -0.118277 0.186331 153 0 76
-0.123668 -0.507699 -0.142001 0 255 0
0.386665 0.559588 -0.480650 76 153 0
0.424057 -0.426068 -0.523231 76 153 0
0.066789 -0.507699 0.093495 0 255 0
0.191727 -0.575029 -0.466027 153 76 0
0.600843 -0.365714 -0.028536 153 0 76
-0.254109 0.489136 -0.461618 204 51 127
-0.530497 -0.201339 0.485997 0 255 0
0.031634 -0.018971 -0.260266 127 127 0
0.062055 0.554118 0.613849 76 153 0
-0.356611 -0.507699 -0.136266 0 255 0
0.435110 -0.508519 0.132271 153 76 0
0.554567 0.555646 -0.140418 76 153 0
-0.261870 -0.575029 0.337068 153 76 0
-0.099951 0.489136 -0.161183 76 153 0
0.516129 -0.347660 0.053831 0 255 0
0.325601 -0.018971 -0.031580 127 127 0
-0.307766 -0.270413 0.574436 0 255 0
0.344839 -0.070243 -0.467725 0 255 0
0.516129 -0.126323 0.513843 0 255 0
-0.599471 -0.505854 0.450043 76 0 153
0.256462 -0.153703 -0.428311 0 255 0
0.192976 -0.507699 -0.089859 0 255 0
0.555543 0.147485 0.545630 204 51 127
0.516129 0.074410 0.048895 204 51 127
-0.168000 0.000408 0.290608 204 51 127
0.060969 -0.575029 -0.474026 153 76 0
0.571283 0.056907 0.245106 153 0 76
0.522721 -0.507699 0.272827 0 255 0
0.516129 -0.169838 0.092762 0 255 0
-0.599471 -0.249462 -0.041496 76 0 153
0.213116 0.137556 -0.523231 76 153 0
0.346681 0.489136 -0.342420 76 153 0
-0.349342 0.489136 0.100431 76 153 0
-0.187369 0.555646 0.529518 76 153 0
-0.530497 0.038534 -0.066481 204 51 127
-0.265985 0.000342 0.513692 127 127 0
-0.015624 0.360061 -0.523231 76 153 0
0.365058 0.350758 0.613849 204 51 127
-0.599471 0.012656 -0.451050 76 0 153
0.004499 -0.508519 0.410449 153 76 0
-0.234630 0.555646 -0.105367 76 153 0
-0.530497 -0.301799 0.054410 0 255 0
0.516129 -0.240183 -0.040145 0 255 0
0.600843 -0.440750 0.299766 153 0 76
-0.195580 0.022225 0.574436 204 51 127
-0.530497 -0.415718 0.185185 0 255 0
0.126936 0.263427 0.647465 153 0 76
0.359180 -0.038824 0.613849 0 255 0
0.520565 0.329222 -0.552791 76 153 0
-0.314911 0.193737 0.574436 204 51 127
-0.569910 0.280977 0.234204 204 51 127
0.533443 0.489136 -0.465842 204 51 127
-0.391987 0.489136 0.515138 76 153 0
0.136859 -0.354461 0.574436 0 255 0
-0.399202 -0.271935 -0.428311 0 255 0
-0.108601 -0.507699 -0.300906 0 255 0
0.100485 -0.508519 0.409324 153 76 0
-0.599471 -0.207041 0.347734 76 0 153
0.004949 0.555646 0.165849 76 153 0
0.013732 0.489136 -0.380245 76 153 0
0.518514 0.559588 -0.305121 76 153 0
-0.530497 0.163504 0.323110 204 51 127
0.600843 -0.248840 -0.250132 153 0 76
0.432757 -0.508519 -0.391234 153 76 0
0.571283 -0.172724 -0.000461 153 0 76
-0.488508 -0.010665 -0.467725 127 127 0
0.600843 -0.391482 0.150110 153 0 76
-0.313655 0.000342 0.131214 127 127 0
0.516129 0.156889 -0.015555 204 51 127
-0.098907 0.224456 0.657147 153 0 76
-0.569910 0.124727 -0.466836 204 51 127
0.444012 -0.508519 -0.124853 153 76 0
-0.530497 -0.376826 -0.132564 0 255 0
0.571283 -0.195544 -0.418857 153 0 76
0.600843 -0.238301 0.081148 153 0 76
0.600843 -0.536629 -0.333029 153 0 76
-0.530497 0.273653 0.071960 204 51 127
0.435999 -0.507699 0.406256 0 255 0
-0.477629 -0.315305 0.613849 0 255 0
-0.599471 -0.542868 0.541795 76 0 153
0.555543 -0.342623 -0.121660 0 255 0
0.300673 -0.545681 -0.542938 153 76 0
0.075307 0.000408 0.473604 204 51 127
0.139733 0.489136 0.236879 76 153 0
0.600843 -0.069618 0.543984 153 0 76
0.235827 0.559588 -0.010867 76 153 0
0.600843 -0.032170 -0.207334 153 0 76
0.195180 0.077393 -0.428311 204 51 127
-0.046973 -0.018971 0.071460 127 127 0
-0.530497 -0.441152 -0.007096 0 255 0
0.600843 0.336359 -0.018054 153 0 76
0.555543 0.304006 0.556331 204 51 127
0.571283 -0.349451 0.373924 153 0 76
-0.530497 -0.402112 -0.368327 0 255 0
-0.491746 -0.575029 -0.407369 153 76 0
-0.096672 0.555646 -0.104212 76 153 0
0.555543 0.328439 0.158890 204 51 127
-0.214259 -0.507699 -0.376720 0 255 0
0.516129 0.450307 0.436559 204 51 127
-0.599471 0.147241 0.008540 76 0 153
0.315729 0.489136 0.403264 76 153 0
-0.379010 0.559588 -0.355358 76 153 0
0.592083 0.176428 -0.523231 76 153 0
0.600843 -0.100020 0.320859 153 0 76
0.600843 -0.355318 0.464720 153 0 76
-0.500898 0.555646 -0.340842 76 153 0
-0.569910 0.491326 -0.473930 76 0 153
0.555543 0.210055 -0.286422 204 51 127
0.150119 0.489136 -0.216209 76 153 0
-0.599471 0.382971 0.211849 76 0 153
0.008788 -0.425923 -0.428311 0 255 0
-0.448343 -0.575029 0.309042 153 76 0
0.386548 -0.507699 -0.200136 0 255 0
0.370024 -0.018971 0.243827 127 127 0
-0.599471 -0.040131 0.181157 76 0 153
0.110727 -0.202461 0.574436 0 255 0
-0.530497 -0.136800 0.312092 0 255 0
0.007955 -0.287978 0.653202 255 0 0
-0.530497 -0.337516 0.453631 0 255 0
0.600843 0.354697 -0.505680 153 0 76
0.600843 0.401623 -0.149516 153 0 76
-0.243469 -0.575029 0.483698 153 76 0
0.141969 -0.334694 -0.552791 76 153 0
0.600843 0.172889 0.453802 153 0 76
0.151823 0.371458 -0.467725 204 51 127
-0.431165 0.559588 0.188605 76 153 0
0.598957 0.568948 0.509732 153 0 76
-0.050814 0.555646 0.267870 76 153 0
-0.577826 -0.628238 0.143124 76 0 153
0.343901 -0.018971 -0.350950 127 127 0
-0.415464 0.480085 0.613849 204 51 127
0.394481 -0.556585 -0.552791 76 153 0
0.490400 0.559588 0.018592 76 153 0
-0.094994 -0.575029 0.087243 153 76 0
-0.463470 -0.487424 0.613849 0 255 0
0.412787 -0.508519 -0.030922 153 76 0
0.298788 0.000342 0.504794 127 127 0
-0.599471 0.262199 -0.188078 76 0 153
0.516129 -0.415145 0.493407 0 255 0
-0.387264 0.489136 0.301773 76 153 0
-0.384940 -0.507699 -0.299347 0 255 0
-0.088988 -0.575029 0.551067 153 76 0
0.516129 -0.422841 -0.014461 0 255 0
0.147197 0.555646 -0.277151 76 153 0
0.430841 0.489136 0.215139 76 153 0
-0.479401 -0.080634 0.613849 0 255 0
-0.599471 0.028198 -0.236041 76 0 153
-0.130332 -0.018971 -0.292188 127 127 0
0.555543 -0.073154 0.244531 0 255 0
-0.504615 0.187782 0.613849 204 51 127
-0.530497 -0.490450 -0.202348 0 255 0
-0.254003 0.489136 0.071869 76 153 0
-0.534907 -0.507699 0.050022 0 255 0
-0.430251 0.464368 -0.467725 204 51 127
-0.096747 -0.018971 0.431764 127 127 0
-0.287012 0.489136 0.174304 76 153 0
0.262681 -0.507699 0.078722 0 255 0
0.117810 0.489136 0.067163 76 153 0
-0.530497 -0.378039 0.358924 0 255 0
-0.530497 -0.102131 -0.197977 0 255 0
0.600843 -0.238494 0.271205 153 0 76
0.080752 -0.018971 -0.347862 127 127 0
-0.119923 -0.575029 0.170035 153 76 0
-0.061467 0.489136 -0.339459 76 153 0
0.210914 0.054038 0.613849 204 51 127
0.600843 0.290453 0.324138 153 0 76
-0.530497 -0.473577 0.402366 0 255 0
-0.464172 0.489136 -0.294552 76 153 0
-0.599471 0.316965 0.483814 76 0 153
-0.149142 0.315739 0.574436 204 51 127
-0.046694 0.555646 0.578350 76 153 0
0.499836 0.260310 0.613849 204 51 127
0.600843 -0.322867 -0.408345 153 0 76
0.076107 -0.018971 0.311566 127 127 0
-0.161840 0.555646 0.293297 76 153 0
-0.569910 -0.375990 -0.232239 76 0 153
0.600843 0.051288 -0.272973 153 0 76
-0.352039 -0.575029 -0.032984 153 76 0
0.516129 0.146413 0.251114 204 51 127
-0.599471 0.452101 -0.236421 76 0 153
0.220360 -0.312590 0.574436 0 255 0
0.474088 -0.508519 -0.223217 153 76 0
-0.530497 -0.134437 0.072854 0 255 0
0.209934 0.555646 0.523773 76 153 0
-0.252129 0.489136 -0.055931 76 153 0
-0.589420 0.498530 0.442410 76 153 0
-0.036449 -0.119204 -0.428311 0 255 0
-0.418064 -0.508519 -0.384567 153 76 0
-0.023998 0.555646 -0.471251 76 153 0
0.358246 0.088849 -0.467725 204 51 127
-0.200822 -0.575029 0.120829 153 76 0
-0.341244 0.545439 -0.542938 76 153 0
-0.501868 0.000408 0.229870 204 51 127
0.536952 -0.575029 -0.101002 153 76 0
-0.569910 -0.222716 0.561218 0 255 0
0.600843 0.110104 -0.410401 153 0 76
-0.093575 -0.018971 -0.372464 127 127 0
0.278068 -0.018971 -0.101152 127 127 0
-0.281004 -0.314945 -0.552791 76 153 0
0.281018 0.559588 0.125998 76 153 0
-0.378899 -0.353642 -0.428311 0 255 0
0.571283 -0.266586 0.505224 153 0 76
-0.530497 -0.307110 -0.273353 0 255 0
0.492830 0.000342 -0.014355 127 127 0
-0.537997 0.555646 0.335185 76 153 0
-0.599471 0.175088 0.516866 76 0 153
-0.599471 0.521228 0.077378 76 0 153
0.040622 0.489136 0.463830 76 153 0
0.020823 -0.575029 0.292905 153 76 0
-0.599471 -0.442571 -0.076197 76 0 153
0.211662 0.000408 -0.287221 204 51 127
-0.046475 0.006995 -0.552791 76 153 0
0.164224 -0.575029 0.499381 153 76 0
-0.538374 0.559588 0.587191 76 153 0
-0.138494 -0.148618 -0.523231 76 153 0
-0.145208 0.489136 0.031263 76 153 0
0.255255 0.489136 0.218256 76 153 0
-0.554084 -0.507699 0.147942 0 255 0
-0.599471 -0.158636 -0.322400 76 0 153
0.446650 0.559588 0.458345 76 153 0
0.516129 -0.062507 -0.390996 0 255 0
0.188984 -0.018971 0.227511 127 127 0
-0.526745 0.559588 -0.509471 76 153 0
0.036129 0.313024 0.613849 204 51 127
0.523868 -0.268848 -0.523231 76 153 0
-0.053311 -0.507699 -0.026554 0 255 0
-0.530497 0.429802 0.112105 204 51 127
0.253278 -0.507699 0.202690 0 255 0
-0.490539 0.003908 -0.552791 76 153 0
0.144383 -0.508519 -0.002830 153 76 0
0.080635 0.399203 0.613849 204 51 127
0.212781 0.559588 -0.373877 76 153 0
-0.350003 -0.575029 0.568741 153 76 0
-0.158368 -0.508519 0.250804 153 76 0
-0.000636 -0.267412 -0.523231 76 153 0
0.333123 0.387214 -0.428311 204 51 127
-0.408531 0.000342 -0.325957 127 127 0
0.026742 -0.575029 0.554264 153 76 0
-0.599471 0.332412 0.046295 76 0 153
-0.517389 -0.177498 -0.428311 0 255 0
-0.530497 0.083304 0.476927 204 51 127
-0.399366 0.261172 -0.467725 204 51 127
0.241774 -0.018971 0.081278 127 127 0
0.600843 -0.626043 0.391501 153 0 76
-0.304037 -0.575029 0.225512 153 76 0
-0.494710 -0.575029 -0.174110 153 76 0
-0.473051 -0.575029 0.502654 153 76 0
0.516129 0.308513 0.297531 204 51 127
-0.599471 -0.466713 -0.315348 76 0 153
0.143972 0.555646 -0.457060 76 153 0
0.481555 0.393790 0.613849 204 51 127
-0.089143 -0.348039 0.613849 0 255 0
0.183574 -0.459052 0.613849 0 255 0
-0.387224 0.559588 0.258583 76 153 0
0.333265 0.439166 0.613849 204 51 127
-0.530497 -0.101896 0.552577 0 255 0
-0.062691 0.489136 0.033341 76 153 0
0.346269 -0.507699 -0.360223 0 255 0
-0.530497 0.471944 -0.404107 204 51 127
0.147616 0.555646 0.319265 76 153 0
-0.331379 0.330519 -0.523231 76 153 0
0.108241 -0.575029 -0.305377 153 76 0
-0.530497 0.137150 -0.333485 204 51 127
0.141522 -0.507699 0.322341 0 255 0
0.250236 0.555646 -0.240659 76 153 0
-0.034896 -0.260827 0.574436 0 255 0
-0.599471 -0.619830 0.044544 76 0 153
0.399797 0.000342 0.092026 127 127 0
0.600843 0.183832 0.072723 153 0 76
-0.450526 0.118646 0.574436 204 51 127
-0.420903 -0.507699 0.075643 0 255 0
-0.227779 -0.278944 -0.428311 0 255 0
0.211760 0.000342 -0.452001 127 127 0
0.380972 -0.508519 0.530253 153 76 0
-0.484002 0.489136 0.491760 76 153 0
0.555543 -0.050127 0.097133 0 255 0
0.106649 0.489136 -0.046972 76 153 0
0.576554 -0.575029 0.192949 153 76 0
-0.589420 -0.532304 -0.161518 153 76 0
-0.034608 0.417250 -0.467725 204 51 127
-0.080402 0.460439 0.574436 204 51 127
-0.569910 -0.478033 -0.431685 0 255 0
0.600843 0.391375 0.209935 153 0 76
-0.508083 -0.286719 -0.467725 0 255 0
0.600843 0.532424 -0.414538 153 0 76
-0.530497 0.227862 -0.125693 204 51 127
0.390825 0.194210 -0.467725 204 51 127
-0.476617 0.099853 -0.467725 204 51 127
-0.274824 0.555646 0.408129 76 153 0
-0.599471 0.083693 -0.372711 76 0 153
-0.161344 0.559588 0.156128 76 153 0
0.168036 -0.018971 -0.367484 127 127 0
-0.599471 0.207983 0.137914 76 0 153
-0.260070 -0.575029 -0.374599 153 76 0
-0.599471 -0.288889 0.275716 76 0 153
0.101609 -0.018971 0.141441 127 127 0
-0.152259 -0.008587 -0.523231 76 153 0
-0.569910 0.426231 0.572243 204 51 127
-0.427123 -0.507699 0.262671 0 255 0
0.516129 -0.161657 0.356127 0 255 0
-0.508565 -0.018971 -0.262851 127 127 0
-0.213594 0.559588 0.067872 76 153 0
-0.599471 0.035663 0.105170 76 0 153
0.516129 0.258896 -0.084117 204 51 127
0.219732 0.489136 -0.124842 76 153 0
-0.599471 -0.555719 0.284619 76 0 153
-0.160397 0.555646 -0.054059 76 153 0
0.195457 -0.575029 0.238130 153 76 0
0.065870 -0.508519 -0.352575 153 76 0
-0.599471 0.433646 0.274982 76 0 153
-0.530497 -0.092585 0.153451 0 255 0
0.323893 -0.575029 0.551522 153 76 0
0.516129 -0.083851 0.415138 0 255 0
0.534611 0.489136 0.204954 76 153 0
-0.372076 -0.508519 -0.460305 153 76 0
-0.349473 0.555646 0.166359 76 153 0
0.087812 0.559588 0.197486 76 153 0
-0.303566 0.489136 0.277648 76 153 0
0.600843 0.444002 -0.473685 153 0 76
-0.563009 -0.575029 0.470009 153 76 0
0.032296 0.489136 0.304358 76 153 0
-0.599471 0.563228 0.157238 76 0 153
-0.530497 -0.356543 0.118011 0 255 0
0.503741 -0.575029 0.446477 153 76 0
0.211535 0.559588 0.081806 76 153 0
-0.103295 -0.507699 0.506041 0 255 0
-0.121837 0.555646 -0.240314 76 153 0
0.004303 -0.575029 -0.122023 153 76 0
0.484534 -0.075964 0.574436 0 255 0
-0.173926 -0.495991 0.574436 0 255 0
0.516129 -0.113799 -0.086512 0 255 0
0.447320 -0.507699 0.302886 0 255 0
0.100602 0.196456 -0.467725 204 51 127
-0.424912 -0.266326 -0.523231 76 153 0
-0.019438 -0.575029 -0.386994 153 76 0
0.505078 -0.120128 -0.552791 76 153 0
0.328215 0.489136 -0.144681 76 153 0
-0.051801 0.047122 -0.467725 204 51 127
0.366372 -0.188221 -0.552791 76 153 0
-0.518382 0.559588 0.441092 76 153 0
0.516129 -0.405567 -0.151307 0 255 0
0.516129 0.071546 -0.182042 204 51 127
-0.569910 0.188953 0.212491 204 51 127
0.481584 0.192684 -0.467725 204 51 127
-0.410679 0.276461 0.574436 204 51 127
0.394179 0.555646 0.190899 76 153 0
0.200893 0.000342 -0.072149 127 127 0
0.529310 0.489136 -0.343259 76 153 0
0.526808 0.000342 0.193908 127 127 0
-0.460213 -0.508519 -0.147608 153 76 0
0.032020 0.303890 -0.467725 204 51 127
-0.230704 -0.080584 -0.467725 0 255 0
0.093040 0.489136 -0.377884 76 153 0
-0.530497 -0.155734 -0.260756 0 255 0
-0.530497 0.323720 0.532258 204 51 127
-0.530497 0.092743 0.164117 204 51 127
0.411098 0.489136 -0.061420 76 153 0
-0.064217 -0.575029 -0.168956 153 76 0
0.600843 -0.456455 -0.479741 153 0 76
0.035573 0.167825 -0.552791 76 153 0
-0.014380 -0.575029 0.451461 153 76 0
-0.599471 -0.343608 0.574710 76 0 153
0.074146 -0.575029 0.375771 153 76 0
-0.105619 -0.454714 0.613849 0 255 0
-0.599471 -0.195177 0.175088 76 0 153
0.516129 0.484858 -0.219444 204 51 127
-0.570190 0.568948 -0.080178 76 0 153
0.034685 0.000342 0.545291 127 127 0
-0.161222 0.489136 0.362052 76 153 0
-0.071017 0.555646 -0.391613 76 153 0
0.121241 -0.058996 -0.467725 0 255 0
0.462691 -0.018971 -0.098946 127 127 0
-0.530497 0.234053 0.381984 204 51 127
-0.447358 0.559588 0.035992 76 153 0
0.484746 0.479486 0.613849 204 51 127
0.244244 -0.575029 0.328808 153 76 0
0.000922 -0.628238 -0.529686 76 153 0
0.318624 0.479381 -0.523231 76 153 0
0.516129 0.408780 0.120240 204 51 127
0.516129 0.257759 0.077575 204 51 127
0.501288 -0.575029 0.562381 153 76 0
-0.589420 -0.550583 0.203325 153 76 0
0.115448 -0.499271 0.613849 0 255 0
0.600843 -0.445634 -0.331569 153 0 76
0.100183 0.163006 0.613849 204 51 127
-0.530497 0.322781 -0.312657 204 51 127
0.466601 -0.575029 -0.263925 153 76 0
-0.311089 -0.507699 0.608404 0 255 0
-0.022656 -0.508519 -0.253357 153 76 0
0.072749 0.555646 -0.007370 76 153 0
0.329638 -0.508519 -0.004306 153 76 0
0.516129 -0.137813 -0.203976 0 255 0
-0.530497 -0.422413 0.281597 0 255 0
0.295176 -0.018971 -0.431146 127 127 0
-0.530497 -0.248941 0.210928 0 255 0
-0.118047 -0.507699 0.429248 0 255 0
-0.530497 -0.168693 0.212262 0 255 0
-0.250322 0.489136 -0.254131 76 153 0
-0.310500 0.000342 0.048940 127 127 0
-0.447469 -0.018971 0.135688 127 127 0
0.116163 -0.427535 -0.467725 0 255 0
0.360826 0.489136 0.070528 76 153 0
-0.195276 0.086516 -0.428311 204 51 127
-0.589420 -0.549441 -0.321024 153 76 0
0.571283 -0.170088 -0.304998 153 0 76
0.231859 -0.302676 -0.467725 0 255 0
0.297371 0.281973 0.574436 204 51 127
0.066228 -0.508519 0.533969 153 76 0
-0.056249 -0.507699 0.310402 0 255 0
0.592986 -0.574258 -0.487146 153 76 0
-0.492525 -0.018971 0.568374 127 127 0
0.170484 0.000342 0.028132 127 127 0
-0.449653 0.489136 0.108981 76 153 0
-0.517168 0.555646 0.220265 76 153 0
0.411927 -0.575029 -0.101062 153 76 0
-0.009060 0.555646 0.441363 76 153 0
-0.309383 -0.231810 -0.523231 76 153 0
-0.530497 -0.469892 0.567377 0 255 0
-0.569910 0.467668 -0.020701 204 51 127
-0.110314 0.401189 -0.467725 204 51 127
-0.599471 0.037032 0.187033 76 0 153
-0.259043 0.333997 -0.428311 204 51 127
0.457464 0.489136 -0.380337 76 153 0
-0.098398 -0.453856 -0.428311 0 255 0
-0.599471 0.133470 -0.076778 76 0 153
0.399779 -0.478432 0.613849 0 255 0
-0.342782 0.384558 -0.467725 204 51 127
-0.530497 -0.112337 0.452032 0 255 0
0.437963 0.000408 0.407924 204 51 127
-0.229999 -0.160633 0.574436 0 255 0
0.600843 -0.048708 -0.335002 153 0 76
-0.035125 0.489136 -0.105006 76 153 0
-0.137660 -0.507699 -0.385018 0 255 0
0.439234 0.078562 0.574436 204 51 127
-0.599471 0.253735 0.344108 76 0 153
-0.449475 0.489136 -0.112480 76 153 0
0.120850 0.083842 -0.467725 204 51 127
-0.223962 0.196510 -0.467725 204 51 127
-0.048996 0.068452 0.574436 204 51 127
0.571283 0.089632 -0.097400 153 0 76
-0.569910 -0.612305 -0.479854 76 0 153
0.123029 -0.171026 -0.552791 76 153 0
0.600843 -0.011590 0.387183 153 0 76
-0.426188 -0.575029 0.188083 153 76 0
-0.282064 0.555646 0.549754 76 153 0
-0.530497 0.121365 -0.234949 204 51 127
-0.599471 -0.538750 -0.541066 76 0 153
-0.328578 -0.503601 -0.523231 76 153 0
0.265919 -0.155606 0.613849 0 255 0
-0.167413 0.000342 0.398048 127 127 0
-0.599471 0.232833 -0.321661 76 0 153
0.555543 0.257125 -0.458488 204 51 127
0.252482 0.000342 0.312678 127 127 0
0.261229 -0.056288 -0.552791 76 153 0
-0.230078 -0.508519 0.277586 153 76 0
-0.530497 -0.085810 0.369715 0 255 0
0.600843 -0.089211 -0.135205 153 0 76
-0.251100 0.255605 0.574436 204 51 127
-0.301280 0.374120 0.574436 204 51 127
0.504041 0.489136 -0.097207 76 153 0
-0.058407 -0.392752 -0.523231 76 153 0
0.312088 -0.507699 0.434939 0 255 0
-0.062335 -0.508519 0.129489 153 76 0
-0.599471 -0.624591 -0.410496 76 0 153
-0.426159 -0.575029 -0.462485 153 76 0
0.555543 -0.177734 0.170982 0 255 0
0.516129 -0.201371 0.548455 0 255 0
-0.327587 -0.095777 0.574436 0 255 0
-0.350859 0.489136 -0.371118 76 153 0
-0.126381 -0.057743 0.613849 0 255 0
-0.599471 0.338813 -0.158170 76 0 153
-0.222806 -0.051309 0.574436 0 255 0
0.348047 -0.172087 0.574436 0 255 0
-0.321610 -0.508519 0.378368 153 76 0
-0.055599 0.313846 0.574436 204 51 127
-0.482263 -0.507699 -0.011923 0 255 0
0.386715 0.172571 0.613849 204 51 127
0.414483 -0.114931 -0.428311 0 255 0
0.012085 0.489136 -0.242457 76 153 0
0.516129 -0.192553 -0.366823 0 255 0
0.600843 -0.366929 0.221900 153 0 76
0.048191 0.034491 -0.428311 204 51 127
-0.528350 -0.575029 0.554553 153 76 0
-0.385133 -0.508519 0.199550 153 76 0
0.242164 -0.575029 0.524929 153 76 0
-0.530497 0.422948 0.304513 204 51 127
0.600843 -0.152113 -0.473434 153 0 76
-0.599471 -0.304426 -0.237204 76 0 153
-0.489278 -0.251718 0.574436 0 255 0
-0.282153 -0.507699 -0.120921 0 255 0
-0.530497 0.152642 -0.408601 204 51 127
-0.046568 -0.575029 -0.307983 153 76 0
0.162189 0.489136 0.560742 76 153 0
-0.569910 0.273623 -0.418059 76 0 153
-0.397461 -0.175355 0.574436 0 255 0
-0.205233 -0.437710 -0.523231 76 153 0
-0.371707 0.171248 -0.428311 204 51 127
0.297671 -0.575029 -0.458488 153 76 0
-0.403107 -0.508519 0.440153 153 76 0
0.335682 0.202150 -0.552791 76 153 0
0.293469 -0.403054 0.574436 0 255 0
-0.315065 -0.402334 -0.552791 76 153 0
-0.262469 0.477962 -0.552791 76 153 0
-0.378430 -0.507699 -0.208530 0 255 0
-0.269214 -0.575029 -0.160155 153 76 0
0.245934 -0.065657 0.574436 0 255 0
-0.599471 0.031143 0.603783 76 0 153
-0.599471 -0.235068 -0.144781 76 0 153
0.516129 0.219435 -0.399600 204 51 127
0.458162 0.489136 0.542326 76 153 0
-0.336122 -0.575029 -0.342591 153 76 0
0.516129 -0.348599 -0.290504 0 255 0
0.270673 0.000408 0.165065 204 51 127
-0.599471 -0.061213 0.406494 76 0 153
-0.161081 -0.018971 -0.121213 127 127 0
0.528657 -0.362865 0.613849 0 255 0
-0.454690 0.489136 0.250816 76 153 0
0.062893 -0.018971 -0.020722 127 127 0
0.600843 0.392432 -0.074192 153 0 76
0.600843 0.231840 0.226193 153 0 76
-0.252971 0.000342 0.426431 127 127 0
-0.599471 -0.345599 -0.092289 76 0 153
0.040820 0.489136 0.554263 76 153 0
0.529105 0.559588 0.435707 76 153 0
0.109416 0.489136 -0.453489 204 51 127
-0.569910 0.500671 -0.328969 76 0 153
0.235303 -0.508519 -0.359538 153 76 0
-0.475317 -0.507699 -0.319633 0 255 0
-0.099510 0.559588 -0.467156 76 153 0
0.547514 0.489136 0.509835 204 51 127
0.571283 0.386219 -0.381144 153 0 76
0.069615 -0.265709 0.574436 0 255 0
0.264237 -0.575029 0.002133 153 76 0
-0.530497 -0.249955 0.411073 0 255 0
0.359604 0.066551 -0.552791 76 153 0
0.383659 0.000342 0.547063 127 127 0
-0.530497 0.370598 -0.168533 204 51 127
-0.569910 -0.104643 -0.467685 76 0 153
0.600843 0.083244 0.173260 153 0 76
-0.156980 0.489136 0.514834 76 153 0
0.011627 -0.508519 -0.088240 153 76 0
-0.323745 0.489136 -0.241340 76 153 0
0.429298 0.559588 -0.336513 76 153 0
0.600843 -0.531979 -0.066940 153 0 76
0.221052 0.457722 -0.467725 204 51 127
0.345499 0.489136 0.501456 76 153 0
-0.071353 0.559588 -0.182901 76 153 0
0.303695 0.559588 -0.043628 76 153 0
0.516129 0.251547 0.521120 204 51 127
0.139050 -0.575029 0.109803 153 76 0
0.600843 -0.556020 0.283728 153 0 76
0.516129 0.179647 0.321142 204 51 127
-0.359383 0.000408 0.261489 204 51 127
0.298314 0.555646 -0.430738 76 153 0
0.053845 0.243365 0.646323 153 0 76
0.502630 0.028796 -0.523231 76 153 0
0.516756 0.177970 -0.552791 76 153 0
0.200723 0.489136 0.026816 76 153 0
0.555543 -0.297875 0.127530 0 255 0
0.502546 -0.313185 -0.467725 0 255 0
-0.599471 0.174381 -0.138633 76 0 153
-0.224300 0.489136 0.407292 76 153 0
-0.599471 -0.099095 0.261015 76 0 153
-0.278794 0.158280 -0.523231 76 153 0
-0.483426 0.356436 -0.428311 204 51 127
-0.599471 0.110558 0.220218 76 0 153
0.130041 -0.073781 0.574436 0 255 0
0.527800 -0.508519 0.094957 153 76 0
0.352740 -0.018971 -0.186491 127 127 0
-0.172461 -0.381012 -0.467725 0 255 0
0.555543 0.295625 -0.263838 204 51 127
0.282047 -0.507699 -0.065741 0 255 0
0.396202 -0.575029 0.310663 153 76 0
0.487721 -0.575029 0.274054 153 76 0
-0.299444 0.489136 0.010010 76 153 0
0.571283 -0.229401 -0.093711 153 0 76
0.029574 -0.387416 0.613849 0 255 0
-0.306350 0.067972 -0.467725 204 51 127
0.058305 0.555646 -0.338927 76 153 0
-0.305561 -0.575029 -0.469086 153 76 0
-0.190629 -0.508519 0.068507 153 76 0
-0.120609 -0.507699 -0.215579 0 255 0
-0.054151 -0.181960 -0.467725 0 255 0
-0.599471 -0.289379 0.031815 76 0 153
-0.328269 -0.508519 -0.053704 153 76 0
0.409241 -0.575029 -0.180949 153 76 0
-0.530497 0.072109 -0.172641 204 51 127
-0.178300 0.489136 -0.148048 76 153 0
-0.599471 0.424216 -0.479987 76 0 153
-0.530497 -0.497214 0.227899 0 255 0
0.571283 0.028671 0.443023 153 0 76
-0.269214 -0.575029 0.151535 153 76 0
-0.053440 -0.575029 0.268804 153 76 0
-0.062234 -0.507699 -0.393827 0 255 0
0.353646 -0.371277 -0.467725 0 255 0
-0.329501 0.489136 -0.078895 76 153 0
0.531894 -0.555647 -0.523231 76 153 0
-0.532939 0.251271 -0.523231 76 153 0
-0.599471 0.165812 0.347851 76 0 153
-0.091640 0.489136 0.208565 76 153 0
-0.599471 0.368511 -0.301914 76 0 153
0.596599 -0.628238 0.057169 153 0 76
-0.358026 0.261012 -0.552791 76 153 0
0.521056 -0.026183 0.613849 0 255 0
-0.530497 0.319597 0.348538 204 51 127
0.173587 -0.575029 0.025460 153 76 0
0.403617 -0.575029 0.099861 153 76 0
0.516129 -0.075359 -0.253682 0 255 0
-0.158148 -0.195604 -0.467725 0 255 0
-0.530497 0.396992 0.177396 204 51 127
-0.251496 0.559588 0.339058 76 153 0
-0.206650 0.000408 -0.056540 204 51 127
0.185035 -0.095710 -0.428311 0 255 0
-0.271434 -0.575029 -0.009673 153 76 0
-0.599471 -0.309303 0.453843 76 0 153
-0.308526 0.559588 -0.331333 76 153 0
-0.359502 -0.575029 -0.105550 153 76 0
-0.109861 -0.575029 0.372195 153 76 0
0.202123 0.150766 0.613849 204 51 127
-0.247361 -0.018971 -0.406200 127 127 0
0.366758 -0.018971 0.404911 127 127 0
-0.102106 -0.222595 -0.428311 0 255 0
-0.029332 -0.120710 -0.523231 76 153 0
-0.399502 0.489136 0.047626 76 153 0
-0.158361 -0.183001 0.613849 0 255 0
-0.594158 -0.628238 -0.251118 76 0 153
-0.599471 0.371205 0.435333 76 0 153
0.516129 -0.500516 -0.164410 0 255 0
0.591698 -0.435007 0.629615 153 0 76
0.126857 -0.508519 0.481765 153 76 0
0.516129 -0.229815 0.395588 0 255 0
-0.203281 -0.507699 -0.192228 0 255 0
0.571283 0.486092 0.117063 153 0 76
0.146009 0.489136 -0.107955 76 153 0
-0.599471 -0.188388 0.504576 76 0 153
0.600843 -0.443852 -0.200650 153 0 76
-0.521949 -0.530228 0.613849 153 76 0
-0.389288 0.123442 -0.523231 76 153 0
0.571283 0.292851 0.040795 153 0 76
0.449861 -0.508519 0.564367 153 76 0
0.315455 -0.507699 -0.173334 0 255 0
-0.268322 -0.507699 0.101527 0 255 0
-0.434921 -0.387340 -0.552791 76 153 0
0.277150 0.489136 0.050288 76 153 0
0.516129 -0.428608 -0.378389 0 255 0
-0.165529 0.440747 0.574436 204 51 127
0.184313 0.320486 -0.523231 76 153 0
0.314573 0.223208 -0.428311 204 51 127
-0.247298 0.000408 0.181992 204 51 127
0.516129 0.359033 -0.266052 204 51 127
0.600843 0.203418 0.549667 153 0 76
-0.591473 -0.628238 0.313463 76 0 153
-0.444769 -0.184219 -0.552791 76 153 0
0.516129 -0.410959 0.399661 0 255 0
-0.599471 0.300744 -0.097095 76 0 153
-0.224672 0.555646 -0.199239 76 153 0
-0.351119 0.555646 0.389803 76 153 0
-0.530497 0.055215 0.099496 204 51 127
-0.194248 -0.508519 -0.529254 153 76 0
-0.024384 0.555646 0.054245 76 153 0
-0.122190 0.282483 -0.467725 204 51 127
-0.465119 0.559588 0.608907 76 153 0
-0.433359 -0.132292 -0.428311 0 255 0
-0.314178 0.489136 0.488524 76 153 0
-0.506150 0.236462 -0.428311 204 51 127
0.381493 -0.508519 0.453485 153 76 0
-0.599471 -0.396569 0.345839 76 0 153
0.325078 0.000342 0.037605 127 127 0
-0.530497 -0.367614 -0.016733 0 255 0
0.254488 0.559588 0.368695 76 153 0
0.430207 0.436397 -0.552791 76 153 0
-0.525267 0.555646 0.042386 76 153 0
0.095503 -0.575029 -0.026627 153 76 0
0.327003 -0.507699 0.225744 0 255 0
-0.084089 0.338079 -0.552791 76 153 0
-0.569910 -0.132944 -0.382402 0 255 0
0.553350 -0.575029 -0.386166 153 76 0
0.207654 0.000342 0.381429 127 127 0
-0.599471 0.564775 -0.466628 76 0 153
0.433683 0.489136 0.323291 76 153 0
-0.530497 -0.254491 -0.131741 0 255 0
