ply
format ascii 1.0
element vertex 642
property float x
property float y
property float z
property float nx
property float ny
property float nz
property uchar red
property uchar green
property uchar blue
property float opacity
end_header
0.261428 -0.487915 0.613849 0.000000 0.000000 1.000000 35 35 35 1.000000
-0.599471 0.262435 0.340898 -1.000000 0.000000 0.000000 35 35 35 1.000000
-0.501975 0.000408 0.544370 0.000000 -1.000000 0.000000 35 35 35 1.000000
-0.331931 -0.054690 -0.523231 0.000000 0.000000 1.000000 35 35 35 1.000000
0.571283 -0.112566 0.060455 -1.000000 0.000000 0.000000 35 35 35 1.000000
-0.530497 0.228158 0.018937 -1.000000 0.000000 0.000000 35 35 35 1.000000
0.372133 0.489136 0.515681 0.000000 1.000000 0.000000 35 35 35 1.000000
-0.113952 -0.516750 -0.523231 0.000000 0.000000 -1.000000 35 35 35 1.000000
0.267351 -0.162174 -0.428311 0.000000 0.000000 -1.000000 35 35 35 1.000000
0.480118 0.287722 -0.428311 0.000000 0.000000 1.000000 35 35 35 1.000000
0.062749 -0.507699 -0.150282 0.000000 -1.000000 0.000000 35 35 35 1.000000
0.174997 -0.445214 -0.552791 0.000000 0.000000 -1.000000 35 35 35 1.000000
-0.049347 -0.211574 0.613849 0.000000 0.000000 1.000000 35 35 35 1.000000
0.499817 0.489136 -0.483861 0.000000 1.000000 0.000000 35 35 35 1.000000
-0.108406 -0.508519 0.478848 0.000000 -1.000000 0.000000 35 35 35 1.000000
-0.181853 0.489136 0.528531 0.000000 -1.000000 0.000000 35 35 35 1.000000
-0.370054 0.423018 0.574436 0.000000 0.000000 1.000000 35 35 35 1.000000
-0.599471 0.155806 0.564335 1.000000 0.000000 0.000000 35 35 35 1.000000
-0.170710 0.199784 -0.552791 0.000000 0.000000 -1.000000 35 35 35 1.000000
0.600843 -0.173948 0.266715 -1.000000 0.000000 0.000000 35 35 35 1.000000
-0.266833 0.489136 0.336474 0.000000 1.000000 0.000000 35 35 35 1.000000
-0.481693 -0.575029 0.220351 0.000000 -1.000000 0.000000 35 35 35 1.000000
-0.139309 -0.018971 -0.467052 0.000000 -1.000000 0.000000 35 35 35 1.000000
-0.311603 0.331619 -0.552791 0.000000 0.000000 1.000000 35 35 35 1.000000
-0.211027 -0.575029 0.350805 0.000000 1.000000 0.000000 35 35 35 1.000000
-0.128731 -0.018971 0.056490 0.000000 -1.000000 0.000000 35 35 35 1.000000
-0.115504 0.104654 -0.428311 0.000000 0.000000 1.000000 35 35 35 1.000000
-0.361431 -0.483903 0.574436 0.000000 0.000000 1.000000 35 35 35 1.000000
-0.530497 -0.232901 0.293036 -1.000000 0.000000 0.000000 35 35 35 1.000000
-0.176284 -0.628238 -0.523647 0.000000 -1.000000 0.000000 35 35 35 1.000000
-0.449774 0.439590 -0.428311 0.000000 0.000000 1.000000 35 35 35 1.000000
0.151352 -0.018971 -0.069248 0.000000 -1.000000 0.000000 35 35 35 1.000000
0.600843 0.567567 0.508062 1.000000 0.000000 0.000000 35 35 35 1.000000
-0.216109 -0.018971 -0.334900 0.000000 -1.000000 0.000000 35 35 35 1.000000
-0.530497 0.215334 0.484359 1.000000 0.000000 0.000000 35 35 35 1.000000
-0.038975 -0.461288 -0.428311 0.000000 0.000000 -1.000000 35 35 35 1.000000
0.212345 0.442613 0.574436 0.000000 0.000000 -1.000000 35 35 35 1.000000
0.167736 0.292420 -0.428311 0.000000 0.000000 -1.000000 35 35 35 1.000000
-0.530497 -0.142687 0.002104 -1.000000 0.000000 0.000000 35 35 35 1.000000
0.516129 -0.383284 0.316813 1.000000 0.000000 0.000000 35 35 35 1.000000
0.357727 -0.392708 -0.428311 0.000000 0.000000 -1.000000 35 35 35 1.000000
0.356199 0.105283 -0.428311 0.000000 0.000000 1.000000 35 35 35 1.000000
0.600843 0.283384 0.168891 1.000000 0.000000 0.000000 35 35 35 1.000000
-0.530497 -0.130059 -0.139126 -1.000000 0.000000 0.000000 35 35 35 1.000000
-0.599471 -0.351518 -0.049211 1.000000 0.000000 0.000000 35 35 35 1.000000
0.516129 0.001104 -0.314614 1.000000 0.000000 0.000000 35 35 35 1.000000
0.600843 0.148873 0.095012 -1.000000 0.000000 0.000000 35 35 35 1.000000
-0.599471 -0.623584 -0.227125 1.000000 0.000000 0.000000 35 35 35 1.000000
0.600843 0.266566 -0.138737 -1.000000 0.000000 0.000000 35 35 35 1.000000
0.516129 -0.153482 0.178051 1.000000 0.000000 0.000000 35 35 35 1.000000
-0.599471 0.036567 -0.455615 -1.000000 0.000000 0.000000 35 35 35 1.000000
-0.350313 0.000342 -0.382122 0.000000 -1.000000 0.000000 255 255 255 1.000000
0.516129 -0.465495 -0.247782 1.000000 0.000000 0.000000 35 35 35 1.000000
-0.313993 -0.206794 -0.467725 0.000000 0.000000 1.000000 35 35 35 1.000000
0.593159 -0.061096 0.629615 0.000000 0.000000 -1.000000 35 35 35 1.000000
0.516129 -0.340331 -0.061709 -1.000000 0.000000 0.000000 35 35 35 1.000000
0.261876 -0.018971 -0.304284 0.000000 1.000000 0.000000 255 255 255 1.000000
-0.534321 -0.628238 -0.547788 0.000000 1.000000 0.000000 35 35 35 1.000000
-0.521881 -0.508519 0.119134 0.000000 -1.000000 0.000000 35 35 35 1.000000
-0.481838 -0.575029 0.010782 0.000000 -1.000000 0.000000 35 35 35 1.000000
0.343675 0.382846 -0.552791 0.000000 0.000000 -1.000000 35 35 35 1.000000
0.157370 0.032733 -0.467725 0.000000 0.000000 1.000000 35 35 35 1.000000
-0.530497 -0.394593 0.193576 -1.000000 0.000000 0.000000 35 35 35 1.000000
-0.281910 -0.298312 0.613849 0.000000 0.000000 -1.000000 35 35 35 1.000000
0.047883 0.296904 -0.467725 0.000000 0.000000 -1.000000 35 35 35 1.000000
-0.530497 0.106377 0.152684 -1.000000 0.000000 0.000000 35 35 35 1.000000
0.516129 0.192901 -0.318736 -1.000000 0.000000 0.000000 35 35 35 1.000000
0.554212 -0.044001 -0.523231 0.000000 0.000000 -1.000000 35 35 35 1.000000
0.555543 0.423934 0.324883 1.000000 0.000000 0.000000 35 35 35 1.000000
-0.530497 0.102091 0.318361 1.000000 0.000000 0.000000 35 35 35 1.000000
-0.350674 -0.283485 -0.552791 0.000000 0.000000 1.000000 35 35 35 1.000000
-0.338935 -0.507699 0.044294 0.000000 -1.000000 0.000000 35 35 35 1.000000
0.516129 -0.182493 0.529036 1.000000 0.000000 0.000000 35 35 35 1.000000
-0.396525 -0.409378 -0.428311 0.000000 0.000000 1.000000 35 35 35 1.000000
0.385591 0.000408 -0.052771 0.000000 1.000000 0.000000 35 35 35 1.000000
-0.530497 0.201880 -0.312679 -1.000000 0.000000 0.000000 35 35 35 1.000000
0.186251 -0.575029 -0.274043 0.000000 1.000000 0.000000 35 35 35 1.000000
-0.587072 -0.079318 0.629615 0.000000 0.000000 -1.000000 35 35 35 1.000000
-0.599471 -0.517133 -0.430820 -1.000000 0.000000 0.000000 35 35 35 1.000000
0.437326 0.489136 -0.066177 0.000000 -1.000000 0.000000 35 35 35 1.000000
0.142986 -0.100896 0.613849 0.000000 0.000000 -1.000000 35 35 35 1.000000
-0.381219 -0.018971 0.492146 0.000000 1.000000 0.000000 255 255 255 1.000000
0.373447 0.290374 0.574436 0.000000 0.000000 -1.000000 35 35 35 1.000000
0.600843 -0.283697 0.557459 1.000000 0.000000 0.000000 35 35 35 1.000000
0.516129 -0.182569 -0.034544 1.000000 0.000000 0.000000 35 35 35 1.000000
-0.182804 -0.018971 0.166059 0.000000 -1.000000 0.000000 35 35 35 1.000000
0.151012 0.000342 -0.233879 0.000000 -1.000000 0.000000 255 255 255 1.000000
-0.323545 0.000342 0.165747 0.000000 1.000000 0.000000 35 35 35 1.000000
0.571283 -0.393901 -0.455849 -1.000000 0.000000 0.000000 35 35 35 1.000000
-0.599471 0.014098 -0.292266 1.000000 0.000000 0.000000 35 35 35 1.000000
-0.291111 -0.628238 -0.536303 0.000000 -1.000000 0.000000 35 35 35 1.000000
0.516129 0.221294 -0.037658 1.000000 0.000000 0.000000 35 35 35 1.000000
-0.506676 0.555646 0.534955 0.000000 1.000000 0.000000 128 128 128 0.500000
-0.103726 0.555646 -0.376582 0.000000 -1.000000 0.000000 128 128 128 0.500000
-0.140549 0.559588 0.082412 0.000000 -1.000000 0.000000 128 128 128 0.500000
0.363867 0.555646 0.299872 0.000000 -1.000000 0.000000 128 128 128 0.500000
0.139950 -0.508519 0.312798 0.000000 1.000000 0.000000 35 35 35 1.000000
-0.062512 0.559588 0.449944 0.000000 1.000000 0.000000 128 128 128 0.500000
-0.259885 0.555646 -0.283246 0.000000 -1.000000 0.000000 35 35 35 1.000000
-0.395202 0.489136 0.304710 0.000000 1.000000 0.000000 35 35 35 1.000000
0.221259 0.489136 -0.272315 0.000000 1.000000 0.000000 35 35 35 1.000000
-0.350187 -0.575029 -0.270606 0.000000 1.000000 0.000000 35 35 35 1.000000
0.193820 0.489136 0.471509 0.000000 -1.000000 0.000000 35 35 35 1.000000
-0.378613 0.000408 0.054210 0.000000 1.000000 0.000000 35 35 35 1.000000
0.600843 -0.057021 0.384625 1.000000 0.000000 0.000000 35 35 35 1.000000
-0.184335 -0.146838 0.574436 0.000000 0.000000 -1.000000 35 35 35 1.000000
0.034894 0.351369 0.574436 0.000000 0.000000 -1.000000 35 35 35 1.000000
-0.343719 0.000342 0.385046 0.000000 1.000000 0.000000 35 35 35 1.000000
0.600843 -0.576495 0.335785 1.000000 0.000000 0.000000 35 35 35 1.000000
0.051904 0.559588 -0.179482 0.000000 -1.000000 0.000000 128 128 128 0.500000
0.267811 0.555646 -0.539716 0.000000 -1.000000 0.000000 35 35 35 1.000000
0.600843 -0.373183 -0.228547 -1.000000 0.000000 0.000000 35 35 35 1.000000
-0.599471 -0.383864 0.543591 -1.000000 0.000000 0.000000 35 35 35 1.000000
-0.501423 -0.508519 -0.334004 0.000000 1.000000 0.000000 35 35 35 1.000000
-0.599471 -0.602305 0.229164 -1.000000 0.000000 0.000000 35 35 35 1.000000
-0.599471 -0.357878 -0.177054 1.000000 0.000000 0.000000 35 35 35 1.000000
-0.296263 0.076325 0.613849 0.000000 0.000000 1.000000 35 35 35 1.000000
0.571283 -0.457525 0.133352 -1.000000 0.000000 0.000000 35 35 35 1.000000
-0.088402 0.000342 0.267817 0.000000 1.000000 0.000000 35 35 35 1.000000
-0.350575 0.000342 -0.160986 0.000000 1.000000 0.000000 35 35 35 1.000000
-0.014213 0.555646 0.281084 0.000000 1.000000 0.000000 35 35 35 1.000000
0.600843 0.415044 -0.078250 1.000000 0.000000 0.000000 35 35 35 1.000000
-0.072400 0.559588 -0.071269 0.000000 -1.000000 0.000000 128 128 128 0.500000
0.600843 0.266413 0.288232 -1.000000 0.000000 0.000000 35 35 35 1.000000
0.195653 0.489136 0.226605 0.000000 1.000000 0.000000 35 35 35 1.000000
-0.599471 0.213589 -0.186941 1.000000 0.000000 0.000000 35 35 35 1.000000
0.337284 -0.575029 -0.225025 0.000000 1.000000 0.000000 35 35 35 1.000000
-0.599304 0.568948 -0.054936 0.000000 1.000000 0.000000 35 35 35 1.000000
-0.530497 -0.426339 0.336569 1.000000 0.000000 0.000000 35 35 35 1.000000
0.514195 -0.507699 0.219830 0.000000 1.000000 0.000000 35 35 35 1.000000
-0.236467 -0.106549 -0.552791 0.000000 0.000000 -1.000000 35 35 35 1.000000
-0.186191 -0.507699 0.607735 0.000000 -1.000000 0.000000 35 35 35 1.000000
-0.286112 0.489136 0.487084 0.000000 1.000000 0.000000 35 35 35 1.000000
-0.510474 0.395616 -0.523231 0.000000 0.000000 1.000000 35 35 35 1.000000
-0.599471 -0.189100 0.212345 -1.000000 0.000000 0.000000 35 35 35 1.000000
0.049000 -0.575029 0.356252 0.000000 1.000000 0.000000 35 35 35 1.000000
-0.530497 -0.185250 -0.292049 1.000000 0.000000 0.000000 35 35 35 1.000000
-0.599471 -0.242652 0.392204 1.000000 0.000000 0.000000 35 35 35 1.000000
-0.487908 -0.575029 -0.100680 0.000000 -1.000000 0.000000 35 35 35 1.000000
0.038383 -0.575029 -0.031023 0.000000 -1.000000 0.000000 35 35 35 1.000000
0.035044 0.087241 -0.552791 0.000000 0.000000 1.000000 35 35 35 1.000000
-0.599471 0.524987 0.329511 1.000000 0.000000 0.000000 35 35 35 1.000000
0.225413 -0.405333 -0.428311 0.000000 0.000000 1.000000 35 35 35 1.000000
-0.394558 0.559588 0.068562 0.000000 1.000000 0.000000 128 128 128 0.500000
-0.147180 0.000408 0.488970 0.000000 1.000000 0.000000 35 35 35 1.000000
0.242859 0.000342 0.405513 0.000000 1.000000 0.000000 35 35 35 1.000000
-0.329753 0.489136 0.141969 0.000000 1.000000 0.000000 35 35 35 1.000000
-0.420140 0.489136 -0.333579 0.000000 1.000000 0.000000 35 35 35 1.000000
0.071086 0.000342 0.451942 0.000000 1.000000 0.000000 35 35 35 1.000000
0.359861 0.230420 -0.428311 0.000000 0.000000 1.000000 35 35 35 1.000000
0.363308 -0.018971 -0.213885 0.000000 1.000000 0.000000 255 255 255 1.000000
0.423891 -0.018971 0.372312 0.000000 1.000000 0.000000 255 255 255 1.000000
-0.599471 0.365785 0.016664 -1.000000 0.000000 0.000000 35 35 35 1.000000
-0.522347 0.335537 0.574436 0.000000 0.000000 1.000000 35 35 35 1.000000
0.193008 -0.507699 -0.016246 0.000000 1.000000 0.000000 35 35 35 1.000000
0.516129 -0.102570 0.437757 -1.000000 0.000000 0.000000 35 35 35 1.000000
-0.569910 0.337900 -0.358595 1.000000 0.000000 0.000000 35 35 35 1.000000
0.600843 0.056533 0.520182 1.000000 0.000000 0.000000 35 35 35 1.000000
-0.525817 -0.076325 -0.467725 0.000000 0.000000 -1.000000 35 35 35 1.000000
-0.096846 0.489136 0.240452 0.000000 -1.000000 0.000000 35 35 35 1.000000
0.349298 0.272159 -0.552791 0.000000 0.000000 -1.000000 35 35 35 1.000000
-0.599471 -0.510077 0.349930 -1.000000 0.000000 0.000000 35 35 35 1.000000
0.011749 0.559588 0.611360 0.000000 1.000000 0.000000 128 128 128 0.500000
-0.474875 0.555646 0.415528 0.000000 -1.000000 0.000000 128 128 128 0.500000
0.436684 0.000408 0.508464 0.000000 -1.000000 0.000000 35 35 35 1.000000
0.274461 -0.018971 0.531037 0.000000 -1.000000 0.000000 35 35 35 1.000000
0.351880 0.489136 -0.188561 0.000000 -1.000000 0.000000 35 35 35 1.000000
0.053542 -0.626071 -0.552791 0.000000 0.000000 -1.000000 35 35 35 1.000000
0.516129 -0.228653 0.386182 -1.000000 0.000000 0.000000 35 35 35 1.000000
-0.491653 0.525224 -0.552791 0.000000 0.000000 1.000000 35 35 35 1.000000
-0.599471 0.492825 -0.272578 -1.000000 0.000000 0.000000 35 35 35 1.000000
0.350326 -0.024686 -0.523231 0.000000 0.000000 1.000000 35 35 35 1.000000
0.555543 -0.407456 0.519707 -1.000000 0.000000 0.000000 35 35 35 1.000000
-0.183194 -0.171866 -0.467725 0.000000 0.000000 -1.000000 35 35 35 1.000000
0.331833 0.489136 -0.343761 0.000000 1.000000 0.000000 35 35 35 1.000000
-0.599471 0.295022 0.509629 -1.000000 0.000000 0.000000 35 35 35 1.000000
-0.593903 0.433095 0.629615 0.000000 0.000000 -1.000000 35 35 35 1.000000
-0.159540 -0.322107 0.574436 0.000000 0.000000 1.000000 35 35 35 1.000000
0.249791 -0.570594 -0.542938 0.000000 0.000000 -1.000000 35 35 35 1.000000
0.091983 -0.414164 0.574436 0.000000 0.000000 1.000000 35 35 35 1.000000
0.513946 0.489136 0.109935 0.000000 -1.000000 0.000000 35 35 35 1.000000
0.243718 0.555646 -0.046502 0.000000 -1.000000 0.000000 128 128 128 0.500000
-0.176475 -0.441039 -0.467725 0.000000 0.000000 -1.000000 35 35 35 1.000000
-0.031785 -0.036358 0.613849 0.000000 0.000000 -1.000000 35 35 35 1.000000
-0.486765 -0.387964 -0.523231 0.000000 0.000000 -1.000000 35 35 35 1.000000
0.516129 0.300627 -0.219459 -1.000000 0.000000 0.000000 35 35 35 1.000000
-0.073311 0.416700 -0.552791 0.000000 0.000000 1.000000 35 35 35 1.000000
-0.497534 -0.318379 -0.428311 0.000000 0.000000 1.000000 35 35 35 1.000000
0.089732 0.489136 -0.367610 0.000000 1.000000 0.000000 35 35 35 1.000000
0.154572 -0.507699 0.521853 0.000000 -1.000000 0.000000 35 35 35 1.000000
-0.093786 -0.108389 -0.428311 0.000000 0.000000 1.000000 35 35 35 1.000000
-0.145723 0.434588 0.613849 0.000000 0.000000 -1.000000 35 35 35 1.000000
0.555543 0.471387 0.571175 -1.000000 0.000000 0.000000 35 35 35 1.000000
0.050555 0.170773 0.574436 0.000000 0.000000 1.000000 35 35 35 1.000000
0.470915 -0.440613 0.613849 0.000000 0.000000 -1.000000 35 35 35 1.000000
0.600843 0.073342 0.411837 -1.000000 0.000000 0.000000 35 35 35 1.000000
0.600843 -0.332878 0.252770 1.000000 0.000000 0.000000 35 35 35 1.000000
0.365089 0.489136 0.018791 0.000000 1.000000 0.000000 35 35 35 1.000000
0.050459 0.520402 -0.552791 0.000000 0.000000 1.000000 35 35 35 1.000000
0.081829 -0.508519 0.146970 0.000000 1.000000 0.000000 35 35 35 1.000000
0.047122 0.489136 0.380980 0.000000 1.000000 0.000000 35 35 35 1.000000
0.456343 0.419834 -0.552791 0.000000 0.000000 1.000000 35 35 35 1.000000
0.318172 -0.155532 -0.552791 0.000000 0.000000 -1.000000 35 35 35 1.000000
0.377815 -0.507699 0.053026 0.000000 1.000000 0.000000 35 35 35 1.000000
-0.051922 0.489136 0.049790 0.000000 -1.000000 0.000000 35 35 35 1.000000
0.600843 0.102751 -0.165464 -1.000000 0.000000 0.000000 35 35 35 1.000000
-0.052474 -0.018971 -0.151046 0.000000 -1.000000 0.000000 35 35 35 1.000000
0.162369 -0.280154 0.574436 0.000000 0.000000 -1.000000 35 35 35 1.000000
0.516129 0.108933 0.042824 -1.000000 0.000000 0.000000 35 35 35 1.000000
-0.436119 -0.575029 0.327008 0.000000 1.000000 0.000000 35 35 35 1.000000
0.591384 -0.505695 0.629615 0.000000 0.000000 1.000000 35 35 35 1.000000
0.115221 0.555646 0.518153 0.000000 1.000000 0.000000 128 128 128 0.500000
0.139011 0.489136 -0.461846 0.000000 1.000000 0.000000 35 35 35 1.000000
-0.511573 -0.508519 0.510253 0.000000 -1.000000 0.000000 35 35 35 1.000000
-0.316679 0.305256 0.613849 0.000000 0.000000 -1.000000 35 35 35 1.000000
-0.599471 -0.537236 -0.165690 -1.000000 0.000000 0.000000 35 35 35 1.000000
0.600843 0.142101 0.327756 1.000000 0.000000 0.000000 35 35 35 1.000000
-0.277591 -0.507699 0.303444 0.000000 -1.000000 0.000000 35 35 35 1.000000
-0.519733 0.489136 0.224179 0.000000 1.000000 0.000000 35 35 35 1.000000
-0.599471 -0.425251 -0.344345 -1.000000 0.000000 0.000000 35 35 35 1.000000
0.460137 0.559376 -0.552791 0.000000 0.000000 1.000000 35 35 35 1.000000
0.257989 0.555646 0.160609 0.000000 -1.000000 0.000000 128 128 128 0.500000
0.511610 0.128110 -0.552791 0.000000 0.000000 -1.000000 35 35 35 1.000000
0.015071 -0.575029 0.610682 0.000000 1.000000 0.000000 35 35 35 1.000000
-0.191790 0.303182 -0.552791 0.000000 0.000000 1.000000 35 35 35 1.000000
0.600843 -0.197866 -0.359645 -1.000000 0.000000 0.000000 35 35 35 1.000000
-0.381143 0.559588 -0.104513 0.000000 1.000000 0.000000 128 128 128 0.500000
0.516129 -0.068735 -0.415152 -1.000000 0.000000 0.000000 35 35 35 1.000000
0.516129 -0.059733 -0.012004 1.000000 0.000000 0.000000 35 35 35 1.000000
-0.530497 0.346069 0.321151 1.000000 0.000000 0.000000 35 35 35 1.000000
0.535722 0.555646 0.022048 0.000000 1.000000 0.000000 35 35 35 1.000000
0.516129 0.229826 0.237861 1.000000 0.000000 0.000000 35 35 35 1.000000
0.489063 -0.018971 0.147756 0.000000 1.000000 0.000000 255 255 255 1.000000
0.516129 0.097573 -0.362866 -1.000000 0.000000 0.000000 35 35 35 1.000000
-0.530497 0.458764 0.058101 1.000000 0.000000 0.000000 35 35 35 1.000000
0.019755 -0.337942 -0.523231 0.000000 0.000000 1.000000 35 35 35 1.000000
-0.599471 0.026633 0.111783 1.000000 0.000000 0.000000 35 35 35 1.000000
0.036441 -0.018971 0.124515 0.000000 -1.000000 0.000000 35 35 35 1.000000
-0.216440 0.235087 0.574436 0.000000 0.000000 -1.000000 35 35 35 1.000000
-0.461704 0.048001 -0.467725 0.000000 0.000000 -1.000000 35 35 35 1.000000
0.015123 -0.018971 -0.357229 0.000000 -1.000000 0.000000 35 35 35 1.000000
-0.424440 0.000342 -0.304035 0.000000 1.000000 0.000000 35 35 35 1.000000
0.516129 0.101966 0.281124 1.000000 0.000000 0.000000 35 35 35 1.000000
0.600843 0.244315 0.394618 -1.000000 0.000000 0.000000 35 35 35 1.000000
0.270819 -0.575029 0.219698 0.000000 1.000000 0.000000 35 35 35 1.000000
0.513592 0.386780 -0.467725 0.000000 0.000000 1.000000 35 35 35 1.000000
-0.344747 0.559588 0.363140 0.000000 1.000000 0.000000 128 128 128 0.500000
0.343005 0.000408 0.211076 0.000000 -1.000000 0.000000 35 35 35 1.000000
-0.166053 -0.575029 -0.301890 0.000000 1.000000 0.000000 35 35 35 1.000000
-0.599471 -0.428903 -0.512337 1.000000 0.000000 0.000000 35 35 35 1.000000
-0.197023 -0.575029 0.525520 0.000000 -1.000000 0.000000 35 35 35 1.000000
0.134559 0.258384 0.646819 0.851930 0.000000 0.523655 153 153 153 1.000000
-0.569910 0.220107 -0.504985 -1.000000 0.000000 0.000000 35 35 35 1.000000
0.600843 -0.114293 -0.455354 -1.000000 0.000000 0.000000 35 35 35 1.000000
0.501634 -0.575029 0.049198 0.000000 -1.000000 0.000000 35 35 35 1.000000
0.600843 0.286246 0.562557 -1.000000 0.000000 0.000000 35 35 35 1.000000
0.005327 0.456641 -0.467725 0.000000 0.000000 -1.000000 35 35 35 1.000000
0.430104 0.489136 0.407059 0.000000 1.000000 0.000000 35 35 35 1.000000
-0.385679 0.521372 -0.552791 0.000000 0.000000 1.000000 35 35 35 1.000000
-0.185371 0.548141 0.613849 0.000000 0.000000 -1.000000 35 35 35 1.000000
0.600843 -0.236513 -0.133593 -1.000000 0.000000 0.000000 35 35 35 1.000000
0.516129 0.104542 0.477443 1.000000 0.000000 0.000000 35 35 35 1.000000
0.600843 0.347649 -0.342514 1.000000 0.000000 0.000000 35 35 35 1.000000
-0.136722 0.489136 0.432834 0.000000 1.000000 0.000000 35 35 35 1.000000
-0.006173 -0.507699 -0.327928 0.000000 -1.000000 0.000000 35 35 35 1.000000
-0.200263 0.489136 -0.100691 0.000000 -1.000000 0.000000 35 35 35 1.000000
-0.269611 0.559588 -0.430350 0.000000 -1.000000 0.000000 128 128 128 0.500000
0.600843 -0.349815 -0.120365 -1.000000 0.000000 0.000000 35 35 35 1.000000
0.371813 -0.507699 -0.295579 0.000000 1.000000 0.000000 35 35 35 1.000000
-0.064522 -0.575029 -0.020997 0.000000 1.000000 0.000000 35 35 35 1.000000
-0.469227 -0.173714 -0.467725 0.000000 0.000000 1.000000 35 35 35 1.000000
-0.441326 0.555646 0.218051 0.000000 1.000000 0.000000 35 35 35 1.000000
0.402980 0.489136 0.131099 0.000000 -1.000000 0.000000 35 35 35 1.000000
-0.530497 0.400440 -0.117715 1.000000 0.000000 0.000000 35 35 35 1.000000
0.516077 0.559588 0.363717 0.000000 1.000000 0.000000 128 128 128 0.500000
0.362456 0.000408 -0.422358 0.000000 1.000000 0.000000 35 35 35 1.000000
-0.033145 -0.507699 -0.201711 0.000000 -1.000000 0.000000 35 35 35 1.000000
0.516129 0.475679 -0.139572 -1.000000 0.000000 0.000000 35 35 35 1.000000
0.218919 0.042866 -0.552791 0.000000 0.000000 1.000000 35 35 35 1.000000
-0.094253 0.193029 0.574436 0.000000 0.000000 -1.000000 35 35 35 1.000000
0.600843 -0.322242 0.096554 1.000000 0.000000 0.000000 35 35 35 1.000000
-0.569910 0.072145 0.513385 1.000000 0.000000 0.000000 35 35 35 1.000000
0.203932 0.489136 0.085495 0.000000 -1.000000 0.000000 35 35 35 1.000000
0.394727 -0.508519 0.338294 0.000000 -1.000000 0.000000 35 35 35 1.000000
0.600843 0.472975 -0.293364 1.000000 0.000000 0.000000 35 35 35 1.000000
-0.008923 -0.507699 0.407098 0.000000 1.000000 0.000000 35 35 35 1.000000
-0.303695 -0.575029 0.484924 0.000000 1.000000 0.000000 35 35 35 1.000000
0.456471 0.018095 0.613849 0.000000 0.000000 -1.000000 35 35 35 1.000000
-0.505186 0.000342 0.304507 0.000000 1.000000 0.000000 35 35 35 1.000000
0.600843 -0.544118 -0.089722 -1.000000 0.000000 0.000000 35 35 35 1.000000
0.368309 -0.507699 0.505916 0.000000 1.000000 0.000000 35 35 35 1.000000
-0.080074 -0.575029 -0.446843 0.000000 1.000000 0.000000 35 35 35 1.000000
0.516129 -0.420281 -0.131961 -1.000000 0.000000 0.000000 35 35 35 1.000000
0.600843 -0.520653 -0.259869 -1.000000 0.000000 0.000000 35 35 35 1.000000
-0.108148 -0.575029 0.255721 0.000000 1.000000 0.000000 35 35 35 1.000000
0.592986 0.313031 -0.548634 -1.000000 0.000000 0.000000 35 35 35 1.000000
-0.031828 0.153288 -0.467725 0.000000 0.000000 1.000000 35 35 35 1.000000
-0.148707 -0.309991 -0.552791 0.000000 0.000000 1.000000 35 35 35 1.000000
0.094335 -0.201206 0.574436 0.000000 0.000000 -1.000000 35 35 35 1.000000
-0.396087 0.273305 -0.467725 0.000000 0.000000 1.000000 35 35 35 1.000000
0.516129 -0.240378 -0.323834 -1.000000 0.000000 0.000000 35 35 35 1.000000
-0.599471 -0.341194 0.128285 -1.000000 0.000000 0.000000 35 35 35 1.000000
0.516129 0.370375 0.157587 -1.000000 0.000000 0.000000 35 35 35 1.000000
0.516129 -0.346732 0.044079 -1.000000 0.000000 0.000000 35 35 35 1.000000
0.028637 -0.371390 -0.428311 0.000000 0.000000 -1.000000 35 35 35 1.000000
-0.306888 0.455480 -0.523231 0.000000 0.000000 -1.000000 35 35 35 1.000000
0.042162 0.555646 0.196815 0.000000 -1.000000 0.000000 128 128 128 0.500000
-0.165453 0.494513 -0.552791 0.000000 0.000000 -1.000000 35 35 35 1.000000
0.101853 -0.508519 -0.373521 0.000000 1.000000 0.000000 35 35 35 1.000000
-0.530497 0.197113 0.385460 -1.000000 0.000000 0.000000 35 35 35 1.000000
0.326893 0.455982 -0.467725 0.000000 0.000000 1.000000 35 35 35 1.000000
0.244517 0.555646 0.415736 0.000000 -1.000000 0.000000 128 128 128 0.500000
-0.530497 -0.207428 0.078973 -1.000000 0.000000 0.000000 35 35 35 1.000000
0.516129 0.341892 0.057007 -1.000000 0.000000 0.000000 35 35 35 1.000000
0.569488 0.559588 -0.155230 0.000000 1.000000 0.000000 128 128 128 0.500000
-0.233308 -0.507699 0.143531 0.000000 -1.000000 0.000000 35 35 35 1.000000
-0.391742 0.106188 0.613849 0.000000 0.000000 1.000000 35 35 35 1.000000
0.545735 0.088074 -0.467725 0.000000 0.000000 -1.000000 35 35 35 1.000000
0.600843 -0.558574 0.545277 1.000000 0.000000 0.000000 35 35 35 1.000000
0.287020 0.098138 0.613849 0.000000 0.000000 -1.000000 35 35 35 1.000000
-0.134749 0.559588 0.360161 0.000000 -1.000000 0.000000 128 128 128 0.500000
-0.277355 -0.507699 -0.120661 0.000000 1.000000 0.000000 35 35 35 1.000000
0.600843 0.029245 0.199840 1.000000 0.000000 0.000000 35 35 35 1.000000
-0.599471 -0.614803 -0.473577 -1.000000 0.000000 0.000000 35 35 35 1.000000
0.136699 -0.215106 -0.467725 0.000000 0.000000 -1.000000 35 35 35 1.000000
-0.350407 0.555646 -0.368832 0.000000 -1.000000 0.000000 128 128 128 0.500000
-0.308702 -0.333504 -0.467725 0.000000 0.000000 1.000000 35 35 35 1.000000
0.499748 -0.441113 -0.552791 0.000000 0.000000 1.000000 35 35 35 1.000000
0.516129 -0.507573 -0.341089 -1.000000 0.000000 0.000000 35 35 35 1.000000
0.500905 0.559588 0.565598 0.000000 -1.000000 0.000000 128 128 128 0.500000
0.022430 -0.018971 0.272136 0.000000 1.000000 0.000000 255 255 255 1.000000
0.373605 -0.354241 -0.552791 0.000000 0.000000 1.000000 35 35 35 1.000000
0.600843 -0.117244 -0.194765 -1.000000 0.000000 0.000000 35 35 35 1.000000
-0.526103 0.559588 0.147662 0.000000 -1.000000 0.000000 128 128 128 0.500000
-0.108366 0.477318 -0.467725 0.000000 0.000000 -1.000000 35 35 35 1.000000
-0.486680 -0.108667 -0.552791 0.000000 0.000000 -1.000000 35 35 35 1.000000
0.496253 -0.229588 0.613849 0.000000 0.000000 1.000000 35 35 35 1.000000
-0.381307 0.161039 -0.523231 0.000000 0.000000 -1.000000 35 35 35 1.000000
0.516129 0.334384 0.366869 1.000000 0.000000 0.000000 35 35 35 1.000000
0.125037 -0.575029 -0.196252 0.000000 -1.000000 0.000000 35 35 35 1.000000
0.054441 -0.507699 0.535500 0.000000 -1.000000 0.000000 35 35 35 1.000000
0.078804 -0.018971 -0.437247 0.000000 -1.000000 0.000000 35 35 35 1.000000
0.227056 -0.292494 -0.523231 0.000000 0.000000 -1.000000 35 35 35 1.000000
-0.599471 0.510957 0.548767 -1.000000 0.000000 0.000000 35 35 35 1.000000
-0.530497 -0.474818 -0.198948 -1.000000 0.000000 0.000000 35 35 35 1.000000
-0.105786 0.559588 -0.182501 0.000000 -1.000000 0.000000 128 128 128 0.500000
0.176701 0.489136 0.352658 0.000000 1.000000 0.000000 35 35 35 1.000000
0.516129 -0.075411 -0.109461 1.000000 0.000000 0.000000 35 35 35 1.000000
0.600843 0.475077 0.044711 -1.000000 0.000000 0.000000 35 35 35 1.000000
0.034413 0.489136 -0.069565 0.000000 1.000000 0.000000 35 35 35 1.000000
-0.250381 -0.018971 -0.181407 0.000000 1.000000 0.000000 255 255 255 1.000000
0.199836 -0.018971 0.216988 0.000000 -1.000000 0.000000 35 35 35 1.000000
0.516129 -0.406964 0.413922 -1.000000 0.000000 0.000000 35 35 35 1.000000
-0.569910 -0.385375 0.416757 -1.000000 0.000000 0.000000 35 35 35 1.000000
-0.132559 -0.507699 0.326181 0.000000 1.000000 0.000000 35 35 35 1.000000
-0.110770 0.035805 0.574436 0.000000 0.000000 -1.000000 35 35 35 1.000000
-0.234664 0.431363 -0.428311 0.000000 0.000000 -1.000000 35 35 35 1.000000
0.240890 -0.575029 -0.121920 0.000000 -1.000000 0.000000 35 35 35 1.000000
-0.536797 0.489136 -0.432088 0.000000 1.000000 0.000000 35 35 35 1.000000
-0.599471 -0.234741 0.495123 1.000000 0.000000 0.000000 35 35 35 1.000000
0.200557 -0.507699 -0.461238 0.000000 1.000000 0.000000 35 35 35 1.000000
-0.530497 -0.291913 -0.276999 1.000000 0.000000 0.000000 35 35 35 1.000000
-0.325258 0.041329 -0.552791 0.000000 0.000000 -1.000000 35 35 35 1.000000
-0.252356 0.559588 0.175953 0.000000 1.000000 0.000000 128 128 128 0.500000
0.516129 -0.042091 -0.227108 1.000000 0.000000 0.000000 35 35 35 1.000000
-0.599471 0.140713 0.212518 -1.000000 0.000000 0.000000 35 35 35 1.000000
-0.285035 0.489136 0.010241 0.000000 -1.000000 0.000000 35 35 35 1.000000
-0.599471 -0.338264 -0.449178 -1.000000 0.000000 0.000000 35 35 35 1.000000
-0.530497 -0.062699 0.374960 1.000000 0.000000 0.000000 35 35 35 1.000000
0.511604 0.000342 0.334998 0.000000 1.000000 0.000000 35 35 35 1.000000
0.294149 0.510056 0.613849 0.000000 0.000000 -1.000000 35 35 35 1.000000
0.521159 0.489136 -0.235656 0.000000 -1.000000 0.000000 35 35 35 1.000000
0.057720 0.000342 -0.052144 0.000000 -1.000000 0.000000 255 255 255 1.000000
0.545002 -0.508519 -0.496421 0.000000 1.000000 0.000000 35 35 35 1.000000
0.195842 0.237867 0.574436 0.000000 0.000000 1.000000 35 35 35 1.000000
0.468884 -0.090000 -0.523231 0.000000 0.000000 -1.000000 35 35 35 1.000000
-0.530497 -0.079782 -0.327737 1.000000 0.000000 0.000000 35 35 35 1.000000
0.600843 -0.502168 -0.002445 1.000000 0.000000 0.000000 35 35 35 1.000000
0.516129 0.064812 -0.197457 -1.000000 0.000000 0.000000 35 35 35 1.000000
-0.090225 -0.125085 0.574436 0.000000 0.000000 1.000000 35 35 35 1.000000
-0.599471 0.397293 0.424023 -1.000000 0.000000 0.000000 35 35 35 1.000000
-0.599471 -0.328753 0.224010 -1.000000 0.000000 0.000000 35 35 35 1.000000
0.370115 0.559588 0.443772 0.000000 -1.000000 0.000000 128 128 128 0.500000
-0.490237 0.555646 -0.369717 0.000000 -1.000000 0.000000 35 35 35 1.000000
0.253850 -0.063882 0.613849 0.000000 0.000000 -1.000000 35 35 35 1.000000
-0.599471 -0.173596 -0.080288 1.000000 0.000000 0.000000 35 35 35 1.000000
0.496897 -0.575029 -0.408782 0.000000 1.000000 0.000000 35 35 35 1.000000
-0.418882 -0.507699 -0.266601 0.000000 1.000000 0.000000 35 35 35 1.000000
0.409806 0.555646 -0.470842 0.000000 -1.000000 0.000000 35 35 35 1.000000
0.425857 -0.205686 -0.428311 0.000000 0.000000 1.000000 35 35 35 1.000000
0.516129 -0.463851 0.051901 1.000000 0.000000 0.000000 35 35 35 1.000000
-0.227922 0.008650 0.613849 0.000000 0.000000 1.000000 35 35 35 1.000000
0.062642 -0.424927 -0.552791 0.000000 0.000000 -1.000000 35 35 35 1.000000
-0.599471 0.396950 -0.285843 -1.000000 0.000000 0.000000 35 35 35 1.000000
0.516129 -0.061961 0.243662 1.000000 0.000000 0.000000 35 35 35 1.000000
0.571283 0.252959 -0.372620 -1.000000 0.000000 0.000000 35 35 35 1.000000
0.101916 0.413577 0.613849 0.000000 0.000000 -1.000000 35 35 35 1.000000
0.225558 -0.508519 -0.339021 0.000000 1.000000 0.000000 35 35 35 1.000000
0.162240 -0.471440 0.613849 0.000000 0.000000 -1.000000 35 35 35 1.000000
0.133184 0.451826 -0.552791 0.000000 0.000000 1.000000 35 35 35 1.000000
0.600843 0.377418 0.244501 -1.000000 0.000000 0.000000 35 35 35 1.000000
0.229492 0.000342 0.051276 0.000000 1.000000 0.000000 35 35 35 1.000000
0.600843 -0.532201 0.187160 1.000000 0.000000 0.000000 35 35 35 1.000000
0.212507 0.555646 -0.457836 0.000000 -1.000000 0.000000 35 35 35 1.000000
0.163836 -0.115250 -0.523231 0.000000 0.000000 -1.000000 35 35 35 1.000000
0.516129 -0.507460 0.437846 -1.000000 0.000000 0.000000 35 35 35 1.000000
0.508005 0.352423 0.574436 0.000000 0.000000 -1.000000 35 35 35 1.000000
-0.530497 -0.478456 -0.012409 1.000000 0.000000 0.000000 35 35 35 1.000000
-0.384151 -0.575029 0.592246 0.000000 1.000000 0.000000 35 35 35 1.000000
0.600843 0.353576 -0.184281 -1.000000 0.000000 0.000000 35 35 35 1.000000
-0.530497 0.287733 -0.170458 -1.000000 0.000000 0.000000 35 35 35 1.000000
-0.251320 0.000342 0.361271 0.000000 -1.000000 0.000000 255 255 255 1.000000
-0.046871 0.559588 -0.454934 0.000000 -1.000000 0.000000 128 128 128 0.500000
-0.211466 0.117552 -0.523231 0.000000 0.000000 1.000000 35 35 35 1.000000
-0.517022 0.559588 -0.118658 0.000000 1.000000 0.000000 128 128 128 0.500000
-0.012909 -0.177968 -0.467725 0.000000 0.000000 -1.000000 35 35 35 1.000000
-0.248236 -0.507699 0.005156 0.000000 -1.000000 0.000000 35 35 35 1.000000
-0.530497 -0.092110 0.552766 1.000000 0.000000 0.000000 35 35 35 1.000000
0.516129 0.186333 0.534035 1.000000 0.000000 0.000000 35 35 35 1.000000
0.302524 -0.575029 0.590986 0.000000 -1.000000 0.000000 35 35 35 1.000000
0.325932 -0.575029 0.345915 0.000000 1.000000 0.000000 35 35 35 1.000000
0.600843 -0.628184 -0.173426 1.000000 0.000000 0.000000 35 35 35 1.000000
-0.599471 -0.452935 0.164562 -1.000000 0.000000 0.000000 35 35 35 1.000000
-0.387324 -0.575029 -0.429241 0.000000 -1.000000 0.000000 35 35 35 1.000000
0.571283 -0.226820 -0.488407 -1.000000 0.000000 0.000000 35 35 35 1.000000
-0.483906 0.238637 0.613849 0.000000 0.000000 -1.000000 35 35 35 1.000000
-0.530497 -0.036766 -0.123369 1.000000 0.000000 0.000000 35 35 35 1.000000
-0.530497 0.067477 0.412489 -1.000000 0.000000 0.000000 35 35 35 1.000000
0.097832 -0.508519 0.000520 0.000000 -1.000000 0.000000 35 35 35 1.000000
0.405373 -0.575029 0.157086 0.000000 1.000000 0.000000 35 35 35 1.000000
0.600843 -0.417756 0.344146 -1.000000 0.000000 0.000000 35 35 35 1.000000
0.381221 -0.575029 -0.105149 0.000000 1.000000 0.000000 35 35 35 1.000000
-0.446379 0.489136 0.504567 0.000000 1.000000 0.000000 35 35 35 1.000000
-0.004036 0.489136 -0.378037 0.000000 1.000000 0.000000 35 35 35 1.000000
-0.361997 -0.508519 0.155071 0.000000 -1.000000 0.000000 35 35 35 1.000000
0.400071 0.090829 -0.523231 0.000000 0.000000 -1.000000 35 35 35 1.000000
0.190948 0.379948 -0.467725 0.000000 0.000000 -1.000000 35 35 35 1.000000
0.502934 0.555646 -0.078456 0.000000 -1.000000 0.000000 128 128 128 0.500000
0.516129 0.484351 -0.361741 1.000000 0.000000 0.000000 35 35 35 1.000000
0.359106 0.000408 0.303814 0.000000 -1.000000 0.000000 35 35 35 1.000000
0.304743 -0.481215 -0.552791 0.000000 0.000000 -1.000000 35 35 35 1.000000
-0.078670 0.213078 -0.523231 0.000000 0.000000 1.000000 35 35 35 1.000000
-0.070026 0.263332 0.657147 -0.000000 0.000000 1.000000 153 153 153 1.000000
0.600843 0.383612 0.504105 -1.000000 0.000000 0.000000 35 35 35 1.000000
-0.000930 0.489136 -0.238461 0.000000 -1.000000 0.000000 35 35 35 1.000000
0.571283 0.193710 -0.221591 1.000000 0.000000 0.000000 35 35 35 1.000000
-0.242283 0.489136 0.236915 0.000000 -1.000000 0.000000 35 35 35 1.000000
0.528001 0.000342 0.537829 0.000000 1.000000 0.000000 35 35 35 1.000000
-0.366634 -0.507699 0.445290 0.000000 1.000000 0.000000 35 35 35 1.000000
-0.530497 -0.287947 -0.167067 1.000000 0.000000 0.000000 35 35 35 1.000000
-0.258000 0.255599 -0.467725 0.000000 0.000000 -1.000000 35 35 35 1.000000
0.527860 0.216490 -0.467725 0.000000 0.000000 1.000000 35 35 35 1.000000
-0.011505 -0.507699 0.145209 0.000000 1.000000 0.000000 35 35 35 1.000000
-0.569910 0.315836 -0.457958 -1.000000 0.000000 0.000000 35 35 35 1.000000
-0.152020 -0.575029 0.430058 0.000000 1.000000 0.000000 35 35 35 1.000000
0.576517 0.568948 -0.359547 0.000000 -1.000000 0.000000 35 35 35 1.000000
-0.319495 -0.018971 -0.021027 0.000000 -1.000000 0.000000 35 35 35 1.000000
-0.530497 -0.334438 0.010878 1.000000 0.000000 0.000000 35 35 35 1.000000
-0.375973 -0.575029 -0.108906 0.000000 -1.000000 0.000000 35 35 35 1.000000
0.076449 0.262217 0.574436 0.000000 0.000000 1.000000 35 35 35 1.000000
-0.216943 -0.244934 0.574436 0.000000 0.000000 1.000000 35 35 35 1.000000
-0.490833 -0.507699 0.293922 0.000000 1.000000 0.000000 35 35 35 1.000000
0.185866 -0.575029 0.267124 0.000000 1.000000 0.000000 35 35 35 1.000000
0.516129 0.125450 -0.064437 -1.000000 0.000000 0.000000 35 35 35 1.000000
0.235052 -0.507699 0.442468 0.000000 1.000000 0.000000 35 35 35 1.000000
0.489207 0.555646 -0.291917 0.000000 1.000000 0.000000 35 35 35 1.000000
0.167588 0.559588 -0.231669 0.000000 1.000000 0.000000 128 128 128 0.500000
0.098421 0.559588 -0.307941 0.000000 -1.000000 0.000000 128 128 128 0.500000
-0.145086 -0.575029 -0.133894 0.000000 1.000000 0.000000 35 35 35 1.000000
0.358749 0.559588 -0.128589 0.000000 1.000000 0.000000 128 128 128 0.500000
0.089798 0.100341 -0.467725 0.000000 0.000000 1.000000 35 35 35 1.000000
-0.599471 -0.183602 -0.448807 -1.000000 0.000000 0.000000 35 35 35 1.000000
-0.569910 0.127134 -0.459382 -1.000000 0.000000 0.000000 35 35 35 1.000000
-0.530497 -0.324819 0.565806 1.000000 0.000000 0.000000 35 35 35 1.000000
-0.004006 -0.285521 0.657147 0.000000 0.000000 -1.000000 153 153 153 1.000000
0.600843 0.008384 -0.278174 1.000000 0.000000 0.000000 35 35 35 1.000000
-0.160207 0.302457 0.613849 0.000000 0.000000 -1.000000 35 35 35 1.000000
0.142553 0.559588 0.297400 0.000000 1.000000 0.000000 128 128 128 0.500000
-0.361647 -0.104071 0.574436 0.000000 0.000000 1.000000 35 35 35 1.000000
0.516129 0.102924 0.385018 -1.000000 0.000000 0.000000 35 35 35 1.000000
0.264815 0.064325 -0.467725 0.000000 0.000000 -1.000000 35 35 35 1.000000
0.546071 0.559588 -0.446251 0.000000 1.000000 0.000000 128 128 128 0.500000
-0.075284 0.000342 0.427775 0.000000 -1.000000 0.000000 255 255 255 1.000000
-0.599471 0.082718 -0.109615 -1.000000 0.000000 0.000000 35 35 35 1.000000
0.173605 0.197456 -0.467725 0.000000 0.000000 1.000000 35 35 35 1.000000
-0.315477 0.489136 -0.315324 0.000000 -1.000000 0.000000 35 35 35 1.000000
-0.599471 0.162740 0.310089 -1.000000 0.000000 0.000000 35 35 35 1.000000
0.552676 0.555646 0.217879 0.000000 1.000000 0.000000 128 128 128 0.500000
-0.281665 -0.452135 -0.523231 0.000000 0.000000 1.000000 35 35 35 1.000000
-0.427903 0.330393 -0.552791 0.000000 0.000000 -1.000000 35 35 35 1.000000
-0.599471 0.019123 -0.003489 -1.000000 0.000000 0.000000 35 35 35 1.000000
-0.530497 -0.363975 -0.108865 1.000000 0.000000 0.000000 35 35 35 1.000000
0.086910 -0.508519 -0.474918 0.000000 1.000000 0.000000 35 35 35 1.000000
-0.599471 -0.552394 0.531774 -1.000000 0.000000 0.000000 35 35 35 1.000000
0.100540 0.489136 0.048709 0.000000 -1.000000 0.000000 35 35 35 1.000000
-0.439843 -0.575029 -0.353529 0.000000 -1.000000 0.000000 35 35 35 1.000000
-0.300337 0.559588 0.544375 0.000000 1.000000 0.000000 128 128 128 0.500000
-0.275649 -0.007874 -0.467725 0.000000 0.000000 1.000000 255 255 255 1.000000
-0.530497 0.318697 -0.021545 -1.000000 0.000000 0.000000 35 35 35 1.000000
-0.599471 -0.166069 -0.187843 1.000000 0.000000 0.000000 35 35 35 1.000000
-0.577541 -0.628238 -0.004698 0.000000 1.000000 0.000000 35 35 35 1.000000
0.600843 -0.086913 -0.362289 1.000000 0.000000 0.000000 35 35 35 1.000000
0.321715 -0.217453 0.613849 0.000000 0.000000 -1.000000 35 35 35 1.000000
-0.159148 0.559588 -0.303673 0.000000 1.000000 0.000000 128 128 128 0.500000
-0.522081 0.041559 -0.552791 0.000000 0.000000 1.000000 35 35 35 1.000000
0.152649 -0.343820 -0.467725 0.000000 0.000000 -1.000000 35 35 35 1.000000
0.071853 -0.018971 -0.275499 0.000000 -1.000000 0.000000 35 35 35 1.000000
-0.530497 0.073120 -0.303246 -1.000000 0.000000 0.000000 35 35 35 1.000000
0.389521 0.307367 -0.467725 0.000000 0.000000 1.000000 35 35 35 1.000000
0.330056 0.000408 -0.125319 0.000000 -1.000000 0.000000 35 35 35 1.000000
0.423803 -0.138225 0.613849 0.000000 0.000000 1.000000 35 35 35 1.000000
0.257092 0.313446 -0.552791 0.000000 0.000000 1.000000 35 35 35 1.000000
0.200443 0.559588 0.611702 0.000000 -1.000000 0.000000 128 128 128 0.500000
0.112153 -0.240928 -0.552791 0.000000 0.000000 1.000000 35 35 35 1.000000
-0.186845 -0.018971 -0.020097 0.000000 -1.000000 0.000000 35 35 35 1.000000
0.277254 -0.407154 0.574436 0.000000 0.000000 -1.000000 35 35 35 1.000000
0.292479 0.489136 0.302994 0.000000 -1.000000 0.000000 35 35 35 1.000000
0.600843 -0.345807 0.470318 -1.000000 0.000000 0.000000 35 35 35 1.000000
-0.498486 0.059087 0.613849 0.000000 0.000000 -1.000000 35 35 35 1.000000
-0.438991 -0.500164 -0.428311 0.000000 0.000000 -1.000000 35 35 35 1.000000
-0.530497 -0.416828 0.494061 -1.000000 0.000000 0.000000 35 35 35 1.000000
0.399161 -0.493716 -0.467725 0.000000 0.000000 1.000000 35 35 35 1.000000
0.012830 0.292689 -0.552791 0.000000 0.000000 -1.000000 35 35 35 1.000000
-0.193183 0.559588 0.008305 0.000000 -1.000000 0.000000 128 128 128 0.500000
-0.138232 -0.508519 0.151176 0.000000 -1.000000 0.000000 35 35 35 1.000000
0.516129 -0.249790 -0.103658 -1.000000 0.000000 0.000000 35 35 35 1.000000
-0.173188 -0.575029 -0.004240 0.000000 1.000000 0.000000 35 35 35 1.000000
0.229408 -0.508519 0.069640 0.000000 -1.000000 0.000000 35 35 35 1.000000
-0.445264 0.489136 0.042373 0.000000 1.000000 0.000000 35 35 35 1.000000
-0.004090 -0.507699 -0.086502 0.000000 -1.000000 0.000000 35 35 35 1.000000
0.283426 0.489136 0.485198 0.000000 -1.000000 0.000000 35 35 35 1.000000
0.600843 0.230368 0.050337 1.000000 0.000000 0.000000 35 35 35 1.000000
0.600843 0.484391 -0.499282 1.000000 0.000000 0.000000 35 35 35 1.000000
0.516129 -0.219167 -0.235743 1.000000 0.000000 0.000000 35 35 35 1.000000
0.263432 0.559588 -0.353164 0.000000 -1.000000 0.000000 128 128 128 0.500000
0.516129 -0.402416 -0.378898 1.000000 0.000000 0.000000 35 35 35 1.000000
0.516129 0.187161 0.157979 1.000000 0.000000 0.000000 35 35 35 1.000000
0.600843 -0.149331 0.137757 -1.000000 0.000000 0.000000 35 35 35 1.000000
-0.045322 -0.575029 0.067472 0.000000 1.000000 0.000000 35 35 35 1.000000
0.387898 0.559588 -0.038210 0.000000 1.000000 0.000000 128 128 128 0.500000
0.212566 -0.575029 0.581768 0.000000 1.000000 0.000000 35 35 35 1.000000
0.516129 0.314351 -0.322170 1.000000 0.000000 0.000000 35 35 35 1.000000
-0.530497 0.405278 0.192209 -1.000000 0.000000 0.000000 35 35 35 1.000000
-0.530497 0.256199 0.162594 1.000000 0.000000 0.000000 35 35 35 1.000000
0.528567 -0.575029 0.278375 0.000000 1.000000 0.000000 35 35 35 1.000000
-0.110935 -0.016324 -0.552791 0.000000 0.000000 -1.000000 35 35 35 1.000000
-0.599471 -0.088555 0.036945 1.000000 0.000000 0.000000 35 35 35 1.000000
0.448035 -0.575029 0.525532 0.000000 -1.000000 0.000000 35 35 35 1.000000
0.172867 0.000342 0.133079 0.000000 -1.000000 0.000000 255 255 255 1.000000
0.600843 -0.078588 0.280239 1.000000 0.000000 0.000000 35 35 35 1.000000
-0.052265 -0.028373 -0.428311 0.000000 0.000000 1.000000 35 35 35 1.000000
-0.213929 0.489136 -0.243464 0.000000 1.000000 0.000000 35 35 35 1.000000
-0.260647 -0.507699 0.539335 0.000000 1.000000 0.000000 35 35 35 1.000000
-0.547684 0.559588 -0.487147 0.000000 -1.000000 0.000000 128 128 128 0.500000
0.348604 0.559588 0.117814 0.000000 1.000000 0.000000 128 128 128 0.500000
0.150112 -0.575029 0.166421 0.000000 -1.000000 0.000000 35 35 35 1.000000
-0.599471 -0.555070 0.441044 1.000000 0.000000 0.000000 35 35 35 1.000000
-0.207902 0.489136 0.066876 0.000000 -1.000000 0.000000 35 35 35 1.000000
-0.264440 -0.155141 0.613849 0.000000 0.000000 -1.000000 35 35 35 1.000000
-0.599471 0.273533 0.080081 1.000000 0.000000 0.000000 35 35 35 1.000000
0.087520 0.559588 -0.053761 0.000000 -1.000000 0.000000 128 128 128 0.500000
0.600843 -0.420139 -0.064816 -1.000000 0.000000 0.000000 35 35 35 1.000000
-0.423022 0.489136 -0.237853 0.000000 -1.000000 0.000000 35 35 35 1.000000
0.351751 -0.508519 -0.384967 0.000000 -1.000000 0.000000 35 35 35 1.000000
0.163299 -0.507699 -0.147523 0.000000 1.000000 0.000000 35 35 35 1.000000
0.505451 -0.557780 0.613849 0.000000 0.000000 -1.000000 35 35 35 1.000000
0.600843 -0.213936 0.351548 1.000000 0.000000 0.000000 35 35 35 1.000000
-0.530497 0.367496 -0.217175 -1.000000 0.000000 0.000000 35 35 35 1.000000
0.347553 -0.507699 0.259509 0.000000 1.000000 0.000000 35 35 35 1.000000
-0.390804 0.385318 -0.467725 0.000000 0.000000 1.000000 35 35 35 1.000000
0.516129 -0.416474 0.227040 -1.000000 0.000000 0.000000 35 35 35 1.000000
-0.458433 -0.507699 -0.151250 0.000000 1.000000 0.000000 35 35 35 1.000000
0.435230 -0.508519 -0.081051 0.000000 -1.000000 0.000000 35 35 35 1.000000
0.051605 -0.575029 -0.320946 0.000000 -1.000000 0.000000 35 35 35 1.000000
-0.599471 -0.414406 0.272034 1.000000 0.000000 0.000000 35 35 35 1.000000
0.516129 0.472988 0.391874 1.000000 0.000000 0.000000 35 35 35 1.000000
-0.440430 -0.508519 0.052534 0.000000 1.000000 0.000000 35 35 35 1.000000
-0.545069 0.489136 -0.194773 0.000000 1.000000 0.000000 35 35 35 1.000000
-0.303640 -0.575029 -0.349240 0.000000 1.000000 0.000000 35 35 35 1.000000
-0.124859 -0.219629 -0.523231 0.000000 0.000000 1.000000 35 35 35 1.000000
-0.057222 0.489136 0.514855 0.000000 1.000000 0.000000 35 35 35 1.000000
0.516129 0.340715 -0.035186 -1.000000 0.000000 0.000000 35 35 35 1.000000
0.395616 0.559588 -0.225533 0.000000 -1.000000 0.000000 128 128 128 0.500000
-0.010425 -0.109817 -0.552791 0.000000 0.000000 -1.000000 35 35 35 1.000000
-0.032679 -0.273129 -0.467725 0.000000 0.000000 -1.000000 35 35 35 1.000000
-0.142020 -0.286581 -0.467725 0.000000 0.000000 1.000000 35 35 35 1.000000
-0.599471 -0.199647 -0.345516 -1.000000 0.000000 0.000000 35 35 35 1.000000
0.044324 0.559588 0.436945 0.000000 1.000000 0.000000 128 128 128 0.500000
0.388880 0.555646 -0.316212 0.000000 1.000000 0.000000 128 128 128 0.500000
-0.462449 0.555646 0.611305 0.000000 -1.000000 0.000000 35 35 35 1.000000
-0.392149 -0.019667 -0.467725 0.000000 0.000000 1.000000 35 35 35 1.000000
-0.392821 -0.193271 -0.428311 0.000000 0.000000 -1.000000 35 35 35 1.000000
0.274102 -0.330546 -0.428311 0.000000 0.000000 -1.000000 35 35 35 1.000000
0.377406 -0.545910 -0.542938 0.000000 0.000000 1.000000 35 35 35 1.000000
-0.599471 0.236590 0.434135 1.000000 0.000000 0.000000 35 35 35 1.000000
-0.592201 -0.400480 0.629615 0.000000 0.000000 -1.000000 35 35 35 1.000000
0.074403 -0.167204 -0.428311 0.000000 0.000000 1.000000 35 35 35 1.000000
-0.348078 0.559588 0.470614 0.000000 -1.000000 0.000000 128 128 128 0.500000
-0.366389 0.502072 0.613849 0.000000 0.000000 1.000000 35 35 35 1.000000
0.075096 -0.334901 0.613849 0.000000 0.000000 1.000000 35 35 35 1.000000
0.149559 -0.507699 0.224023 0.000000 1.000000 0.000000 35 35 35 1.000000
0.516129 0.197495 0.431753 1.000000 0.000000 0.000000 35 35 35 1.000000
0.056200 -0.018971 0.536283 0.000000 -1.000000 0.000000 35 35 35 1.000000
0.248685 -0.575029 -0.027579 0.000000 1.000000 0.000000 35 35 35 1.000000
-0.173271 -0.575029 -0.454065 0.000000 1.000000 0.000000 35 35 35 1.000000
-0.403132 0.211183 0.574436 0.000000 0.000000 1.000000 35 35 35 1.000000
-0.530497 -0.158542 0.167877 -1.000000 0.000000 0.000000 35 35 35 1.000000
-0.599471 0.147964 -0.281388 1.000000 0.000000 0.000000 35 35 35 1.000000
0.600843 -0.044920 0.003984 1.000000 0.000000 0.000000 35 35 35 1.000000
-0.599471 -0.060748 0.152038 -1.000000 0.000000 0.000000 35 35 35 1.000000
0.448712 -0.575029 -0.211770 0.000000 -1.000000 0.000000 35 35 35 1.000000
-0.017084 0.489136 0.194572 0.000000 -1.000000 0.000000 35 35 35 1.000000
-0.340179 0.555646 -0.481599 0.000000 1.000000 0.000000 128 128 128 0.500000
0.600843 -0.149925 0.546590 1.000000 0.000000 0.000000 35 35 35 1.000000
0.117256 0.371286 -0.523231 0.000000 0.000000 1.000000 35 35 35 1.000000
-0.530497 0.474720 0.311403 -1.000000 0.000000 0.000000 35 35 35 1.000000
0.153573 0.079504 0.574436 0.000000 0.000000 -1.000000 35 35 35 1.000000
0.555543 0.114977 0.566423 1.000000 0.000000 0.000000 35 35 35 1.000000
0.270071 0.214056 -0.467725 0.000000 0.000000 -1.000000 35 35 35 1.000000
-0.516122 0.228803 -0.428311 0.000000 0.000000 1.000000 35 35 35 1.000000
-0.599471 0.265487 -0.019144 -1.000000 0.000000 0.000000 35 35 35 1.000000
0.555543 0.404881 -0.390072 -1.000000 0.000000 0.000000 35 35 35 1.000000
-0.530497 -0.361454 0.276798 -1.000000 0.000000 0.000000 35 35 35 1.000000
0.600843 -0.173346 -0.007265 -1.000000 0.000000 0.000000 35 35 35 1.000000
-0.099233 -0.508519 -0.098566 0.000000 -1.000000 0.000000 35 35 35 1.000000
0.600843 0.347161 0.329619 -1.000000 0.000000 0.000000 35 35 35 1.000000
-0.141669 -0.575029 0.092283 0.000000 1.000000 0.000000 35 35 35 1.000000
-0.599471 -0.230687 0.135940 1.000000 0.000000 0.000000 35 35 35 1.000000
0.600843 0.078017 -0.365609 1.000000 0.000000 0.000000 35 35 35 1.000000
-0.146270 -0.412792 -0.552791 0.000000 0.000000 -1.000000 35 35 35 1.000000
-0.543526 -0.575029 -0.296894 0.000000 1.000000 0.000000 35 35 35 1.000000
-0.569910 -0.257191 -0.484188 1.000000 0.000000 0.000000 35 35 35 1.000000
0.390791 -0.318260 0.574436 0.000000 0.000000 1.000000 35 35 35 1.000000
0.482160 -0.264095 -0.467725 0.000000 0.000000 -1.000000 35 35 35 1.000000
-0.381765 -0.276873 0.574436 0.000000 0.000000 -1.000000 35 35 35 1.000000
0.228027 -0.095756 -0.467725 0.000000 0.000000 -1.000000 35 35 35 1.000000
-0.599471 0.482393 0.451498 1.000000 0.000000 0.000000 35 35 35 1.000000
-0.499645 -0.575029 0.447502 0.000000 1.000000 0.000000 35 35 35 1.000000
-0.055423 -0.507699 0.548797 0.000000 -1.000000 0.000000 35 35 35 1.000000
-0.589187 0.416236 -0.552791 0.000000 0.000000 1.000000 35 35 35 1.000000
-0.530497 -0.372186 -0.354407 1.000000 0.000000 0.000000 35 35 35 1.000000
-0.599471 -0.190757 0.025493 1.000000 0.000000 0.000000 35 35 35 1.000000
