-0.060580 0.367616 -0.369656 0.300000 0.000000 0.600000
-0.512689 -0.142409 0.449963 0.000000 0.500000 0.500000
0.019815 -0.244923 0.148968 0.000000 0.500000 0.500000
-0.357552 0.549640 -0.434235 0.600000 0.300000 0.000000
0.166425 -0.244923 0.327332 0.000000 0.500000 0.500000
0.127588 -0.244923 0.161158 0.000000 0.500000 0.500000
0.477205 0.030780 -0.295208 0.600000 0.300000 0.000000
0.531780 0.282187 -0.332719 0.600000 0.300000 0.000000
-0.249015 -0.014422 -0.266251 0.300000 0.000000 0.600000
0.380295 -0.140778 0.246038 0.500000 0.500000 0.000000
0.181356 -0.244816 -0.177056 0.000000 0.500000 0.500000
0.201722 0.045346 -0.299157 0.600000 0.300000 0.000000
0.499702 0.125052 -0.301151 0.300000 0.000000 0.600000
0.422323 -0.244923 0.381429 0.000000 0.500000 0.500000
0.163884 -0.142743 0.594079 0.000000 0.500000 0.500000
-0.021737 0.030397 -0.295106 0.600000 0.300000 0.000000
-0.130807 0.659292 -0.433845 0.600000 0.300000 0.000000
0.202804 -0.244923 0.228840 0.000000 0.500000 0.500000
-0.476166 0.483441 -0.399631 0.300000 0.000000 0.600000
0.565675 -0.150284 0.405023 0.000000 0.500000 0.500000
0.572436 0.017298 -0.270776 0.600000 0.300000 0.000000
-0.417709 -0.244923 0.358333 0.000000 0.500000 0.500000
0.340655 -0.075967 -0.236660 0.600000 0.300000 0.000000
0.011303 0.329432 -0.374589 0.800000 0.200000 0.500000
0.551005 -0.223695 0.632484 0.000000 0.500000 0.500000
0.101356 0.047321 -0.283855 0.300000 0.000000 0.600000
-0.335187 -0.244923 0.222631 0.000000 0.500000 0.500000
0.104309 0.491983 -0.401913 0.300000 0.000000 0.600000
-0.582244 -0.184514 -0.020340 0.000000 0.500000 0.500000
-0.237320 -0.244923 0.352881 0.000000 0.500000 0.500000
0.366302 -0.244923 0.452301 0.000000 0.500000 0.500000
-0.561236 0.450338 -0.407628 0.600000 0.300000 0.000000
0.286218 0.422014 -0.400099 0.600000 0.300000 0.000000
0.050215 -0.142409 0.455846 0.000000 0.500000 0.500000
-0.440413 -0.140071 0.309172 0.500000 0.500000 0.000000
-0.361403 0.222139 -0.346543 0.600000 0.300000 0.000000
0.019180 0.312301 -0.370642 0.600000 0.300000 0.000000
-0.439362 -0.142875 0.514695 0.000000 0.500000 0.500000
0.166513 0.385787 -0.373513 0.300000 0.000000 0.600000
0.480776 0.588294 -0.444594 0.600000 0.300000 0.000000
0.535773 -0.244922 0.334288 0.000000 0.500000 0.500000
0.349621 -0.142640 -0.029135 0.000000 0.500000 0.500000
-0.300620 -0.216474 0.636434 0.000000 0.500000 0.500000
-0.425809 -0.202145 0.642412 0.000000 0.500000 0.500000
-0.403006 -0.142409 -0.147858 0.000000 0.500000 0.500000
-0.064956 -0.244923 0.282034 0.000000 0.500000 0.500000
-0.215253 -0.140416 0.018642 0.500000 0.500000 0.000000
-0.359704 -0.142409 0.436076 0.000000 0.500000 0.500000
-0.188090 -0.143330 -0.111303 0.000000 0.500000 0.500000
-0.373972 -0.244923 0.103012 0.000000 0.500000 0.500000
-0.439115 -0.244923 0.081590 0.000000 0.500000 0.500000
-0.308190 -0.239029 0.627241 0.000000 0.500000 0.500000
0.183334 -0.001685 -0.270725 0.300000 0.000000 0.600000
0.430599 -0.028834 -0.279236 0.600000 0.300000 0.000000
0.207761 0.292639 -0.348561 0.300000 0.000000 0.600000
-0.314320 0.611156 -0.450788 0.600000 0.300000 0.000000
0.442742 -0.244923 0.412289 0.000000 0.500000 0.500000
0.309506 0.041036 -0.282170 0.300000 0.000000 0.600000
0.011375 -0.244923 0.538319 0.000000 0.500000 0.500000
0.264945 0.648814 -0.460811 0.600000 0.300000 0.000000
-0.425994 -0.111708 -0.227830 0.600000 0.300000 0.000000
0.306473 -0.244923 0.336589 0.000000 0.500000 0.500000
-0.488243 0.084916 -0.292857 0.300000 0.000000 0.600000
-0.178751 0.484632 -0.416864 0.600000 0.300000 0.000000
-0.110408 0.581509 -0.426361 0.600000 0.300000 0.000000
-0.360174 0.379784 -0.371903 0.300000 0.000000 0.600000
-0.413152 0.359294 -0.366356 0.300000 0.000000 0.600000
-0.207591 -0.105399 -0.228924 0.600000 0.300000 0.000000
0.027199 -0.244923 0.215152 0.000000 0.500000 0.500000
0.204353 -0.142409 0.473532 0.000000 0.500000 0.500000
-0.139101 0.671669 -0.437348 0.600000 0.300000 0.000000
-0.511630 0.008045 -0.272354 0.300000 0.000000 0.600000
0.014712 0.189266 -0.337742 0.600000 0.300000 0.000000
0.239113 -0.140281 0.035049 0.500000 0.500000 0.000000
-0.118271 0.610032 -0.421006 0.600000 0.300000 0.000000
-0.584894 -0.081537 -0.261387 0.600000 0.300000 0.000000
-0.070102 0.512101 -0.424191 0.600000 0.300000 0.000000
0.340743 -0.141795 -0.068820 0.000000 0.500000 0.500000
-0.566496 -0.242147 0.446627 0.000000 0.500000 0.500000
0.255358 0.301427 -0.350909 0.300000 0.000000 0.600000
-0.154713 0.596083 -0.423470 0.600000 0.300000 0.000000
0.345269 -0.244923 0.335717 0.000000 0.500000 0.500000
-0.479487 0.129146 -0.321568 0.600000 0.300000 0.000000
0.483834 0.607011 -0.449662 0.600000 0.300000 0.000000
0.111089 0.117178 -0.318358 0.600000 0.300000 0.000000
-0.529293 -0.143409 0.574001 0.000000 0.500000 0.500000
0.382890 -0.140190 0.075956 0.500000 0.500000 0.000000
0.007418 -0.140568 0.239398 0.500000 0.500000 0.000000
-0.516183 0.487576 -0.400726 0.300000 0.000000 0.600000
0.051095 0.465649 -0.411775 0.600000 0.300000 0.000000
0.466009 -0.151773 -0.228895 0.600000 0.300000 0.000000
0.113184 0.403118 -0.395031 0.600000 0.300000 0.000000
-0.577664 0.324577 -0.343963 0.600000 0.300000 0.000000
-0.397142 -0.078205 -0.236807 0.600000 0.300000 0.000000
0.250672 -0.244923 0.196567 0.000000 0.500000 0.500000
0.032684 -0.187454 0.648819 0.000000 0.500000 0.500000
0.192740 -0.244923 -0.115413 0.000000 0.500000 0.500000
0.404360 -0.244923 0.282993 0.000000 0.500000 0.500000
-0.457273 0.095936 -0.295853 0.300000 0.000000 0.600000
-0.295971 -0.085576 -0.234488 0.600000 0.300000 0.000000
0.200402 0.483303 -0.399594 0.300000 0.000000 0.600000
-0.414659 -0.140514 0.377888 0.500000 0.500000 0.000000
-0.574114 -0.219354 0.126014 0.000000 0.500000 0.500000
0.557278 0.342838 -0.348751 0.600000 0.300000 0.000000
0.075612 0.136391 -0.307721 0.300000 0.000000 0.600000
-0.557462 -0.142475 -0.105519 0.000000 0.500000 0.500000
-0.127887 -0.028788 -0.262370 0.300000 0.000000 0.600000
0.282049 -0.244923 0.497453 0.000000 0.500000 0.500000
0.200642 -0.142744 -0.198190 0.000000 0.500000 0.500000
0.565158 -0.193575 0.584523 0.000000 0.500000 0.500000
-0.073371 -0.140206 0.096011 0.500000 0.500000 0.000000
-0.331118 -0.142409 0.426938 0.000000 0.500000 0.500000
0.419774 0.000233 -0.287091 0.600000 0.300000 0.000000
-0.514261 -0.142700 -0.026847 0.000000 0.500000 0.500000
-0.030118 0.206325 -0.342308 0.600000 0.300000 0.000000
-0.567684 -0.180934 -0.219152 0.000000 0.500000 0.500000
0.190202 -0.084414 -0.264368 0.600000 0.300000 0.000000
0.529627 -0.244923 0.279831 0.000000 0.500000 0.500000
0.063394 0.639744 -0.458379 0.600000 0.300000 0.000000
0.437028 -0.244923 0.536409 0.000000 0.500000 0.500000
0.148289 0.503781 -0.405082 0.300000 0.000000 0.600000
0.078300 0.305523 -0.367060 0.800000 0.200000 0.500000
0.017450 -0.244923 0.370760 0.000000 0.500000 0.500000
-0.404156 -0.140364 0.208103 0.500000 0.500000 0.000000
-0.574823 -0.216340 -0.161194 0.000000 0.500000 0.500000
0.476704 -0.143195 0.412074 0.000000 0.500000 0.500000
-0.320372 0.365746 -0.384961 0.600000 0.300000 0.000000
-0.387058 0.390786 -0.374846 0.300000 0.000000 0.600000
0.162459 -0.244923 0.263907 0.000000 0.500000 0.500000
0.434411 0.432420 -0.402883 0.600000 0.300000 0.000000
-0.582663 0.648144 -0.459909 0.600000 0.300000 0.000000
-0.489838 -0.223357 -0.201008 0.000000 0.500000 0.500000
-0.549043 0.120964 -0.319372 0.600000 0.300000 0.000000
-0.068428 0.261637 -0.357068 0.600000 0.300000 0.000000
0.572603 0.682528 -0.457235 0.600000 0.300000 0.000000
0.394202 0.705114 -0.453334 0.600000 0.300000 0.000000
0.245709 0.490242 -0.401447 0.300000 0.000000 0.600000
-0.029181 0.599479 -0.447592 0.600000 0.300000 0.000000
0.316567 0.322435 -0.373379 0.600000 0.300000 0.000000
-0.562128 -0.141547 0.386213 0.000000 0.500000 0.500000
-0.008285 -0.141543 0.001412 0.500000 0.500000 0.000000
0.153287 -0.079793 -0.235535 0.600000 0.300000 0.000000
0.183701 0.144732 -0.325810 0.600000 0.300000 0.000000
-0.149741 -0.244923 -0.119781 0.000000 0.500000 0.500000
-0.559568 0.364959 -0.354609 0.600000 0.300000 0.000000
0.570161 -0.162126 -0.015063 0.000000 0.500000 0.500000
-0.217551 0.675293 -0.438306 0.600000 0.300000 0.000000
0.008129 0.564855 -0.438342 0.600000 0.300000 0.000000
0.497969 0.122993 -0.319916 0.600000 0.300000 0.000000
0.037367 0.070316 -0.305803 0.600000 0.300000 0.000000
-0.341599 -0.154599 0.657159 0.000000 0.500000 0.500000
-0.404097 0.376881 -0.387993 0.600000 0.300000 0.000000
0.037043 -0.140129 0.341043 0.500000 0.500000 0.000000
-0.557899 0.088985 -0.280689 0.600000 0.300000 0.000000
0.357944 -0.140454 0.270358 0.500000 0.500000 0.000000
0.330487 -0.244923 0.321203 0.000000 0.500000 0.500000
0.557939 -0.228080 0.094940 0.000000 0.500000 0.500000
-0.319932 -0.244923 0.574891 0.000000 0.500000 0.500000
0.354571 -0.240031 -0.193522 0.000000 0.500000 0.500000
0.146953 -0.168229 0.656870 0.000000 0.500000 0.500000
-0.484015 -0.142297 -0.212420 0.000000 0.500000 0.500000
0.248379 0.038683 -0.297327 0.600000 0.300000 0.000000
-0.582788 -0.182274 0.279856 0.000000 0.500000 0.500000
0.315001 -0.244923 0.466444 0.000000 0.500000 0.500000
-0.499762 -0.143187 -0.139223 0.000000 0.500000 0.500000
0.048588 -0.244923 -0.059891 0.000000 0.500000 0.500000
-0.194431 -0.052767 -0.250487 0.600000 0.300000 0.000000
0.082162 -0.140349 0.135643 0.500000 0.500000 0.000000
-0.220915 -0.198237 -0.211967 0.000000 0.500000 0.500000
-0.495919 0.472773 -0.413708 0.600000 0.300000 0.000000
-0.485195 -0.139966 0.367501 0.500000 0.500000 0.000000
-0.275855 -0.140096 0.297592 0.500000 0.500000 0.000000
-0.081052 -0.051448 -0.251834 0.600000 0.300000 0.000000
-0.066534 -0.147939 0.521283 0.300000 0.600000 0.000000
-0.532595 -0.143410 0.551321 0.000000 0.500000 0.500000
-0.542515 -0.142409 0.493403 0.000000 0.500000 0.500000
-0.336964 0.118131 -0.318613 0.600000 0.300000 0.000000
-0.142494 -0.143254 0.409117 0.000000 0.500000 0.500000
0.289319 -0.244923 0.410881 0.000000 0.500000 0.500000
0.115795 -0.244923 0.380375 0.000000 0.500000 0.500000
-0.522700 -0.244923 0.397410 0.000000 0.500000 0.500000
0.240925 -0.193473 -0.214045 0.000000 0.500000 0.500000
0.092168 -0.244923 0.542713 0.000000 0.500000 0.500000
-0.347927 -0.244923 0.070111 0.000000 0.500000 0.500000
0.337179 -0.143410 0.446252 0.000000 0.500000 0.500000
0.022759 0.265216 -0.341475 0.300000 0.000000 0.600000
-0.367825 -0.142735 0.624250 0.000000 0.500000 0.500000
-0.486224 0.644886 -0.459757 0.600000 0.300000 0.000000
0.302741 -0.244923 0.023469 0.000000 0.500000 0.500000
0.263421 -0.142410 0.617136 0.000000 0.500000 0.500000
-0.009911 -0.140130 0.214286 0.500000 0.500000 0.000000
0.376779 -0.012057 -0.267936 0.300000 0.000000 0.600000
-0.049513 -0.244923 0.316193 0.000000 0.500000 0.500000
0.572764 -0.093625 -0.246817 0.600000 0.300000 0.000000
-0.123821 0.014925 -0.274106 0.300000 0.000000 0.600000
-0.207062 -0.242984 0.623807 0.000000 0.500000 0.500000
0.504902 -0.142466 -0.105962 0.000000 0.500000 0.500000
0.054079 -0.068923 -0.238772 0.600000 0.300000 0.000000
0.054076 0.387589 -0.373996 0.300000 0.000000 0.600000
-0.201205 0.312739 -0.353890 0.300000 0.000000 0.600000
-0.035578 -0.219171 0.636081 0.000000 0.500000 0.500000
-0.362617 0.123225 -0.303117 0.300000 0.000000 0.600000
0.502560 0.381183 -0.389165 0.600000 0.300000 0.000000
0.252280 -0.142668 0.601348 0.000000 0.500000 0.500000
-0.007354 -0.244923 0.472674 0.000000 0.500000 0.500000
-0.078635 0.028763 -0.294668 0.600000 0.300000 0.000000
-0.093592 -0.142102 -0.248936 0.600000 0.300000 0.000000
0.508853 -0.044193 -0.275186 0.600000 0.300000 0.000000
0.533500 0.684959 -0.440769 0.600000 0.300000 0.000000
-0.457307 -0.139966 0.152969 0.500000 0.500000 0.000000
0.044278 -0.244923 0.303623 0.000000 0.500000 0.500000
0.413525 0.072717 -0.306447 0.600000 0.300000 0.000000
-0.581697 -0.186805 0.436684 0.000000 0.500000 0.500000
-0.119363 0.401732 -0.378766 0.300000 0.000000 0.600000
0.234333 0.465793 -0.394903 0.300000 0.000000 0.600000
0.565345 0.336721 -0.376303 0.600000 0.300000 0.000000
0.408197 -0.142545 -0.009389 0.000000 0.500000 0.500000
-0.547230 -0.244918 0.223083 0.000000 0.500000 0.500000
0.508921 0.062704 -0.283070 0.600000 0.300000 0.000000
0.566368 -0.187624 0.244862 0.000000 0.500000 0.500000
0.479486 0.624427 -0.454324 0.600000 0.300000 0.000000
-0.525868 -0.142934 -0.172214 0.000000 0.500000 0.500000
0.166935 -0.244923 -0.053141 0.000000 0.500000 0.500000
0.538445 -0.244922 -0.074042 0.000000 0.500000 0.500000
0.562411 -0.208004 0.139661 0.000000 0.500000 0.500000
0.472366 -0.142409 -0.082415 0.000000 0.500000 0.500000
0.286930 0.334989 -0.359903 0.300000 0.000000 0.600000
-0.578142 -0.201915 0.370561 0.000000 0.500000 0.500000
-0.028222 0.674500 -0.467759 0.600000 0.300000 0.000000
0.005507 -0.142565 0.408923 0.000000 0.500000 0.500000
0.167006 0.648474 -0.431107 0.600000 0.300000 0.000000
-0.135445 0.258074 -0.356113 0.600000 0.300000 0.000000
-0.277142 0.615186 -0.451868 0.600000 0.300000 0.000000
-0.188875 -0.142434 -0.164292 0.000000 0.500000 0.500000
-0.320220 -0.142409 -0.039748 0.000000 0.500000 0.500000
0.396406 -0.244923 0.483238 0.000000 0.500000 0.500000
-0.069155 0.689457 -0.471121 0.600000 0.300000 0.000000
-0.285477 -0.142618 0.615995 0.000000 0.500000 0.500000
-0.459635 -0.142668 -0.171644 0.000000 0.500000 0.500000
0.233919 0.506404 -0.422653 0.600000 0.300000 0.000000
-0.259853 0.518864 -0.410205 0.300000 0.000000 0.600000
-0.031611 -0.140667 -0.249314 0.600000 0.300000 0.000000
-0.483428 -0.244923 0.220685 0.000000 0.500000 0.500000
-0.103835 0.669505 -0.436824 0.600000 0.300000 0.000000
-0.534861 0.523945 -0.402008 0.600000 0.300000 0.000000
0.044944 -0.142410 0.416898 0.000000 0.500000 0.500000
0.009116 -0.244923 0.502493 0.000000 0.500000 0.500000
-0.486812 -0.199927 0.643562 0.000000 0.500000 0.500000
-0.518100 -0.043359 -0.256976 0.600000 0.300000 0.000000
0.563713 -0.198901 0.533126 0.000000 0.500000 0.500000
-0.234076 -0.142409 -0.188506 0.000000 0.500000 0.500000
0.557602 -0.229415 0.197451 0.000000 0.500000 0.500000
0.538503 -0.174036 0.655424 0.000000 0.500000 0.500000
0.254464 -0.244922 -0.163359 0.000000 0.500000 0.500000
-0.575793 0.400704 -0.364589 0.600000 0.300000 0.000000
-0.275207 0.217711 -0.345357 0.600000 0.300000 0.000000
-0.582506 -0.183437 0.015972 0.000000 0.500000 0.500000
-0.123241 -0.244923 0.132385 0.000000 0.500000 0.500000
-0.359600 0.326284 -0.357568 0.300000 0.000000 0.600000
-0.543658 0.212953 -0.314087 0.600000 0.300000 0.000000
-0.219645 0.364440 -0.367748 0.300000 0.000000 0.600000
0.387020 -0.181545 0.652127 0.000000 0.500000 0.500000
0.528220 -0.244923 -0.013381 0.000000 0.500000 0.500000
0.540322 0.003116 -0.287863 0.600000 0.300000 0.000000
0.503202 -0.244923 0.148801 0.000000 0.500000 0.500000
0.303628 0.678566 -0.468845 0.600000 0.300000 0.000000
-0.137415 -0.142649 -0.211095 0.000000 0.500000 0.500000
0.201428 0.199567 -0.323618 0.300000 0.000000 0.600000
-0.179787 -0.244923 0.347730 0.000000 0.500000 0.500000
0.239036 -0.141624 0.395298 0.000000 0.500000 0.500000
-0.382832 -0.142409 -0.160110 0.000000 0.500000 0.500000
0.112446 -0.142386 -0.012136 0.000000 0.500000 0.500000
0.125077 0.258287 -0.356171 0.600000 0.300000 0.000000
-0.120169 0.099252 -0.313621 0.600000 0.300000 0.000000
0.322899 -0.244923 -0.032368 0.000000 0.500000 0.500000
0.279161 -0.140191 0.207858 0.500000 0.500000 0.000000
-0.176619 -0.244923 0.262971 0.000000 0.500000 0.500000
0.570704 -0.168133 -0.084139 0.000000 0.500000 0.500000
0.343584 -0.140057 0.091058 0.500000 0.500000 0.000000
0.567776 -0.182261 0.205319 0.000000 0.500000 0.500000
-0.221249 0.260197 -0.356682 0.600000 0.300000 0.000000
0.455965 0.055016 -0.301732 0.600000 0.300000 0.000000
-0.522246 0.402582 -0.394886 0.600000 0.300000 0.000000
0.353370 -0.244923 -0.016801 0.000000 0.500000 0.500000
0.447816 -0.011875 -0.283780 0.600000 0.300000 0.000000
0.039536 -0.142968 -0.078384 0.000000 0.500000 0.500000
-0.246008 -0.244908 0.600079 0.000000 0.500000 0.500000
0.542906 0.268785 -0.328825 0.600000 0.300000 0.000000
0.356629 -0.244923 0.100512 0.000000 0.500000 0.500000
-0.240327 0.427819 -0.385140 0.300000 0.000000 0.600000
-0.376223 0.193634 -0.322033 0.300000 0.000000 0.600000
0.375961 -0.142259 -0.161502 0.000000 0.500000 0.500000
-0.173464 -0.244923 -0.061926 0.000000 0.500000 0.500000
-0.017314 -0.140714 0.244280 0.500000 0.500000 0.000000
-0.332566 -0.196447 -0.212747 0.000000 0.500000 0.500000
0.250774 -0.244923 0.059713 0.000000 0.500000 0.500000
-0.193436 -0.140282 0.195395 0.500000 0.500000 0.000000
-0.569880 -0.200157 -0.208932 0.000000 0.500000 0.500000
0.492181 0.353326 -0.381634 0.600000 0.300000 0.000000
0.529459 0.304877 -0.339183 0.600000 0.300000 0.000000
-0.201377 0.088522 -0.293849 0.300000 0.000000 0.600000
-0.387812 0.521417 -0.410183 0.300000 0.000000 0.600000
-0.561199 0.274373 -0.360519 0.600000 0.300000 0.000000
-0.540259 0.460955 -0.410482 0.600000 0.300000 0.000000
-0.581477 -0.187740 0.067394 0.000000 0.500000 0.500000
-0.052951 -0.140067 0.298684 0.500000 0.500000 0.000000
-0.370875 0.421201 -0.399880 0.600000 0.300000 0.000000
-0.429187 0.341428 -0.378508 0.600000 0.300000 0.000000
0.046846 -0.141305 0.390311 0.500000 0.500000 0.000000
-0.092872 -0.244923 0.382821 0.000000 0.500000 0.500000
-0.378424 -0.131255 -0.251793 0.600000 0.300000 0.000000
-0.318461 0.665080 -0.435445 0.600000 0.300000 0.000000
-0.363274 -0.244923 0.294968 0.000000 0.500000 0.500000
-0.202368 0.115919 -0.318020 0.600000 0.300000 0.000000
-0.577136 -0.206262 0.421701 0.000000 0.500000 0.500000
0.209536 -0.244923 0.448965 0.000000 0.500000 0.500000
0.526194 -0.088358 -0.263334 0.600000 0.300000 0.000000
-0.312954 0.203402 -0.341526 0.600000 0.300000 0.000000
0.114770 -0.244923 0.574573 0.000000 0.500000 0.500000
0.493148 0.524337 -0.427524 0.600000 0.300000 0.000000
-0.372380 -0.244923 0.393885 0.000000 0.500000 0.500000
0.322084 0.277441 -0.344456 0.300000 0.000000 0.600000
-0.305594 -0.143241 -0.095151 0.000000 0.500000 0.500000
0.515006 -0.143410 0.585067 0.000000 0.500000 0.500000
-0.410532 0.341368 -0.378493 0.600000 0.300000 0.000000
0.369942 -0.229015 0.631776 0.000000 0.500000 0.500000
0.560778 -0.216073 -0.011961 0.000000 0.500000 0.500000
0.264932 -0.072288 -0.237741 0.600000 0.300000 0.000000
0.383438 -0.244923 0.506741 0.000000 0.500000 0.500000
-0.319971 -0.244923 0.272604 0.000000 0.500000 0.500000
0.555740 0.023332 -0.293179 0.600000 0.300000 0.000000
0.173264 0.368217 -0.385624 0.600000 0.300000 0.000000
-0.298121 -0.143388 0.544760 0.000000 0.500000 0.500000
-0.105499 0.371644 -0.386552 0.600000 0.300000 0.000000
0.059639 -0.244923 0.012716 0.000000 0.500000 0.500000
-0.174085 -0.142743 -0.044779 0.000000 0.500000 0.500000
0.500804 0.626364 -0.424701 0.600000 0.300000 0.000000
-0.297729 0.579854 -0.442345 0.600000 0.300000 0.000000
0.234095 -0.244923 -0.096022 0.000000 0.500000 0.500000
0.082522 -0.244923 0.323905 0.000000 0.500000 0.500000
0.022260 0.453189 -0.408393 0.600000 0.300000 0.000000
0.157681 -0.140724 0.016677 0.500000 0.500000 0.000000
0.528694 -0.142302 -0.195332 0.000000 0.500000 0.500000
0.183654 -0.141042 0.009441 0.500000 0.500000 0.000000
-0.121693 -0.113714 -0.226950 0.600000 0.300000 0.000000
-0.225589 0.389870 -0.374605 0.300000 0.000000 0.600000
-0.041031 -0.244923 -0.080938 0.000000 0.500000 0.500000
0.379509 -0.244923 -0.129797 0.000000 0.500000 0.500000
0.568929 -0.157007 -0.219269 0.000000 0.500000 0.500000
-0.114333 -0.235778 0.628843 0.000000 0.500000 0.500000
-0.496040 0.126078 -0.303900 0.300000 0.000000 0.600000
0.010379 -0.144229 0.519013 0.000000 0.500000 0.500000
0.529308 -0.140714 0.133248 0.000000 0.500000 0.500000
0.572639 -0.072209 -0.252128 0.600000 0.300000 0.000000
-0.131753 -0.140593 0.247153 0.500000 0.500000 0.000000
-0.420820 0.680884 -0.469464 0.600000 0.300000 0.000000
-0.516154 -0.143410 0.545762 0.000000 0.500000 0.500000
-0.405485 -0.140044 0.302452 0.500000 0.500000 0.000000
-0.084020 -0.068797 -0.268527 0.600000 0.300000 0.000000
-0.410861 -0.244923 -0.020238 0.000000 0.500000 0.500000
-0.031940 0.247012 -0.353171 0.600000 0.300000 0.000000
0.237324 -0.244923 0.431208 0.000000 0.500000 0.500000
-0.462003 -0.164458 -0.225007 0.000000 0.500000 0.500000
0.373943 0.670354 -0.466650 0.600000 0.300000 0.000000
0.106220 0.631170 -0.426678 0.600000 0.300000 0.000000
-0.499570 0.405315 -0.378692 0.300000 0.000000 0.600000
-0.246300 -0.142410 -0.070019 0.000000 0.500000 0.500000
0.572682 0.354539 -0.363813 0.600000 0.300000 0.000000
0.498741 -0.140239 0.288595 0.500000 0.500000 0.000000
-0.225108 -0.226268 0.632558 0.000000 0.500000 0.500000
0.220670 -0.140637 0.101634 0.500000 0.500000 0.000000
-0.355120 0.404307 -0.395348 0.600000 0.300000 0.000000
0.377328 0.532761 -0.429774 0.600000 0.300000 0.000000
0.112343 -0.244923 0.450821 0.000000 0.500000 0.500000
0.131539 0.354597 -0.365099 0.300000 0.000000 0.600000
0.028970 -0.244923 -0.119081 0.000000 0.500000 0.500000
-0.425043 0.234275 -0.332914 0.300000 0.000000 0.600000
-0.098153 -0.196138 0.645153 0.000000 0.500000 0.500000
-0.428774 -0.142439 -0.073824 0.000000 0.500000 0.500000
-0.470187 -0.141790 0.397893 0.000000 0.500000 0.500000
0.060229 -0.176979 0.653679 0.000000 0.500000 0.500000
0.174228 0.358957 -0.366266 0.300000 0.000000 0.600000
-0.132110 -0.244923 0.516110 0.000000 0.500000 0.500000
0.354031 0.104482 -0.314993 0.600000 0.300000 0.000000
-0.436565 0.103381 -0.297849 0.300000 0.000000 0.600000
0.037506 -0.140879 0.242444 0.500000 0.500000 0.000000
-0.189706 0.110599 -0.299776 0.300000 0.000000 0.600000
-0.552501 -0.149534 -0.224117 0.600000 0.300000 0.000000
0.407433 -0.244923 0.427399 0.000000 0.500000 0.500000
-0.004751 0.111989 -0.300552 0.300000 0.000000 0.600000
0.489956 0.585185 -0.424993 0.600000 0.300000 0.000000
0.454787 0.128738 -0.321457 0.600000 0.300000 0.000000
-0.527509 0.697819 -0.469185 0.600000 0.300000 0.000000
-0.171871 -0.140594 0.264777 0.500000 0.500000 0.000000
-0.208278 0.338478 -0.360838 0.300000 0.000000 0.600000
0.553522 -0.241015 0.507654 0.000000 0.500000 0.500000
0.128877 0.011396 -0.290072 0.600000 0.300000 0.000000
-0.415301 0.589594 -0.425323 0.600000 0.300000 0.000000
0.523387 -0.176835 -0.221306 0.000000 0.500000 0.500000
-0.192863 -0.244923 0.416255 0.000000 0.500000 0.500000
0.476803 0.519252 -0.426159 0.600000 0.300000 0.000000
-0.037101 -0.244923 0.469254 0.000000 0.500000 0.500000
-0.402289 -0.142418 -0.043625 0.000000 0.500000 0.500000
0.128066 -0.244923 0.011880 0.000000 0.500000 0.500000
0.569816 -0.175924 -0.041631 0.000000 0.500000 0.500000
-0.279525 0.043290 -0.281739 0.300000 0.000000 0.600000
0.294794 -0.244923 0.545402 0.000000 0.500000 0.500000
0.257530 -0.244923 0.477108 0.000000 0.500000 0.500000
0.022691 0.006110 -0.272816 0.300000 0.000000 0.600000
0.074066 -0.143173 0.556621 0.000000 0.500000 0.500000
0.572345 -0.137265 -0.232892 0.600000 0.300000 0.000000
-0.359827 -0.244923 0.366874 0.000000 0.500000 0.500000
0.530221 0.401187 -0.394513 0.600000 0.300000 0.000000
-0.030865 0.345685 -0.363769 0.300000 0.000000 0.600000
0.534210 -0.143236 0.560302 0.000000 0.500000 0.500000
-0.584826 0.371404 -0.382870 0.600000 0.300000 0.000000
-0.447212 0.019732 -0.292257 0.600000 0.300000 0.000000
0.095660 -0.140638 0.016006 0.500000 0.500000 0.000000
-0.263212 0.387979 -0.390984 0.600000 0.300000 0.000000
-0.443230 -0.244923 0.569616 0.000000 0.500000 0.500000
-0.018800 -0.142409 -0.187777 0.000000 0.500000 0.500000
0.337333 -0.190094 0.648644 0.000000 0.500000 0.500000
-0.431494 -0.142686 -0.040904 0.000000 0.500000 0.500000
0.509534 0.671493 -0.437470 0.600000 0.300000 0.000000
-0.380882 0.619294 -0.452968 0.600000 0.300000 0.000000
0.506213 0.524627 -0.409018 0.600000 0.300000 0.000000
0.438047 0.663336 -0.434596 0.600000 0.300000 0.000000
-0.087495 0.284659 -0.363302 0.600000 0.300000 0.000000
-0.465593 -0.242582 0.624734 0.000000 0.500000 0.500000
0.559885 -0.205329 -0.204615 0.000000 0.500000 0.500000
-0.465720 -0.152494 0.656435 0.000000 0.500000 0.500000
0.083967 -0.244923 0.445929 0.000000 0.500000 0.500000
-0.463833 -0.244923 0.494929 0.000000 0.500000 0.500000
0.050447 0.302603 -0.368043 0.600000 0.300000 0.000000
-0.563011 -0.243894 -0.090632 0.000000 0.500000 0.500000
0.153385 -0.139966 0.292342 0.500000 0.500000 0.000000
-0.292964 -0.080653 -0.265354 0.600000 0.300000 0.000000
-0.038882 0.464788 -0.411537 0.600000 0.300000 0.000000
-0.413679 -0.183469 0.650575 0.000000 0.500000 0.500000
0.192467 -0.143410 0.554318 0.000000 0.500000 0.500000
0.534827 -0.244921 0.370997 0.000000 0.500000 0.500000
0.339288 -0.244923 -0.134532 0.000000 0.500000 0.500000
-0.214325 -0.140713 0.259790 0.500000 0.500000 0.000000
0.530185 0.461893 -0.410741 0.600000 0.300000 0.000000
0.532867 -0.142409 -0.075895 0.000000 0.500000 0.500000
-0.346151 -0.083898 -0.235416 0.600000 0.300000 0.000000
-0.467915 -0.244923 0.316639 0.000000 0.500000 0.500000
-0.064599 -0.244923 -0.058920 0.000000 0.500000 0.500000
-0.261093 -0.244923 0.330815 0.000000 0.500000 0.500000
-0.155242 0.057861 -0.302478 0.600000 0.300000 0.000000
-0.160957 0.451996 -0.408074 0.600000 0.300000 0.000000
-0.584950 -0.171679 0.043683 0.000000 0.500000 0.500000
0.567611 -0.139771 -0.247764 0.600000 0.300000 0.000000
-0.063698 0.024116 -0.293422 0.600000 0.300000 0.000000
0.444670 0.250042 -0.337136 0.300000 0.000000 0.600000
-0.532720 -0.244923 0.126723 0.000000 0.500000 0.500000
0.281236 -0.244923 0.584496 0.000000 0.500000 0.500000
0.312656 -0.044911 -0.257370 0.600000 0.300000 0.000000
-0.194713 -0.244923 -0.057718 0.000000 0.500000 0.500000
0.479117 -0.140141 0.304996 0.500000 0.500000 0.000000
0.071171 0.012622 -0.290393 0.600000 0.300000 0.000000
-0.340770 -0.139966 0.364101 0.500000 0.500000 0.000000
0.435847 -0.142876 -0.181025 0.000000 0.500000 0.500000
-0.025250 0.121763 -0.302717 0.300000 0.000000 0.600000
-0.200439 -0.244923 0.470875 0.000000 0.500000 0.500000
-0.107921 -0.144076 0.572766 0.600000 0.000000 0.300000
0.129938 -0.244923 0.466410 0.000000 0.500000 0.500000
0.181825 0.488093 -0.400873 0.300000 0.000000 0.600000
-0.373941 -0.244923 0.280865 0.000000 0.500000 0.500000
-0.364253 -0.142409 -0.193650 0.000000 0.500000 0.500000
-0.042916 -0.142410 0.632465 0.000000 0.500000 0.500000
0.017579 -0.140245 -0.220161 0.600000 0.300000 0.000000
-0.202951 -0.244389 -0.187196 0.000000 0.500000 0.500000
-0.502498 0.601311 -0.421610 0.600000 0.300000 0.000000
0.256892 0.615923 -0.452065 0.600000 0.300000 0.000000
0.346458 -0.143021 0.588371 0.000000 0.500000 0.500000
-0.055651 -0.244923 0.110450 0.000000 0.500000 0.500000
0.165155 -0.143273 0.565541 0.000000 0.500000 0.500000
0.558187 -0.115431 -0.255978 0.600000 0.300000 0.000000
-0.012073 0.702931 -0.447027 0.600000 0.300000 0.000000
0.512019 -0.140680 0.236626 0.500000 0.500000 0.000000
-0.118050 -0.244923 -0.133921 0.000000 0.500000 0.500000
0.337809 -0.244923 0.452329 0.000000 0.500000 0.500000
0.135355 0.526433 -0.428085 0.600000 0.300000 0.000000
0.322896 -0.140140 0.293751 0.500000 0.500000 0.000000
-0.110596 0.315681 -0.354696 0.300000 0.000000 0.600000
0.093817 0.431521 -0.402647 0.600000 0.300000 0.000000
0.467405 0.351781 -0.364346 0.300000 0.000000 0.600000
-0.081176 0.411109 -0.381277 0.300000 0.000000 0.600000
0.293049 0.029950 -0.279143 0.300000 0.000000 0.600000
-0.223526 -0.142409 -0.058475 0.000000 0.500000 0.500000
-0.238827 -0.145912 0.464304 0.300000 0.600000 0.000000
0.266376 0.242665 -0.335162 0.300000 0.000000 0.600000
-0.391806 -0.226981 0.631916 0.000000 0.500000 0.500000
0.145873 0.410938 -0.380195 0.300000 0.000000 0.600000
-0.435543 0.007274 -0.288977 0.600000 0.300000 0.000000
-0.587097 0.542759 -0.418004 0.600000 0.300000 0.000000
-0.004533 -0.107404 -0.229853 0.800000 0.200000 0.500000
-0.287712 -0.142409 -0.048670 0.000000 0.500000 0.500000
-0.128378 -0.140230 0.211953 0.500000 0.500000 0.000000
-0.448593 -0.244923 -0.097245 0.000000 0.500000 0.500000
-0.034929 -0.148299 0.517880 0.300000 0.600000 0.000000
0.292607 0.266665 -0.341537 0.300000 0.000000 0.600000
0.132132 -0.139984 0.348478 0.500000 0.500000 0.000000
-0.400668 -0.140117 0.134810 0.500000 0.500000 0.000000
-0.039722 0.344491 -0.377503 0.800000 0.200000 0.500000
-0.469569 -0.244813 0.609884 0.000000 0.500000 0.500000
0.138596 -0.244923 0.326071 0.000000 0.500000 0.500000
-0.000521 0.067793 -0.288788 0.300000 0.000000 0.600000
0.308941 -0.140071 0.357252 0.500000 0.500000 0.000000
-0.028971 0.426360 -0.401268 0.600000 0.300000 0.000000
0.527384 -0.140342 0.019872 0.500000 0.500000 0.000000
-0.043597 0.663893 -0.464918 0.600000 0.300000 0.000000
0.424016 0.151673 -0.310765 0.300000 0.000000 0.600000
0.363123 -0.142724 0.611955 0.000000 0.500000 0.500000
-0.040100 -0.244923 -0.148170 0.000000 0.500000 0.500000
-0.188707 -0.140361 0.050142 0.500000 0.500000 0.000000
-0.400291 0.101926 -0.297459 0.300000 0.000000 0.600000
0.019826 0.681035 -0.469505 0.600000 0.300000 0.000000
0.344567 0.142608 -0.325241 0.600000 0.300000 0.000000
-0.352907 -0.140105 0.143434 0.500000 0.500000 0.000000
-0.020103 -0.154234 0.657122 0.000000 0.500000 0.500000
-0.128337 0.596704 -0.423269 0.600000 0.300000 0.000000
-0.444272 0.433347 -0.386256 0.300000 0.000000 0.600000
-0.223948 0.441609 -0.405291 0.600000 0.300000 0.000000
-0.030102 -0.244923 0.057944 0.000000 0.500000 0.500000
0.357861 -0.244923 0.344651 0.000000 0.500000 0.500000
-0.513122 -0.244923 0.440593 0.000000 0.500000 0.500000
0.293436 -0.140065 0.220260 0.500000 0.500000 0.000000
0.516203 0.555505 -0.411208 0.600000 0.300000 0.000000
0.357536 0.360829 -0.383644 0.600000 0.300000 0.000000
0.301377 0.496933 -0.403239 0.300000 0.000000 0.600000
-0.338009 0.530235 -0.429103 0.600000 0.300000 0.000000
0.144613 0.689295 -0.471098 0.600000 0.300000 0.000000
0.386511 -0.244923 0.158841 0.000000 0.500000 0.500000
0.144207 0.139743 -0.324473 0.600000 0.300000 0.000000
-0.039985 0.563815 -0.438055 0.600000 0.300000 0.000000
-0.280590 -0.140672 0.247940 0.500000 0.500000 0.000000
-0.165059 -0.142409 -0.180093 0.000000 0.500000 0.500000
-0.569984 0.564592 -0.408582 0.600000 0.300000 0.000000
0.538399 0.606376 -0.419647 0.600000 0.300000 0.000000
0.181914 -0.244923 0.182513 0.000000 0.500000 0.500000
-0.081975 -0.244923 0.443139 0.000000 0.500000 0.500000
0.507951 0.003399 -0.268685 0.600000 0.300000 0.000000
0.568537 0.002514 -0.260264 0.600000 0.300000 0.000000
-0.232041 -0.140145 0.161153 0.500000 0.500000 0.000000
-0.112811 -0.143318 0.409739 0.000000 0.500000 0.500000
-0.086466 0.112145 -0.300181 0.300000 0.000000 0.600000
0.431296 -0.244923 0.281530 0.000000 0.500000 0.500000
0.556370 -0.233071 0.452833 0.000000 0.500000 0.500000
0.146378 0.522416 -0.410121 0.300000 0.000000 0.600000
-0.105677 -0.227611 -0.199146 0.000000 0.500000 0.500000
0.556332 -0.234424 -0.034238 0.000000 0.500000 0.500000
0.442291 -0.237396 0.628089 0.000000 0.500000 0.500000
-0.007112 -0.146339 0.506408 0.300000 0.600000 0.000000
0.252879 0.125841 -0.303974 0.300000 0.000000 0.600000
0.331703 0.285103 -0.363422 0.600000 0.300000 0.000000
0.518737 -0.244923 -0.155394 0.000000 0.500000 0.500000
0.085116 0.702546 -0.446200 0.600000 0.300000 0.000000
0.538105 -0.143134 0.508334 0.000000 0.500000 0.500000
-0.431657 -0.244923 0.243857 0.000000 0.500000 0.500000
0.214174 0.164756 -0.331108 0.600000 0.300000 0.000000
0.551885 0.382955 -0.389639 0.600000 0.300000 0.000000
-0.045461 0.182772 -0.335958 0.600000 0.300000 0.000000
0.238442 -0.142409 0.484022 0.000000 0.500000 0.500000
-0.120196 0.207510 -0.325703 0.300000 0.000000 0.600000
0.543939 -0.244801 0.412029 0.000000 0.500000 0.500000
-0.574002 -0.219832 0.262215 0.000000 0.500000 0.500000
-0.524307 0.381989 -0.389380 0.600000 0.300000 0.000000
0.439759 -0.142744 -0.121771 0.000000 0.500000 0.500000
-0.274278 -0.244923 -0.109631 0.000000 0.500000 0.500000
0.569091 -0.177658 0.076770 0.000000 0.500000 0.500000
-0.238579 0.323984 -0.373805 0.600000 0.300000 0.000000
0.326870 -0.007604 -0.269139 0.300000 0.000000 0.600000
-0.176246 -0.109174 -0.257735 0.600000 0.300000 0.000000
-0.586573 0.080532 -0.297579 0.600000 0.300000 0.000000
0.279733 -0.181545 0.652042 0.000000 0.500000 0.500000
0.019011 -0.244923 0.584525 0.000000 0.500000 0.500000
0.461708 -0.244923 0.449274 0.000000 0.500000 0.500000
0.567258 -0.186966 -0.013805 0.000000 0.500000 0.500000
0.486362 0.686733 -0.470694 0.600000 0.300000 0.000000
0.567012 0.626967 -0.453011 0.600000 0.300000 0.000000
0.084824 0.215911 -0.344874 0.600000 0.300000 0.000000
-0.471099 -0.143077 0.566024 0.000000 0.500000 0.500000
0.406454 -0.142971 -0.210737 0.000000 0.500000 0.500000
-0.316738 -0.244923 0.066918 0.000000 0.500000 0.500000
0.436926 0.214873 -0.327661 0.300000 0.000000 0.600000
0.384901 -0.016657 -0.282499 0.600000 0.300000 0.000000
0.251971 -0.140536 0.115033 0.500000 0.500000 0.000000
-0.553464 -0.032344 -0.278312 0.600000 0.300000 0.000000
-0.549615 -0.142522 -0.033634 0.000000 0.500000 0.500000
0.428414 -0.140648 0.179919 0.500000 0.500000 0.000000
-0.045782 0.292697 -0.365440 0.600000 0.300000 0.000000
0.060666 -0.140263 0.157113 0.500000 0.500000 0.000000
-0.315454 -0.244923 0.432277 0.000000 0.500000 0.500000
-0.228204 0.399101 -0.393956 0.600000 0.300000 0.000000
-0.329744 -0.139967 0.280381 0.500000 0.500000 0.000000
0.086496 -0.140161 0.149806 0.500000 0.500000 0.000000
0.053374 -0.244923 -0.110870 0.000000 0.500000 0.500000
-0.100498 0.093881 -0.312183 0.600000 0.300000 0.000000
-0.206436 -0.145644 0.432614 0.000000 0.500000 0.500000
0.566753 -0.185985 0.410026 0.000000 0.500000 0.500000
-0.458958 0.516368 -0.425364 0.600000 0.300000 0.000000
-0.244266 -0.134344 -0.250979 0.600000 0.300000 0.000000
0.021113 0.705096 -0.453427 0.600000 0.300000 0.000000
0.291857 0.680956 -0.439323 0.600000 0.300000 0.000000
0.134544 0.492009 -0.418799 0.600000 0.300000 0.000000
0.113051 -0.244923 0.283020 0.000000 0.500000 0.500000
0.229137 0.630933 -0.456029 0.600000 0.300000 0.000000
0.248646 -0.244860 0.605030 0.000000 0.500000 0.500000
0.195036 -0.244923 0.489924 0.000000 0.500000 0.500000
-0.497404 0.334952 -0.359893 0.300000 0.000000 0.600000
0.108890 -0.244923 0.080332 0.000000 0.500000 0.500000
-0.009762 0.309520 -0.369897 0.600000 0.300000 0.000000
0.567379 -0.167226 0.654192 0.000000 0.500000 0.500000
-0.086002 -0.141755 -0.002291 0.000000 0.500000 0.500000
0.057972 0.477857 -0.398137 0.300000 0.000000 0.600000
-0.171355 -0.140502 0.176226 0.500000 0.500000 0.000000
0.510861 -0.138531 -0.220105 0.000000 0.500000 0.500000
0.537131 0.437835 -0.404303 0.600000 0.300000 0.000000
-0.287513 0.471175 -0.413279 0.600000 0.300000 0.000000
0.352739 -0.244814 0.609713 0.000000 0.500000 0.500000
-0.134767 -0.236539 0.628511 0.000000 0.500000 0.500000
-0.225292 0.422463 -0.383770 0.300000 0.000000 0.600000
0.198280 -0.140279 0.047741 0.500000 0.500000 0.000000
-0.582543 -0.183282 0.380153 0.000000 0.500000 0.500000
-0.528620 0.121010 -0.296198 0.600000 0.300000 0.000000
-0.178627 0.362689 -0.367268 0.300000 0.000000 0.600000
0.276237 0.227968 -0.331205 0.300000 0.000000 0.600000
0.207008 -0.244923 -0.043841 0.000000 0.500000 0.500000
-0.579879 0.510956 -0.394250 0.600000 0.300000 0.000000
-0.013092 -0.143077 -0.068031 0.000000 0.500000 0.500000
-0.051207 -0.142409 -0.184823 0.000000 0.500000 0.500000
0.330923 -0.140273 0.102261 0.500000 0.500000 0.000000
-0.140674 0.644827 -0.429652 0.600000 0.300000 0.000000
0.049245 0.440630 -0.405035 0.600000 0.300000 0.000000
0.560567 -0.213830 0.398798 0.000000 0.500000 0.500000
-0.535971 -0.030238 -0.252776 0.600000 0.300000 0.000000
0.015818 -0.244923 0.092132 0.000000 0.500000 0.500000
0.553650 -0.240817 0.476388 0.000000 0.500000 0.500000
0.119645 0.691140 -0.442018 0.600000 0.300000 0.000000
0.107671 -0.140397 0.318287 0.500000 0.500000 0.000000
-0.516993 -0.100239 -0.260170 0.600000 0.300000 0.000000
0.027116 -0.203053 0.642572 0.000000 0.500000 0.500000
-0.094705 0.565984 -0.422837 0.300000 0.000000 0.600000
0.152962 -0.244923 0.081013 0.000000 0.500000 0.500000
-0.105127 0.070110 -0.305747 0.600000 0.300000 0.000000
0.001348 -0.053101 -0.250262 0.600000 0.300000 0.000000
0.288085 -0.140191 0.178653 0.500000 0.500000 0.000000
-0.466308 -0.243426 -0.189502 0.000000 0.500000 0.500000
0.072462 0.140402 -0.324650 0.600000 0.300000 0.000000
-0.021287 -0.159237 -0.224391 0.000000 0.500000 0.500000
-0.584043 0.509869 -0.421300 0.600000 0.300000 0.000000
-0.075129 -0.113551 -0.226489 0.600000 0.300000 0.000000
0.169727 0.702298 -0.445825 0.600000 0.300000 0.000000
-0.359777 0.277313 -0.344421 0.300000 0.000000 0.600000
0.474107 0.383140 -0.372803 0.300000 0.000000 0.600000
-0.087642 0.688435 -0.441667 0.600000 0.300000 0.000000
-0.107128 -0.140384 0.135017 0.500000 0.500000 0.000000
-0.012568 -0.140518 0.111571 0.500000 0.500000 0.000000
0.477325 0.452310 -0.391282 0.300000 0.000000 0.600000
0.480960 0.119788 -0.302188 0.300000 0.000000 0.600000
0.122933 0.421171 -0.382988 0.300000 0.000000 0.600000
-0.492350 -0.244923 0.154375 0.000000 0.500000 0.500000
0.398631 0.364200 -0.367682 0.300000 0.000000 0.600000
0.064688 -0.140330 0.300927 0.500000 0.500000 0.000000
0.330598 -0.199533 -0.211401 0.000000 0.500000 0.500000
-0.349217 -0.244923 0.584279 0.000000 0.500000 0.500000
-0.496889 0.422934 -0.383467 0.300000 0.000000 0.600000
-0.419722 -0.142409 0.486058 0.000000 0.500000 0.500000
-0.554958 0.300295 -0.367432 0.600000 0.300000 0.000000
-0.230625 0.377774 -0.388239 0.600000 0.300000 0.000000
-0.536114 0.056167 -0.276178 0.600000 0.300000 0.000000
-0.437923 0.620962 -0.423418 0.600000 0.300000 0.000000
-0.234133 -0.159346 0.657636 0.000000 0.500000 0.500000
-0.094726 0.481774 -0.416115 0.600000 0.300000 0.000000
-0.132944 -0.140183 0.313308 0.500000 0.500000 0.000000
-0.437907 -0.142409 0.426674 0.000000 0.500000 0.500000
0.528007 0.122831 -0.290730 0.600000 0.300000 0.000000
-0.419373 -0.153730 -0.235050 0.600000 0.300000 0.000000
-0.489583 0.067259 -0.304984 0.600000 0.300000 0.000000
0.299067 -0.244923 0.217299 0.000000 0.500000 0.500000
-0.135651 0.428449 -0.401830 0.600000 0.300000 0.000000
-0.069869 0.454470 -0.392915 0.300000 0.000000 0.600000
0.546770 -0.140871 0.063252 0.000000 0.500000 0.500000
-0.190334 -0.114983 -0.256151 0.600000 0.300000 0.000000
-0.263069 0.549075 -0.418244 0.300000 0.000000 0.600000
-0.456605 0.638772 -0.458118 0.600000 0.300000 0.000000
-0.308350 -0.142409 -0.187247 0.000000 0.500000 0.500000
0.294737 0.048105 -0.284065 0.300000 0.000000 0.600000
-0.462340 -0.244923 0.545170 0.000000 0.500000 0.500000
-0.238018 -0.140218 0.341442 0.500000 0.500000 0.000000
-0.036808 0.607892 -0.420429 0.300000 0.000000 0.600000
-0.571624 -0.229810 -0.147528 0.000000 0.500000 0.500000
-0.018905 -0.140539 0.062648 0.500000 0.500000 0.000000
-0.559978 0.353989 -0.381811 0.600000 0.300000 0.000000
-0.243871 0.243868 -0.335485 0.300000 0.000000 0.600000
-0.444701 -0.188315 -0.216294 0.000000 0.500000 0.500000
-0.307256 -0.142744 0.573478 0.000000 0.500000 0.500000
0.530491 -0.142666 -0.163541 0.000000 0.500000 0.500000
-0.584464 -0.174807 -0.048584 0.000000 0.500000 0.500000
0.557095 -0.102388 -0.229619 0.600000 0.300000 0.000000
0.358084 -0.143084 0.562342 0.000000 0.500000 0.500000
-0.581618 -0.187138 0.244221 0.000000 0.500000 0.500000
-0.124055 0.593754 -0.446057 0.600000 0.300000 0.000000
0.466865 -0.040776 -0.259716 0.300000 0.000000 0.600000
0.525043 0.488563 -0.417895 0.600000 0.300000 0.000000
-0.335164 -0.244923 -0.004155 0.000000 0.500000 0.500000
-0.077109 -0.140293 0.043124 0.500000 0.500000 0.000000
0.487635 -0.142880 0.623322 0.000000 0.500000 0.500000
0.233577 -0.244923 0.220064 0.000000 0.500000 0.500000
0.061792 -0.244923 -0.083812 0.000000 0.500000 0.500000
0.334460 -0.142410 -0.172647 0.000000 0.500000 0.500000
0.475112 -0.244923 0.410118 0.000000 0.500000 0.500000
-0.584746 0.474501 -0.412074 0.600000 0.300000 0.000000
0.562353 -0.208290 0.116223 0.000000 0.500000 0.500000
-0.040823 -0.244923 -0.064297 0.000000 0.500000 0.500000
-0.240674 -0.092935 -0.231957 0.600000 0.300000 0.000000
0.107109 -0.141279 0.005161 0.500000 0.500000 0.000000
-0.507670 -0.140137 0.103819 0.500000 0.500000 0.000000
-0.357361 0.428196 -0.384875 0.300000 0.000000 0.600000
-0.513576 0.043956 -0.298774 0.600000 0.300000 0.000000
0.206759 0.431641 -0.385798 0.300000 0.000000 0.600000
-0.353930 -0.140308 -0.220055 0.600000 0.300000 0.000000
-0.392293 0.244516 -0.335659 0.300000 0.000000 0.600000
-0.333548 -0.244923 -0.158770 0.000000 0.500000 0.500000
-0.212649 -0.244923 -0.088370 0.000000 0.500000 0.500000
0.134926 0.282913 -0.362835 0.600000 0.300000 0.000000
-0.519541 0.438602 -0.386082 0.600000 0.300000 0.000000
0.336480 -0.244923 0.185704 0.000000 0.500000 0.500000
-0.041782 0.702867 -0.461941 0.600000 0.300000 0.000000
-0.192387 0.440884 -0.405102 0.600000 0.300000 0.000000
0.316629 0.491897 -0.401890 0.300000 0.000000 0.600000
-0.420075 0.065407 -0.304488 0.600000 0.300000 0.000000
-0.405212 -0.142409 0.624606 0.000000 0.500000 0.500000
0.081569 -0.142602 0.578413 0.000000 0.500000 0.500000
0.290526 -0.244923 -0.048909 0.000000 0.500000 0.500000
-0.008006 -0.132959 -0.221615 0.600000 0.300000 0.000000
-0.232307 -0.146835 0.483641 0.300000 0.600000 0.000000
0.516213 -0.196974 0.645226 0.000000 0.500000 0.500000
-0.441285 0.076823 -0.307547 0.600000 0.300000 0.000000
-0.002682 0.371016 -0.370175 0.300000 0.000000 0.600000
-0.287441 -0.028492 -0.279328 0.600000 0.300000 0.000000
-0.179414 -0.244923 0.135712 0.000000 0.500000 0.500000
-0.288461 -0.142736 0.407928 0.000000 0.500000 0.500000
0.545040 -0.140929 0.304523 0.000000 0.500000 0.500000
-0.460741 -0.244923 0.123070 0.000000 0.500000 0.500000
0.212801 -0.140536 0.208423 0.500000 0.500000 0.000000
-0.092582 -0.142693 -0.099709 0.000000 0.500000 0.500000
-0.316796 0.326534 -0.374507 0.600000 0.300000 0.000000
-0.056414 0.591391 -0.424985 0.600000 0.300000 0.000000
-0.471452 0.211891 -0.343797 0.600000 0.300000 0.000000
0.549233 0.618379 -0.452721 0.600000 0.300000 0.000000
0.055680 -0.244922 -0.159866 0.000000 0.500000 0.500000
-0.316486 -0.142409 0.452185 0.000000 0.500000 0.500000
0.317525 -0.143758 0.647910 0.000000 0.500000 0.500000
0.213678 -0.142426 0.510691 0.000000 0.500000 0.500000
0.509284 0.695123 -0.443431 0.600000 0.300000 0.000000
-0.001156 -0.140114 0.083431 0.500000 0.500000 0.000000
-0.137043 -0.244923 0.375875 0.000000 0.500000 0.500000
0.465785 0.322047 -0.373272 0.600000 0.300000 0.000000
0.224742 -0.142773 0.606330 0.000000 0.500000 0.500000
0.017727 -0.153688 -0.234825 0.600000 0.300000 0.000000
0.455290 0.563696 -0.438022 0.600000 0.300000 0.000000
0.462275 0.510739 -0.423816 0.600000 0.300000 0.000000
0.438522 -0.244923 0.248803 0.000000 0.500000 0.500000
-0.133050 0.482466 -0.416296 0.600000 0.300000 0.000000
0.259105 -0.140611 0.266934 0.500000 0.500000 0.000000
0.341982 -0.244923 -0.112977 0.000000 0.500000 0.500000
0.559232 -0.222641 -0.163152 0.000000 0.500000 0.500000
-0.152298 -0.102790 -0.229892 0.600000 0.300000 0.000000
0.346816 0.549281 -0.434140 0.600000 0.300000 0.000000
-0.399644 0.641500 -0.458849 0.600000 0.300000 0.000000
-0.183137 -0.140050 0.283881 0.500000 0.500000 0.000000
-0.159606 -0.177509 0.653426 0.000000 0.500000 0.500000
-0.580635 -0.148957 0.097927 0.000000 0.500000 0.500000
-0.483094 -0.140058 0.141282 0.500000 0.500000 0.000000
0.050621 -0.244923 0.438305 0.000000 0.500000 0.500000
0.245517 0.255487 -0.338569 0.300000 0.000000 0.600000
-0.015673 0.004971 -0.271556 0.300000 0.000000 0.600000
-0.055699 0.012605 -0.290388 0.600000 0.300000 0.000000
-0.213164 -0.244922 -0.160534 0.000000 0.500000 0.500000
-0.429025 0.184681 -0.319632 0.300000 0.000000 0.600000
0.252952 0.541849 -0.432156 0.600000 0.300000 0.000000
0.450386 -0.143410 0.431890 0.000000 0.500000 0.500000
-0.359322 0.677313 -0.468510 0.600000 0.300000 0.000000
0.310179 0.183139 -0.319219 0.300000 0.000000 0.600000
-0.502284 -0.244923 0.594744 0.000000 0.500000 0.500000
-0.014961 -0.244923 0.081747 0.000000 0.500000 0.500000
0.525685 -0.058844 -0.241548 0.600000 0.300000 0.000000
-0.550505 0.415165 -0.368181 0.600000 0.300000 0.000000
0.004859 -0.244772 -0.179057 0.000000 0.500000 0.500000
0.216428 0.022044 -0.292867 0.600000 0.300000 0.000000
-0.534006 0.303867 -0.368381 0.600000 0.300000 0.000000
0.247334 0.378637 -0.371595 0.300000 0.000000 0.600000
0.553632 -0.241175 0.148296 0.000000 0.500000 0.500000
0.303733 0.603780 -0.420850 0.600000 0.300000 0.000000
0.008964 -0.244923 0.292541 0.000000 0.500000 0.500000
0.082759 -0.061676 -0.270438 0.600000 0.300000 0.000000
0.569935 -0.159619 0.468788 0.000000 0.500000 0.500000
-0.157460 -0.244923 0.450976 0.000000 0.500000 0.500000
-0.120769 -0.244923 0.036017 0.000000 0.500000 0.500000
-0.484452 0.504458 -0.422131 0.600000 0.300000 0.000000
0.051588 -0.194488 -0.213602 0.000000 0.500000 0.500000
0.046185 -0.143410 0.521449 0.000000 0.500000 0.500000
0.272412 0.514840 -0.424945 0.600000 0.300000 0.000000
0.197080 0.086945 -0.294454 0.300000 0.000000 0.600000
0.500580 -0.244923 0.191011 0.000000 0.500000 0.500000
0.187929 -0.142951 0.619118 0.000000 0.500000 0.500000
-0.125286 -0.147367 0.450766 0.300000 0.600000 0.000000
0.512474 0.593511 -0.445992 0.600000 0.300000 0.000000
-0.028673 0.293891 -0.349188 0.300000 0.000000 0.600000
-0.045530 -0.124950 -0.253480 0.600000 0.300000 0.000000
0.562728 -0.203288 0.340387 0.000000 0.500000 0.500000
-0.006213 0.700685 -0.467026 0.600000 0.300000 0.000000
0.221683 -0.140841 0.254413 0.500000 0.500000 0.000000
-0.222364 0.585855 -0.425800 0.600000 0.300000 0.000000
-0.443334 -0.102416 -0.230436 0.600000 0.300000 0.000000
-0.143599 -0.122217 -0.254212 0.600000 0.300000 0.000000
0.471727 -0.143410 0.473722 0.000000 0.500000 0.500000
-0.189844 0.058664 -0.302689 0.600000 0.300000 0.000000
-0.033807 0.060227 -0.286271 0.300000 0.000000 0.600000
0.085535 0.400518 -0.377407 0.300000 0.000000 0.600000
0.507410 -0.140914 0.208249 0.500000 0.500000 0.000000
0.528732 0.193082 -0.309683 0.600000 0.300000 0.000000
0.311958 -0.143003 0.596358 0.000000 0.500000 0.500000
-0.091960 0.330433 -0.358883 0.300000 0.000000 0.600000
-0.276982 0.081568 -0.308844 0.600000 0.300000 0.000000
-0.251752 0.416604 -0.398646 0.600000 0.300000 0.000000
0.002433 0.652083 -0.461697 0.600000 0.300000 0.000000
0.570506 -0.165131 0.276901 0.000000 0.500000 0.500000
-0.184370 0.204245 -0.341752 0.600000 0.300000 0.000000
-0.078598 -0.225127 -0.200233 0.000000 0.500000 0.500000
-0.197336 0.396278 -0.393202 0.600000 0.300000 0.000000
-0.389489 0.083005 -0.309240 0.600000 0.300000 0.000000
0.532847 -0.142409 -0.043406 0.000000 0.500000 0.500000
0.536755 0.331526 -0.346052 0.600000 0.300000 0.000000
-0.250533 -0.244923 0.488652 0.000000 0.500000 0.500000
-0.023813 -0.141059 0.381515 0.500000 0.500000 0.000000
-0.125451 0.132785 -0.322571 0.600000 0.300000 0.000000
-0.408737 -0.204322 0.641463 0.000000 0.500000 0.500000
0.366697 0.652684 -0.431688 0.600000 0.300000 0.000000
0.135683 0.271806 -0.342914 0.300000 0.000000 0.600000
-0.369032 -0.142409 0.471335 0.000000 0.500000 0.500000
0.564337 -0.001499 -0.286139 0.600000 0.300000 0.000000
-0.410839 0.407309 -0.396153 0.600000 0.300000 0.000000
-0.351135 0.197276 -0.323010 0.300000 0.000000 0.600000
0.359534 -0.138133 -0.089689 0.000000 0.500000 0.500000
0.318546 0.055152 -0.285639 0.300000 0.000000 0.600000
0.432260 -0.142609 -0.030331 0.000000 0.500000 0.500000
-0.576059 0.641607 -0.428987 0.600000 0.300000 0.000000
0.055686 -0.016172 -0.282629 0.600000 0.300000 0.000000
-0.531770 -0.244923 0.460708 0.000000 0.500000 0.500000
0.461291 0.494596 -0.419489 0.600000 0.300000 0.000000
-0.100760 -0.150695 -0.226485 0.600000 0.300000 0.000000
-0.233887 0.131311 -0.305324 0.300000 0.000000 0.600000
-0.321313 -0.088664 -0.234137 0.600000 0.300000 0.000000
0.474489 -0.219419 -0.202731 0.000000 0.500000 0.500000
-0.029120 -0.143086 0.408367 0.000000 0.500000 0.500000
0.063858 0.676757 -0.438197 0.600000 0.300000 0.000000
0.327273 -0.217118 -0.203735 0.000000 0.500000 0.500000
