-0.058191 -0.676494 -0.361972 0.300000 0.000000 0.600000
0.121431 0.445623 -0.287008 0.000000 1.000000 0.000000
-0.157821 -0.104422 -0.350419 0.300000 0.000000 0.600000
-0.138500 -0.676494 -0.111606 0.300000 0.000000 0.600000
0.039654 0.495357 -0.040272 0.000000 1.000000 0.000000
0.197811 -0.617232 -0.287328 0.300000 0.000000 0.600000
0.123645 -0.670494 -0.393906 0.600000 0.000000 0.300000
0.097367 -0.617998 -0.386526 0.300000 0.000000 0.600000
-0.134766 0.275423 0.002369 0.300000 0.000000 0.600000
0.090528 0.321029 -0.325092 0.300000 0.000000 0.600000
0.047148 0.582611 -0.268327 0.000000 1.000000 0.000000
0.092576 -0.617533 0.022115 0.300000 0.000000 0.600000
0.221803 -0.723624 -0.171263 0.600000 0.000000 0.300000
0.084054 -0.567133 -0.393641 0.300000 0.000000 0.600000
-0.221306 -0.268598 -0.247598 0.300000 0.000000 0.600000
-0.111266 0.207082 0.016184 0.300000 0.000000 0.600000
-0.168993 0.429022 -0.126803 0.000000 1.000000 0.000000
0.045472 -0.651860 -0.222252 0.600000 0.000000 0.300000
0.019890 -0.651860 -0.214947 0.600000 0.000000 0.300000
0.057412 -0.244839 0.034903 0.300000 0.000000 0.600000
0.092956 0.174299 0.327080 0.000000 0.500000 0.500000
-0.020818 0.099564 0.780057 0.300000 0.600000 0.000000
-0.031547 -0.619127 0.041632 0.300000 0.000000 0.600000
-0.036550 0.009819 0.835097 0.300000 0.600000 0.000000
0.090974 0.321029 -0.048299 0.300000 0.000000 0.600000
-0.106193 -0.029135 0.018896 0.300000 0.000000 0.600000
0.045849 -0.108198 -0.405382 0.300000 0.000000 0.600000
0.195251 0.482074 -0.295084 0.000000 1.000000 0.000000
0.083160 -0.651860 -0.345574 0.600000 0.000000 0.300000
-0.101181 0.173118 0.580568 0.000000 0.500000 0.500000
-0.007533 -0.589772 0.043997 0.300000 0.000000 0.600000
0.063599 0.582611 -0.173976 0.000000 1.000000 0.000000
0.117875 -0.672502 0.030018 0.600000 0.000000 0.300000
-0.023802 0.206308 0.042395 0.300000 0.000000 0.600000
0.044294 -0.483667 0.038883 0.300000 0.000000 0.600000
0.170580 0.321029 -0.237233 0.300000 0.000000 0.600000
0.111477 0.321029 -0.093503 0.300000 0.000000 0.600000
-0.085494 -0.651860 -0.324895 0.600000 0.000000 0.300000
0.050784 -0.006948 0.798263 0.300000 0.600000 0.000000
0.085558 0.187109 0.542988 0.000000 0.500000 0.500000
0.068791 0.348668 -0.052690 0.000000 1.000000 0.000000
0.154398 -0.723624 -0.217318 0.600000 0.000000 0.300000
0.134676 -0.023023 -0.363182 0.300000 0.000000 0.600000
0.190268 -0.645267 -0.065530 0.300000 0.000000 0.600000
0.146999 0.581778 -0.014434 0.000000 1.000000 0.000000
-0.100817 0.173801 0.468253 0.000000 0.500000 0.500000
0.048246 -0.068364 0.037684 0.300000 0.000000 0.600000
-0.160240 -0.536522 -0.018536 0.300000 0.000000 0.600000
-0.039410 0.321029 -0.148852 0.300000 0.000000 0.600000
0.169106 0.274067 -0.330236 0.300000 0.000000 0.600000
-0.044673 0.347891 -0.034061 0.000000 1.000000 0.000000
0.062005 -0.507165 0.033510 0.300000 0.000000 0.600000
0.015541 0.016956 0.590851 0.000000 0.500000 0.500000
0.020982 -0.652336 0.060140 0.600000 0.000000 0.300000
0.081915 0.158431 -0.394442 0.300000 0.000000 0.600000
-0.104054 -0.596872 -0.387010 0.300000 0.000000 0.600000
-0.070803 0.210232 0.165329 0.000000 0.500000 0.500000
0.159973 0.321029 -0.331258 0.300000 0.000000 0.600000
-0.111179 0.144587 0.761688 0.000000 0.500000 0.500000
0.029639 0.499449 0.007321 0.000000 1.000000 0.000000
-0.075129 0.042158 0.397025 0.000000 0.500000 0.500000
0.115515 -0.286506 0.009854 0.300000 0.000000 0.600000
0.221236 0.355219 -0.218630 0.000000 1.000000 0.000000
0.181941 0.290795 -0.314597 0.300000 0.000000 0.600000
0.138442 0.467456 -0.210269 0.000000 1.000000 0.000000
0.198488 -0.333337 -0.080909 0.300000 0.000000 0.600000
0.216984 -0.590918 -0.236807 0.300000 0.000000 0.600000
0.222586 -0.409378 -0.198382 0.300000 0.000000 0.600000
0.195487 0.006561 -0.075295 0.300000 0.000000 0.600000
0.077963 -0.534091 -0.395641 0.300000 0.000000 0.600000
-0.093321 0.186903 0.434929 0.000000 0.500000 0.500000
0.205343 -0.272825 -0.093735 0.300000 0.000000 0.600000
0.194892 -0.676494 -0.247817 0.300000 0.000000 0.600000
-0.045451 -0.547478 0.040263 0.300000 0.000000 0.600000
-0.045303 -0.282197 -0.407248 0.300000 0.000000 0.600000
0.003652 -0.723624 -0.027780 0.600000 0.000000 0.300000
-0.119919 -0.469061 -0.378530 0.300000 0.000000 0.600000
0.009198 0.321029 0.008872 0.300000 0.000000 0.600000
-0.117774 -0.651860 -0.084642 0.600000 0.000000 0.300000
0.115483 -0.723624 -0.187511 0.600000 0.000000 0.300000
-0.122394 -0.676494 -0.165852 0.300000 0.000000 0.600000
0.067242 0.135045 0.031922 0.300000 0.000000 0.600000
0.030456 -0.005345 0.785543 0.300000 0.600000 0.000000
0.118226 -0.676494 -0.016099 0.300000 0.000000 0.600000
0.093384 0.173499 0.112108 0.000000 0.500000 0.500000
-0.217976 -0.723624 -0.191457 0.600000 0.000000 0.300000
0.158289 0.149846 -0.343416 0.300000 0.000000 0.600000
0.105007 0.566201 0.015470 0.000000 1.000000 0.000000
-0.126158 0.395523 -0.035839 0.000000 1.000000 0.000000
-0.098144 0.178801 0.029064 0.000000 0.500000 0.500000
0.205155 -0.157082 -0.093382 0.300000 0.000000 0.600000
0.015214 -0.676494 -0.039815 0.300000 0.000000 0.600000
0.223242 -0.250327 -0.175244 0.300000 0.000000 0.600000
-0.008547 -0.651860 0.026512 0.600000 0.000000 0.300000
-0.080364 0.103896 0.826002 0.300000 0.600000 0.000000
-0.231229 0.467472 -0.179227 0.000000 1.000000 0.000000
-0.169528 -0.097010 -0.027996 0.300000 0.000000 0.600000
0.223554 -0.336697 -0.188559 0.300000 0.000000 0.600000
-0.019695 0.232223 0.048180 0.000000 0.500000 0.500000
-0.207043 0.292199 -0.284265 0.300000 0.000000 0.600000
-0.022510 0.113648 -0.409493 0.300000 0.000000 0.600000
0.221058 0.239382 -0.213894 0.300000 0.000000 0.600000
-0.029333 -0.676494 -0.160948 0.300000 0.000000 0.600000
-0.057298 0.219763 0.037242 0.300000 0.000000 0.600000
-0.062064 -0.651860 -0.344652 0.600000 0.000000 0.300000
0.203020 0.339123 -0.124822 0.000000 1.000000 0.000000
0.178162 -0.525223 -0.319202 0.300000 0.000000 0.600000
-0.217401 -0.217853 -0.106500 0.300000 0.000000 0.600000
0.202812 -0.706983 -0.318056 0.600000 0.000000 0.300000
0.054203 0.582611 -0.384632 0.000000 1.000000 0.000000
-0.096757 0.067442 0.815067 0.000000 0.500000 0.500000
0.142769 -0.387312 -0.356540 0.300000 0.000000 0.600000
-0.219211 -0.630826 -0.112467 0.300000 0.000000 0.600000
0.152080 -0.659489 -0.373344 0.600000 0.000000 0.300000
0.007048 -0.723624 -0.008623 0.600000 0.000000 0.300000
0.148650 -0.404414 -0.351714 0.300000 0.000000 0.600000
-0.117553 0.359694 0.012824 0.000000 1.000000 0.000000
0.141763 0.071722 -0.357366 0.300000 0.000000 0.600000
0.209563 0.079093 -0.261273 0.300000 0.000000 0.600000
0.192116 0.316502 -0.297983 0.300000 0.000000 0.600000
-0.247314 -0.707995 -0.149754 0.600000 0.000000 0.300000
-0.083960 0.050529 0.971758 0.000000 0.500000 0.500000
-0.070905 0.038692 0.289159 0.000000 0.500000 0.500000
-0.156323 -0.651860 -0.243232 0.600000 0.000000 0.300000
-0.028138 -0.723624 -0.294394 0.600000 0.000000 0.300000
-0.191427 0.124425 -0.054679 0.300000 0.000000 0.600000
-0.098679 0.071039 0.908262 0.000000 0.500000 0.500000
-0.060743 0.217396 0.690980 0.000000 0.500000 0.500000
0.054804 0.010696 0.801562 0.300000 0.600000 0.000000
0.104110 0.472235 -0.096617 0.000000 1.000000 0.000000
0.200805 -0.140592 -0.281726 0.300000 0.000000 0.600000
-0.032647 0.484555 0.381951 0.000000 1.000000 0.000000
-0.099952 -0.723624 -0.087330 0.600000 0.000000 0.300000
0.053100 0.217422 0.339663 0.000000 0.500000 0.500000
0.040249 -0.723624 -0.271154 0.600000 0.000000 0.300000
0.078997 0.172065 -0.015326 0.000000 0.500000 0.500000
0.202220 0.240518 -0.279079 0.300000 0.000000 0.600000
0.042647 0.025830 0.950011 0.000000 0.500000 0.500000
-0.184309 -0.531734 -0.046006 0.300000 0.000000 0.600000
0.004973 0.301276 -0.410472 0.300000 0.000000 0.600000
0.200764 0.142861 -0.085167 0.300000 0.000000 0.600000
-0.016894 0.470650 0.412777 0.000000 1.000000 0.000000
0.092869 -0.676494 -0.378944 0.300000 0.000000 0.600000
0.197243 -0.651860 -0.277101 0.600000 0.000000 0.300000
0.029366 0.582611 -0.211689 0.000000 1.000000 0.000000
0.158292 0.582611 -0.157780 0.000000 1.000000 0.000000
0.156980 0.344144 -0.101090 0.000000 1.000000 0.000000
0.177639 -0.666890 -0.017345 0.600000 0.000000 0.300000
0.036499 -0.723624 -0.066573 0.600000 0.000000 0.300000
-0.032871 0.379127 0.011395 0.000000 1.000000 0.000000
-0.214400 0.352882 -0.213193 0.000000 1.000000 0.000000
0.094855 0.078093 0.567360 0.000000 0.500000 0.500000
-0.046214 0.103896 0.863591 0.300000 0.600000 0.000000
0.188916 0.582611 -0.276072 0.000000 1.000000 0.000000
-0.127832 -0.671081 -0.395727 0.600000 0.000000 0.300000
0.019334 0.538986 -0.064211 0.000000 1.000000 0.000000
0.196829 -0.388924 -0.289164 0.300000 0.000000 0.600000
0.186766 -0.573983 -0.058978 0.300000 0.000000 0.600000
0.131281 -0.183408 -0.365968 0.300000 0.000000 0.600000
0.038000 -0.676494 -0.312479 0.300000 0.000000 0.600000
-0.027070 -0.676494 -0.069968 0.300000 0.000000 0.600000
-0.209861 0.023229 -0.278993 0.300000 0.000000 0.600000
-0.006667 0.233505 0.196711 0.000000 0.500000 0.500000
0.067623 0.090187 0.816139 0.300000 0.600000 0.000000
0.102823 0.147890 0.580066 0.000000 0.500000 0.500000
0.123112 0.220040 0.005702 0.300000 0.000000 0.600000
0.104033 0.108799 0.316148 0.000000 0.500000 0.500000
0.097415 0.083122 0.829889 0.000000 0.500000 0.500000
0.154957 0.154965 -0.020433 0.300000 0.000000 0.600000
0.036650 0.321029 -0.242734 0.300000 0.000000 0.600000
-0.068316 0.321029 -0.017483 0.300000 0.000000 0.600000
0.234831 -0.679559 -0.123901 0.600000 0.000000 0.300000
-0.231577 0.251243 -0.182768 0.300000 0.000000 0.600000
-0.018686 0.232322 0.213046 0.000000 0.500000 0.500000
0.168238 -0.723624 -0.170679 0.600000 0.000000 0.300000
-0.249183 -0.723624 -0.173639 0.600000 0.000000 0.300000
0.221902 -0.524066 -0.205328 0.300000 0.000000 0.600000
0.084620 -0.723624 -0.387999 0.600000 0.000000 0.300000
0.089781 -0.651860 -0.133095 0.600000 0.000000 0.300000
-0.084204 0.349728 -0.065308 0.000000 1.000000 0.000000
-0.063128 0.103896 0.895439 0.300000 0.600000 0.000000
-0.080936 0.321029 -0.320718 0.300000 0.000000 0.600000
-0.174350 0.582611 -0.221190 0.000000 1.000000 0.000000
-0.081355 0.424031 0.029944 0.000000 1.000000 0.000000
-0.229326 -0.255847 -0.207066 0.300000 0.000000 0.600000
0.201241 -0.096151 -0.086059 0.300000 0.000000 0.600000
0.078629 -0.651860 -0.220797 0.600000 0.000000 0.300000
0.101587 0.096877 0.389634 0.000000 0.500000 0.500000
-0.161829 -0.686371 0.004604 0.600000 0.000000 0.300000
-0.131669 -0.568290 -0.371882 0.300000 0.000000 0.600000
0.144240 0.409756 -0.336106 0.000000 1.000000 0.000000
0.184968 -0.651860 -0.154803 0.600000 0.000000 0.300000
-0.004440 -0.723624 -0.118497 0.600000 0.000000 0.300000
-0.226113 0.222645 -0.135220 0.300000 0.000000 0.600000
-0.120730 0.530810 0.011126 0.000000 1.000000 0.000000
-0.004651 0.457637 0.008336 0.000000 1.000000 0.000000
0.136768 0.088948 -0.005506 0.300000 0.000000 0.600000
-0.204906 -0.634374 -0.288263 0.300000 0.000000 0.600000
-0.158560 -0.258271 -0.017158 0.300000 0.000000 0.600000
0.125326 0.040666 0.003885 0.300000 0.000000 0.600000
-0.041720 0.479535 0.040273 0.000000 1.000000 0.000000
-0.006230 0.468211 0.369707 0.000000 1.000000 0.000000
0.202327 -0.523312 -0.278878 0.300000 0.000000 0.600000
-0.054505 -0.723624 -0.309663 0.600000 0.000000 0.300000
-0.165647 -0.723624 -0.223940 0.600000 0.000000 0.300000
-0.088723 -0.723624 -0.035892 0.600000 0.000000 0.300000
-0.198425 -0.651860 -0.315529 0.600000 0.000000 0.300000
-0.031041 -0.676494 -0.229428 0.300000 0.000000 0.600000
0.094912 -0.482250 0.020867 0.300000 0.000000 0.600000
0.148698 0.388974 -0.280919 0.000000 1.000000 0.000000
0.027656 0.513299 0.231645 0.000000 1.000000 0.000000
-0.208331 -0.641910 -0.085116 0.300000 0.000000 0.600000
0.003564 0.321029 -0.045065 0.300000 0.000000 0.600000
-0.004557 0.330333 -0.389506 0.000000 1.000000 0.000000
0.146532 0.415859 -0.013519 0.000000 1.000000 0.000000
-0.110273 0.100476 0.938274 0.000000 0.500000 0.500000
0.028644 0.321029 -0.009585 0.300000 0.000000 0.600000
-0.180068 0.198230 -0.040838 0.300000 0.000000 0.600000
-0.015432 0.447804 0.043219 0.000000 1.000000 0.000000
-0.132820 0.446545 -0.368121 0.000000 1.000000 0.000000
-0.094152 0.065979 0.982197 0.000000 0.500000 0.500000
0.038522 0.513196 -0.053776 0.000000 1.000000 0.000000
-0.041772 0.226640 0.640824 0.000000 0.500000 0.500000
-0.012318 0.232949 0.300537 0.000000 0.500000 0.500000
0.218244 -0.245524 -0.232654 0.300000 0.000000 0.600000
0.126779 0.582611 -0.234872 0.000000 1.000000 0.000000
0.150077 0.447502 -0.016428 0.000000 1.000000 0.000000
-0.148198 0.346726 -0.107861 0.000000 1.000000 0.000000
-0.183714 0.149939 -0.321690 0.300000 0.000000 0.600000
0.188812 -0.277005 -0.062806 0.300000 0.000000 0.600000
-0.007079 -0.044830 0.044042 0.300000 0.000000 0.600000
0.051262 0.030435 0.412983 0.000000 0.500000 0.500000
-0.192582 -0.190517 -0.056087 0.300000 0.000000 0.600000
0.213902 0.266179 -0.246968 0.300000 0.000000 0.600000
-0.186410 0.353178 -0.094249 0.000000 1.000000 0.000000
-0.078871 0.216943 0.030698 0.300000 0.000000 0.600000
-0.029644 0.230319 0.941516 0.000000 0.500000 0.500000
-0.147994 0.345343 -0.087447 0.000000 1.000000 0.000000
-0.195727 0.321029 -0.155177 0.300000 0.000000 0.600000
0.097389 -0.033650 0.019542 0.300000 0.000000 0.600000
-0.205840 0.502980 -0.287718 0.000000 1.000000 0.000000
-0.215714 -0.372560 -0.266032 0.300000 0.000000 0.600000
-0.080588 0.452206 -0.046138 0.000000 1.000000 0.000000
0.029258 0.020707 0.578373 0.000000 0.500000 0.500000
-0.049966 0.582611 -0.257080 0.000000 1.000000 0.000000
-0.173191 -0.388404 -0.032459 0.300000 0.000000 0.600000
-0.223351 0.264662 -0.126113 0.300000 0.000000 0.600000
0.055701 0.088947 0.035423 0.300000 0.000000 0.600000
-0.191402 0.082439 -0.312322 0.300000 0.000000 0.600000
-0.148698 -0.723624 -0.333933 0.600000 0.000000 0.300000
-0.022226 0.519077 -0.134328 0.000000 1.000000 0.000000
-0.127158 0.582611 -0.259820 0.000000 1.000000 0.000000
0.057277 -0.033352 0.909896 0.300000 0.600000 0.000000
-0.142852 -0.723624 -0.363033 0.600000 0.000000 0.300000
0.010368 0.316101 0.042970 0.300000 0.000000 0.600000
-0.125457 -0.093509 0.008600 0.300000 0.000000 0.600000
0.062787 -0.651860 -0.061240 0.600000 0.000000 0.300000
0.145930 -0.434129 -0.353946 0.300000 0.000000 0.600000
0.132140 -0.676494 -0.194158 0.300000 0.000000 0.600000
-0.115926 0.458922 0.013694 0.000000 1.000000 0.000000
-0.042318 0.022365 0.688359 0.000000 0.500000 0.500000
0.180061 0.341728 -0.272622 0.000000 1.000000 0.000000
0.088939 0.478734 -0.090563 0.000000 1.000000 0.000000
0.170855 -0.330360 -0.328106 0.300000 0.000000 0.600000
0.009845 0.172925 -0.409992 0.300000 0.000000 0.600000
-0.033194 0.103896 0.937450 0.300000 0.600000 0.000000
0.070846 -0.174782 0.030828 0.300000 0.000000 0.600000
-0.111494 0.107452 0.312632 0.000000 0.500000 0.500000
-0.011799 -0.676494 -0.403714 0.300000 0.000000 0.600000
0.106388 -0.262574 -0.381704 0.300000 0.000000 0.600000
0.103189 0.102158 0.514624 0.000000 0.500000 0.500000
-0.074862 0.281939 -0.398885 0.300000 0.000000 0.600000
-0.003964 0.582611 0.022920 0.000000 1.000000 0.000000
0.100475 0.155627 0.437462 0.000000 0.500000 0.500000
0.221300 -0.541653 -0.155533 0.300000 0.000000 0.600000
-0.099462 -0.126175 0.022494 0.300000 0.000000 0.600000
0.077949 -0.006304 -0.395645 0.300000 0.000000 0.600000
0.065675 0.321029 -0.351361 0.300000 0.000000 0.600000
0.220326 -0.606347 -0.145645 0.300000 0.000000 0.600000
-0.026567 0.037278 0.042122 0.300000 0.000000 0.600000
0.105568 0.124449 0.132210 0.000000 0.500000 0.500000
0.123797 0.504689 -0.370580 0.000000 1.000000 0.000000
0.102347 0.099383 0.879710 0.000000 0.500000 0.500000
0.161420 -0.515008 -0.027369 0.300000 0.000000 0.600000
-0.186129 0.321029 -0.190160 0.300000 0.000000 0.600000
-0.051253 -0.723624 -0.377235 0.600000 0.000000 0.300000
-0.110939 0.146169 0.979401 0.000000 0.500000 0.500000
0.219623 -0.523980 -0.228108 0.300000 0.000000 0.600000
-0.112654 0.119226 0.071970 0.000000 0.500000 0.500000
-0.094651 -0.678053 0.045657 0.600000 0.000000 0.300000
-0.156957 -0.304292 -0.351128 0.300000 0.000000 0.600000
0.069015 0.184136 -0.015326 0.000000 0.500000 0.500000
-0.003987 0.015070 0.104830 0.000000 0.500000 0.500000
0.014447 0.231992 0.665076 0.000000 0.500000 0.500000
0.125178 -0.470685 -0.370977 0.300000 0.000000 0.600000
-0.134409 -0.471883 -0.369633 0.300000 0.000000 0.600000
0.067244 -0.676494 -0.004891 0.300000 0.000000 0.600000
0.093079 -0.723624 -0.003648 0.600000 0.000000 0.300000
0.116414 0.582611 -0.003060 0.000000 1.000000 0.000000
0.236229 -0.719914 -0.238463 0.600000 0.000000 0.300000
-0.246157 -0.701501 -0.228963 0.600000 0.000000 0.300000
-0.196699 0.039459 -0.063355 0.300000 0.000000 0.600000
-0.141352 -0.723206 0.021409 0.600000 0.000000 0.300000
0.219711 -0.340402 -0.227575 0.300000 0.000000 0.600000
0.118778 0.522178 -0.373832 0.000000 1.000000 0.000000
-0.120414 -0.302875 0.011295 0.300000 0.000000 0.600000
0.202962 -0.707005 -0.049194 0.600000 0.000000 0.300000
-0.107074 -0.207492 0.018425 0.300000 0.000000 0.600000
0.069905 0.044102 0.714097 0.000000 0.500000 0.500000
-0.182052 -0.672915 -0.323715 0.300000 0.000000 0.600000
-0.027020 -0.459593 -0.409049 0.300000 0.000000 0.600000
-0.110935 -0.088779 -0.383333 0.300000 0.000000 0.600000
-0.078505 0.203911 0.330416 0.000000 0.500000 0.500000
0.104541 0.134884 0.507701 0.000000 0.500000 0.500000
-0.044960 0.486235 0.004610 0.000000 1.000000 0.000000
-0.042891 -0.651860 -0.302828 0.600000 0.000000 0.300000
-0.015128 0.232672 0.033258 0.000000 0.500000 0.500000
0.099826 0.157767 0.738456 0.000000 0.500000 0.500000
-0.219985 -0.055477 -0.115018 0.300000 0.000000 0.600000
-0.079824 0.544276 0.030409 0.000000 1.000000 0.000000
0.102925 0.147150 0.016584 0.300000 0.000000 0.600000
0.064214 -0.723624 -0.160927 0.600000 0.000000 0.300000
0.137081 0.295209 -0.005763 0.300000 0.000000 0.600000
0.094608 0.122319 0.021029 0.300000 0.000000 0.600000
-0.101356 0.076047 0.877058 0.000000 0.500000 0.500000
0.242409 -0.719950 -0.189904 0.600000 0.000000 0.300000
-0.061870 0.044042 0.035855 0.300000 0.000000 0.600000
0.155657 -0.723624 -0.016373 0.600000 0.000000 0.300000
0.212767 -0.676494 -0.235010 0.300000 0.000000 0.600000
0.036168 -0.147754 -0.407400 0.300000 0.000000 0.600000
-0.050891 -0.457076 0.039185 0.300000 0.000000 0.600000
-0.176425 0.461133 -0.330478 0.000000 1.000000 0.000000
-0.227352 -0.252833 -0.139869 0.300000 0.000000 0.600000
-0.139481 -0.371856 -0.001500 0.300000 0.000000 0.600000
0.070541 0.044625 0.833794 0.000000 0.500000 0.500000
-0.092678 -0.573066 -0.393091 0.300000 0.000000 0.600000
0.042362 0.536387 0.039469 0.000000 1.000000 0.000000
0.105137 0.120016 0.101319 0.000000 0.500000 0.500000
-0.072108 -0.651860 -0.203585 0.600000 0.000000 0.300000
0.223243 -0.314210 -0.191709 0.300000 0.000000 0.600000
0.006045 -0.536685 0.043396 0.300000 0.000000 0.600000
0.107583 0.582611 -0.027209 0.000000 1.000000 0.000000
-0.175828 -0.713619 -0.006885 0.600000 0.000000 0.300000
-0.169917 0.072877 -0.028469 0.300000 0.000000 0.600000
-0.207401 0.348096 -0.192279 0.000000 1.000000 0.000000
0.046719 0.207420 0.038147 0.300000 0.000000 0.600000
-0.016655 0.306538 0.043099 0.300000 0.000000 0.600000
0.204658 0.188068 -0.274518 0.300000 0.000000 0.600000
0.029359 0.496600 0.471006 0.000000 1.000000 0.000000
-0.037427 -0.507062 -0.408024 0.300000 0.000000 0.600000
-0.031891 -0.275669 0.041598 0.300000 0.000000 0.600000
-0.018113 -0.503766 -0.409926 0.300000 0.000000 0.600000
0.101586 -0.680066 -0.405696 0.600000 0.000000 0.300000
0.125586 0.478540 -0.162884 0.000000 1.000000 0.000000
0.144949 0.057899 -0.012219 0.300000 0.000000 0.600000
0.147181 0.339294 -0.321657 0.000000 1.000000 0.000000
-0.148562 0.383079 -0.051753 0.000000 1.000000 0.000000
-0.011266 0.582611 -0.095222 0.000000 1.000000 0.000000
-0.045890 0.381621 -0.375133 0.000000 1.000000 0.000000
0.020032 0.525374 0.220724 0.000000 1.000000 0.000000
0.060163 -0.676494 -0.299875 0.300000 0.000000 0.600000
-0.227451 0.148485 -0.140876 0.300000 0.000000 0.600000
-0.164948 0.321029 -0.142681 0.300000 0.000000 0.600000
0.085109 -0.676494 -0.161469 0.300000 0.000000 0.600000
0.086115 -0.676494 -0.110985 0.300000 0.000000 0.600000
-0.015366 0.103896 0.854660 0.300000 0.600000 0.000000
0.219952 -0.137486 -0.225122 0.300000 0.000000 0.600000
0.218543 -0.723624 -0.101592 0.600000 0.000000 0.300000
0.114759 0.510291 0.010258 0.000000 1.000000 0.000000
-0.044330 -0.523138 0.040373 0.300000 0.000000 0.600000
0.000583 -0.095142 -0.410905 0.300000 0.000000 0.600000
-0.030832 -0.597711 -0.408673 0.300000 0.000000 0.600000
0.143030 -0.586045 -0.356326 0.300000 0.000000 0.600000
0.214979 -0.637399 -0.123553 0.300000 0.000000 0.600000
-0.016670 -0.013303 0.043097 0.300000 0.000000 0.600000
-0.051791 0.340122 0.019383 0.000000 1.000000 0.000000
0.072187 0.202864 0.974599 0.000000 0.500000 0.500000
0.186268 0.400432 -0.190157 0.000000 1.000000 0.000000
-0.041402 0.022087 0.061102 0.000000 0.500000 0.500000
-0.205970 0.582611 -0.224061 0.000000 1.000000 0.000000
0.204028 -0.676494 -0.212926 0.300000 0.000000 0.600000
0.100377 0.155951 0.485500 0.000000 0.500000 0.500000
0.170307 -0.676494 -0.263181 0.300000 0.000000 0.600000
0.124927 -0.651860 -0.204610 0.600000 0.000000 0.300000
-0.099139 0.176939 0.204005 0.000000 0.500000 0.500000
-0.025625 0.527031 0.193594 0.000000 1.000000 0.000000
-0.223911 0.254316 -0.239009 0.300000 0.000000 0.600000
0.062044 0.037651 0.341608 0.000000 0.500000 0.500000
0.039854 0.505859 0.051364 0.000000 1.000000 0.000000
0.185061 -0.303333 -0.056176 0.300000 0.000000 0.600000
0.011252 -0.723624 -0.328263 0.600000 0.000000 0.300000
0.143152 0.358472 -0.010745 0.000000 1.000000 0.000000
-0.197009 0.177503 -0.303037 0.300000 0.000000 0.600000
-0.008586 0.556446 0.043893 0.000000 1.000000 0.000000
0.034403 0.461236 -0.409985 0.000000 1.000000 0.000000
-0.091983 0.321029 -0.224402 0.300000 0.000000 0.600000
-0.007512 0.457919 -0.046631 0.000000 1.000000 0.000000
-0.035530 0.333517 0.019592 0.000000 1.000000 0.000000
-0.206459 -0.247249 -0.285356 0.300000 0.000000 0.600000
-0.229554 -0.095684 -0.162220 0.300000 0.000000 0.600000
0.070281 0.350538 0.006764 0.000000 1.000000 0.000000
-0.175211 -0.672727 -0.034921 0.300000 0.000000 0.600000
0.074109 0.201059 0.366972 0.000000 0.500000 0.500000
-0.192586 0.582611 -0.145213 0.000000 1.000000 0.000000
-0.221645 -0.529305 -0.246480 0.300000 0.000000 0.600000
-0.083040 0.199431 0.404136 0.000000 0.500000 0.500000
-0.109202 0.548983 0.017288 0.000000 1.000000 0.000000
0.153737 -0.394527 -0.019432 0.300000 0.000000 0.600000
-0.021447 0.471940 -0.320891 0.000000 1.000000 0.000000
-0.088905 0.582611 -0.315522 0.000000 1.000000 0.000000
-0.026013 0.009819 0.809062 0.300000 0.600000 0.000000
-0.036956 -0.195187 -0.408070 0.300000 0.000000 0.600000
0.025053 0.582611 -0.373171 0.000000 1.000000 0.000000
0.044701 -0.171048 0.038759 0.300000 0.000000 0.600000
0.127361 0.373029 -0.233861 0.000000 1.000000 0.000000
-0.058602 0.321029 -0.216754 0.300000 0.000000 0.600000
0.076865 0.274642 0.029002 0.300000 0.000000 0.600000
-0.011559 -0.723624 -0.169597 0.600000 0.000000 0.300000
0.023152 -0.673042 -0.427670 0.600000 0.000000 0.300000
-0.040415 0.021788 0.371724 0.000000 0.500000 0.500000
-0.224958 0.542630 -0.131412 0.000000 1.000000 0.000000
-0.164209 -0.031814 -0.345177 0.300000 0.000000 0.600000
0.113499 -0.001670 -0.377903 0.300000 0.000000 0.600000
0.221758 0.395721 -0.210093 0.000000 1.000000 0.000000
0.191798 0.343999 -0.187982 0.000000 1.000000 0.000000
0.087472 0.137285 0.982197 0.000000 0.500000 0.500000
-0.036304 -0.221665 -0.408134 0.300000 0.000000 0.600000
-0.028924 -0.651860 -0.221229 0.600000 0.000000 0.300000
0.135200 0.491267 -0.361895 0.000000 1.000000 0.000000
-0.110079 -0.723624 -0.033793 0.600000 0.000000 0.300000
0.065966 -0.651860 -0.100426 0.600000 0.000000 0.300000
-0.114863 -0.723624 -0.206646 0.600000 0.000000 0.300000
-0.051975 -0.676494 -0.272401 0.300000 0.000000 0.600000
0.183550 0.534268 -0.054335 0.000000 1.000000 0.000000
-0.115567 0.039533 0.013886 0.300000 0.000000 0.600000
-0.087451 0.070697 0.843872 0.300000 0.600000 0.000000
-0.121863 -0.162310 -0.377491 0.300000 0.000000 0.600000
-0.007544 -0.637302 0.043996 0.300000 0.000000 0.600000
-0.086553 -0.011146 0.888963 0.300000 0.600000 0.000000
0.209574 -0.676494 -0.156840 0.300000 0.000000 0.600000
0.090873 0.348392 0.023025 0.000000 1.000000 0.000000
0.017657 0.017189 0.394132 0.000000 0.500000 0.500000
0.069340 -0.651860 -0.317708 0.600000 0.000000 0.300000
-0.021755 -0.028661 0.791245 0.300000 0.600000 0.000000
0.058217 0.034511 0.655427 0.000000 0.500000 0.500000
0.067916 0.206369 0.732174 0.000000 0.500000 0.500000
0.079342 0.140682 -0.015326 0.000000 0.500000 0.500000
0.131828 0.012038 -0.001451 0.300000 0.000000 0.600000
-0.214007 -0.006055 -0.095735 0.300000 0.000000 0.600000
0.208991 -0.631884 -0.103814 0.300000 0.000000 0.600000
0.078230 0.103896 0.846126 0.300000 0.600000 0.000000
-0.054060 0.582611 -0.393213 0.000000 1.000000 0.000000
-0.205295 0.328875 -0.139965 0.000000 1.000000 0.000000
-0.069842 -0.676494 -0.172211 0.300000 0.000000 0.600000
0.134604 -0.723624 -0.189313 0.600000 0.000000 0.300000
0.014167 0.509061 -0.263995 0.000000 1.000000 0.000000
-0.080122 -0.676494 -0.029712 0.300000 0.000000 0.600000
0.092362 0.342538 -0.017707 0.000000 1.000000 0.000000
-0.066501 0.236639 -0.401421 0.300000 0.000000 0.600000
0.207382 -0.411235 -0.268461 0.300000 0.000000 0.600000
-0.022488 0.582611 -0.035174 0.000000 1.000000 0.000000
-0.039213 0.163906 -0.015326 0.000000 0.500000 0.500000
0.114268 0.410445 -0.325023 0.000000 1.000000 0.000000
-0.168296 0.582611 -0.186344 0.000000 1.000000 0.000000
0.215909 -0.032126 -0.240351 0.300000 0.000000 0.600000
0.081017 0.380344 -0.360473 0.000000 1.000000 0.000000
0.016100 -0.651860 -0.271440 0.600000 0.000000 0.300000
-0.169541 0.581780 -0.338310 0.000000 1.000000 0.000000
-0.153536 0.321029 -0.212430 0.300000 0.000000 0.600000
0.163010 -0.676494 -0.314285 0.300000 0.000000 0.600000
-0.090136 0.582611 -0.068999 0.000000 1.000000 0.000000
0.034711 -0.376056 -0.407543 0.300000 0.000000 0.600000
-0.097029 0.440607 -0.044261 0.000000 1.000000 0.000000
0.001592 0.233257 0.781000 0.000000 0.500000 0.500000
0.137696 -0.651860 -0.306957 0.600000 0.000000 0.300000
0.103532 0.145124 0.083997 0.000000 0.500000 0.500000
-0.076416 0.205626 0.770751 0.000000 0.500000 0.500000
0.053268 -0.086963 0.036161 0.300000 0.000000 0.600000
0.136616 0.532837 -0.005381 0.000000 1.000000 0.000000
-0.172316 -0.559227 -0.335579 0.300000 0.000000 0.600000
0.018372 0.476494 0.282548 0.000000 1.000000 0.000000
-0.228315 0.416033 -0.225081 0.000000 1.000000 0.000000
0.048753 0.254945 0.037530 0.300000 0.000000 0.600000
-0.186327 0.264436 -0.318507 0.300000 0.000000 0.600000
-0.187981 -0.723624 -0.094065 0.600000 0.000000 0.300000
0.103472 0.103104 0.166502 0.000000 0.500000 0.500000
-0.217052 -0.658921 -0.305625 0.600000 0.000000 0.300000
-0.003242 0.483186 0.001975 0.000000 1.000000 0.000000
0.207653 0.167846 -0.099400 0.300000 0.000000 0.600000
-0.203203 -0.723624 -0.227666 0.600000 0.000000 0.300000
0.208539 -0.723624 -0.181534 0.600000 0.000000 0.300000
-0.191205 -0.723624 -0.051905 0.600000 0.000000 0.300000
-0.093393 -0.418923 -0.392709 0.300000 0.000000 0.600000
0.033406 -0.712250 -0.426660 0.600000 0.000000 0.300000
0.035902 0.084505 0.982197 0.000000 0.500000 0.500000
-0.015182 0.063129 0.043244 0.300000 0.000000 0.600000
-0.234305 -0.716192 -0.097132 0.600000 0.000000 0.300000
0.017539 0.422163 -0.357142 0.000000 1.000000 0.000000
0.043702 -0.649946 -0.406033 0.300000 0.000000 0.600000
-0.229655 -0.400329 -0.203720 0.300000 0.000000 0.600000
-0.234235 -0.723624 -0.163348 0.600000 0.000000 0.300000
-0.095459 0.067325 0.024633 0.300000 0.000000 0.600000
-0.112801 0.143213 -0.382335 0.300000 0.000000 0.600000
0.029408 0.497095 0.171813 0.000000 1.000000 0.000000
-0.089043 -0.723624 -0.334088 0.600000 0.000000 0.300000
-0.070287 0.024493 0.033302 0.300000 0.000000 0.600000
-0.108903 0.465612 -0.080933 0.000000 1.000000 0.000000
0.197890 0.073446 -0.287180 0.300000 0.000000 0.600000
0.101189 -0.651860 -0.323905 0.600000 0.000000 0.300000
-0.050526 -0.427948 0.039296 0.300000 0.000000 0.600000
0.012981 0.530626 0.039167 0.000000 1.000000 0.000000
0.089937 0.068893 0.909994 0.000000 0.500000 0.500000
-0.048701 0.080599 0.938639 0.300000 0.600000 0.000000
-0.041991 0.226573 0.305905 0.000000 0.500000 0.500000
-0.177899 -0.677776 -0.008584 0.600000 0.000000 0.300000
-0.105799 0.085728 0.680414 0.000000 0.500000 0.500000
0.105959 -0.723624 -0.025094 0.600000 0.000000 0.300000
0.074708 -0.651860 -0.188507 0.600000 0.000000 0.300000
-0.098668 0.177820 0.598625 0.000000 0.500000 0.500000
0.206042 -0.651860 -0.128166 0.600000 0.000000 0.300000
-0.006778 0.233494 -0.008725 0.000000 0.500000 0.500000
0.143014 -0.042460 -0.010632 0.300000 0.000000 0.600000
0.055802 0.221037 -0.402363 0.300000 0.000000 0.600000
-0.108355 0.303836 -0.384712 0.300000 0.000000 0.600000
0.012472 -0.509189 0.042763 0.300000 0.000000 0.600000
0.108061 0.076818 0.013838 0.300000 0.000000 0.600000
0.156925 -0.156008 -0.344923 0.300000 0.000000 0.600000
-0.183799 0.321029 -0.217006 0.300000 0.000000 0.600000
-0.000703 0.320655 0.023694 0.000000 1.000000 0.000000
0.098486 0.086654 0.062665 0.000000 0.500000 0.500000
-0.229603 0.067179 -0.204244 0.300000 0.000000 0.600000
-0.195326 0.339110 -0.255994 0.000000 1.000000 0.000000
0.220770 0.183073 -0.150153 0.300000 0.000000 0.600000
0.027111 -0.651860 -0.166076 0.600000 0.000000 0.300000
-0.073022 -0.022139 0.896083 0.300000 0.600000 0.000000
0.027355 0.488951 0.411993 0.000000 1.000000 0.000000
0.032955 -0.676494 -0.019772 0.300000 0.000000 0.600000
0.030607 0.492909 -0.290434 0.000000 1.000000 0.000000
-0.147230 0.321029 -0.296017 0.300000 0.000000 0.600000
-0.018324 0.471415 0.437028 0.000000 1.000000 0.000000
-0.230541 -0.143727 -0.194729 0.300000 0.000000 0.600000
0.061627 0.211530 0.870319 0.000000 0.500000 0.500000
0.093488 0.321029 -0.246787 0.300000 0.000000 0.600000
0.147667 -0.578801 -0.014450 0.300000 0.000000 0.600000
-0.221124 -0.380695 -0.118773 0.300000 0.000000 0.600000
-0.045622 0.529378 0.040246 0.000000 1.000000 0.000000
-0.228496 0.559583 -0.151482 0.000000 1.000000 0.000000
0.194272 -0.667159 -0.037614 0.600000 0.000000 0.300000
-0.036976 0.496830 0.102914 0.000000 1.000000 0.000000
-0.012152 0.232965 0.245370 0.000000 0.500000 0.500000
-0.024527 -0.723624 -0.192942 0.600000 0.000000 0.300000
0.084446 -0.408484 0.026460 0.300000 0.000000 0.600000
-0.020041 -0.478566 -0.409736 0.300000 0.000000 0.600000
0.191375 -0.723624 -0.228199 0.600000 0.000000 0.300000
-0.167700 -0.723624 -0.138331 0.600000 0.000000 0.300000
0.221059 0.434984 -0.217177 0.000000 1.000000 0.000000
0.034557 -0.655083 0.040588 0.300000 0.000000 0.600000
-0.027972 0.321029 -0.330336 0.300000 0.000000 0.600000
-0.133868 0.350338 -0.135473 0.000000 1.000000 0.000000
-0.194968 -0.023649 -0.060116 0.300000 0.000000 0.600000
0.070428 -0.028897 0.848733 0.300000 0.600000 0.000000
0.005336 0.232889 0.464390 0.000000 0.500000 0.500000
-0.010789 -0.676494 -0.040715 0.300000 0.000000 0.600000
0.196852 -0.534438 -0.077848 0.300000 0.000000 0.600000
-0.027930 -0.012644 0.947661 0.300000 0.600000 0.000000
0.077264 0.076667 0.835327 0.300000 0.600000 0.000000
0.105039 0.071631 -0.382425 0.300000 0.000000 0.600000
0.086715 0.582611 -0.249241 0.000000 1.000000 0.000000
0.097657 0.164917 0.600758 0.000000 0.500000 0.500000
-0.025021 0.321029 -0.099552 0.300000 0.000000 0.600000
0.018367 0.344356 -0.386031 0.000000 1.000000 0.000000
0.136753 -0.361606 -0.005493 0.300000 0.000000 0.600000
-0.022598 0.529515 0.159163 0.000000 1.000000 0.000000
-0.230885 -0.615954 -0.175738 0.300000 0.000000 0.600000
0.044173 -0.324339 -0.405890 0.300000 0.000000 0.600000
0.182740 -0.650610 -0.053347 0.300000 0.000000 0.600000
0.197398 -0.035169 -0.078870 0.300000 0.000000 0.600000
0.198211 0.582611 -0.140144 0.000000 1.000000 0.000000
-0.098381 0.178358 0.412577 0.000000 0.500000 0.500000
-0.228832 0.317213 -0.212075 0.300000 0.000000 0.600000
-0.025205 0.539908 -0.054977 0.000000 1.000000 0.000000
0.035835 0.482733 0.028318 0.000000 1.000000 0.000000
0.215226 0.582611 -0.224840 0.000000 1.000000 0.000000
-0.179785 0.582611 -0.291724 0.000000 1.000000 0.000000
0.029648 0.503701 0.295691 0.000000 1.000000 0.000000
0.017696 -0.465655 0.042248 0.300000 0.000000 0.600000
0.091721 0.072230 0.694108 0.000000 0.500000 0.500000
-0.229620 0.226911 -0.204074 0.300000 0.000000 0.600000
-0.100489 0.074426 0.122534 0.000000 0.500000 0.500000
0.209705 -0.212537 -0.260803 0.300000 0.000000 0.600000
-0.025874 0.104171 0.982197 0.000000 0.500000 0.500000
0.136448 -0.551075 -0.361728 0.300000 0.000000 0.600000
0.151607 0.582611 -0.255179 0.000000 1.000000 0.000000
0.208361 -0.520003 -0.265233 0.300000 0.000000 0.600000
-0.112985 0.122582 0.313914 0.000000 0.500000 0.500000
-0.085481 -0.414285 0.028693 0.300000 0.000000 0.600000
0.098786 0.321029 -0.186968 0.300000 0.000000 0.600000
0.100534 0.093404 0.189492 0.000000 0.500000 0.500000
-0.103609 0.168576 0.696634 0.000000 0.500000 0.500000
-0.151911 -0.079785 -0.011701 0.300000 0.000000 0.600000
-0.060821 -0.676494 0.013541 0.300000 0.000000 0.600000
0.148511 0.511874 -0.351557 0.000000 1.000000 0.000000
0.039974 0.024401 0.280596 0.000000 0.500000 0.500000
0.048235 -0.723624 -0.382176 0.600000 0.000000 0.300000
-0.138359 0.495792 -0.364599 0.000000 1.000000 0.000000
0.072252 0.321029 0.026790 0.300000 0.000000 0.600000
-0.068457 -0.017384 0.033857 0.300000 0.000000 0.600000
0.220606 -0.390776 -0.218483 0.300000 0.000000 0.600000
-0.014597 0.537116 -0.072426 0.000000 1.000000 0.000000
0.116017 -0.301467 -0.376557 0.300000 0.000000 0.600000
0.104116 0.548225 -0.382217 0.000000 1.000000 0.000000
-0.025759 0.492398 -0.295115 0.000000 1.000000 0.000000
0.089782 0.180236 0.485242 0.000000 0.500000 0.500000
0.142381 -0.245196 -0.010112 0.300000 0.000000 0.600000
-0.120308 0.369722 -0.020963 0.000000 1.000000 0.000000
0.095167 0.281066 -0.387701 0.300000 0.000000 0.600000
-0.022161 0.529779 0.219770 0.000000 1.000000 0.000000
-0.203947 0.012958 -0.076914 0.300000 0.000000 0.600000
-0.231201 0.483687 -0.178942 0.000000 1.000000 0.000000
0.027299 0.514478 0.388125 0.000000 1.000000 0.000000
-0.077379 -0.029881 0.910067 0.300000 0.600000 0.000000
0.036462 0.225947 0.062254 0.000000 0.500000 0.500000
0.083683 0.322535 0.003681 0.000000 1.000000 0.000000
-0.103160 0.499380 -0.198652 0.000000 1.000000 0.000000
-0.080399 0.031891 0.904416 0.300000 0.600000 0.000000
0.039920 0.378977 0.008968 0.000000 1.000000 0.000000
-0.012783 -0.723624 -0.220446 0.600000 0.000000 0.300000
0.195308 -0.083300 -0.292011 0.300000 0.000000 0.600000
-0.229770 -0.188418 -0.202551 0.300000 0.000000 0.600000
-0.135522 0.393940 -0.287764 0.000000 1.000000 0.000000
-0.221916 0.446796 -0.250622 0.000000 1.000000 0.000000
-0.003797 0.233788 0.655084 0.000000 0.500000 0.500000
0.084220 -0.393491 -0.393553 0.300000 0.000000 0.600000
0.169281 0.321029 -0.039634 0.300000 0.000000 0.600000
-0.075040 0.582611 -0.374335 0.000000 1.000000 0.000000
-0.049182 0.321029 0.002165 0.300000 0.000000 0.600000
-0.027449 0.290867 -0.409007 0.300000 0.000000 0.600000
0.074847 0.200160 0.125058 0.000000 0.500000 0.500000
0.222039 0.105275 -0.203937 0.300000 0.000000 0.600000
0.021644 -0.040197 0.041859 0.300000 0.000000 0.600000
-0.078735 0.483896 -0.084173 0.000000 1.000000 0.000000
0.003374 -0.651860 -0.086474 0.600000 0.000000 0.300000
0.004890 -0.390992 -0.410480 0.300000 0.000000 0.600000
-0.207531 -0.280249 -0.083620 0.300000 0.000000 0.600000
-0.193364 0.235242 -0.309857 0.300000 0.000000 0.600000
0.056382 0.009819 0.897030 0.300000 0.600000 0.000000
0.009937 -0.175544 -0.409983 0.300000 0.000000 0.600000
-0.018662 0.418049 -0.003492 0.000000 1.000000 0.000000
-0.106251 0.161622 0.402389 0.000000 0.500000 0.500000
-0.070868 0.582611 -0.096927 0.000000 1.000000 0.000000
-0.090386 0.497633 -0.241160 0.000000 1.000000 0.000000
-0.215604 -0.517819 -0.100578 0.300000 0.000000 0.600000
0.002511 -0.663734 0.043744 0.300000 0.000000 0.600000
0.090905 0.110939 -0.015326 0.000000 0.500000 0.500000
0.037961 0.009819 0.867279 0.300000 0.600000 0.000000
-0.055769 0.028784 0.393607 0.000000 0.500000 0.500000
-0.155401 -0.651860 -0.061489 0.600000 0.000000 0.300000
0.168790 -0.497928 -0.330621 0.300000 0.000000 0.600000
-0.052469 -0.676494 -0.147270 0.300000 0.000000 0.600000
0.005520 0.425417 -0.006869 0.000000 1.000000 0.000000
0.093173 0.173893 0.628713 0.000000 0.500000 0.500000
-0.162193 -0.723624 -0.298454 0.600000 0.000000 0.300000
-0.096747 0.181415 0.757760 0.000000 0.500000 0.500000
0.052237 0.034590 0.982197 0.000000 0.500000 0.500000
0.046509 0.484263 -0.069810 0.000000 1.000000 0.000000
-0.061053 0.582611 -0.338304 0.000000 1.000000 0.000000
-0.005604 0.201137 -0.015326 0.000000 0.500000 0.500000
0.108524 -0.676494 -0.232780 0.300000 0.000000 0.600000
0.019443 -0.723624 -0.033273 0.600000 0.000000 0.300000
0.220384 0.054805 -0.146228 0.300000 0.000000 0.600000
0.029358 0.472890 0.002465 0.000000 1.000000 0.000000
0.205773 -0.723624 -0.163353 0.600000 0.000000 0.300000
-0.201480 -0.723624 -0.291680 0.600000 0.000000 0.300000
0.031330 0.021336 0.541547 0.000000 0.500000 0.500000
0.098832 0.087794 0.851422 0.000000 0.500000 0.500000
0.060527 -0.016329 0.033959 0.300000 0.000000 0.600000
0.150702 0.321029 -0.253998 0.300000 0.000000 0.600000
-0.014678 -0.101575 0.043293 0.300000 0.000000 0.600000
0.187077 -0.651860 -0.136424 0.600000 0.000000 0.300000
-0.022275 0.041952 -0.015326 0.000000 0.500000 0.500000
-0.061702 0.216883 0.248542 0.000000 0.500000 0.500000
0.046356 -0.051745 0.038257 0.300000 0.000000 0.600000
0.023681 0.321029 -0.075437 0.300000 0.000000 0.600000
0.220319 -0.482220 -0.145572 0.300000 0.000000 0.600000
-0.023048 -0.676494 -0.131826 0.300000 0.000000 0.600000
0.027104 0.029436 0.041322 0.300000 0.000000 0.600000
0.140628 0.227886 -0.008674 0.300000 0.000000 0.600000
-0.037271 0.228005 0.485518 0.000000 0.500000 0.500000
-0.115485 0.582611 -0.000426 0.000000 1.000000 0.000000
0.056366 -0.676494 -0.278245 0.300000 0.000000 0.600000
0.144270 -0.602011 -0.011662 0.300000 0.000000 0.600000
0.159167 -0.190936 -0.342348 0.300000 0.000000 0.600000
0.186940 -0.676494 -0.263075 0.300000 0.000000 0.600000
-0.206738 -0.154178 -0.082135 0.300000 0.000000 0.600000
0.174855 0.321029 -0.185648 0.300000 0.000000 0.600000
0.009872 0.370168 0.015644 0.000000 1.000000 0.000000
-0.016714 0.582611 -0.076123 0.000000 1.000000 0.000000
-0.132471 0.098242 0.004253 0.300000 0.000000 0.600000
-0.160048 0.041664 -0.018379 0.300000 0.000000 0.600000
-0.031299 0.019023 0.752230 0.000000 0.500000 0.500000
-0.167467 0.341184 -0.066343 0.000000 1.000000 0.000000
-0.185132 -0.705436 -0.017223 0.600000 0.000000 0.300000
-0.049536 -0.723624 -0.084173 0.600000 0.000000 0.300000
-0.067102 -0.184542 -0.401239 0.300000 0.000000 0.600000
-0.042786 0.226332 0.922382 0.000000 0.500000 0.500000
0.019692 0.017806 0.750299 0.000000 0.500000 0.500000
-0.112493 0.117585 0.820328 0.000000 0.500000 0.500000
0.045963 0.221237 0.320184 0.000000 0.500000 0.500000
-0.170233 -0.001479 -0.338116 0.300000 0.000000 0.600000
0.045130 0.221682 0.696976 0.000000 0.500000 0.500000
0.191092 0.341689 -0.147607 0.000000 1.000000 0.000000
0.016023 0.157596 0.982197 0.000000 0.500000 0.500000
0.189979 0.390642 -0.298573 0.000000 1.000000 0.000000
0.045677 0.182438 0.038463 0.300000 0.000000 0.600000
-0.112006 0.136198 0.581550 0.000000 0.500000 0.500000
0.029882 0.419288 -0.348185 0.000000 1.000000 0.000000
0.180421 -0.651860 -0.260071 0.600000 0.000000 0.300000
0.035680 0.400956 -0.369321 0.000000 1.000000 0.000000
-0.101241 0.490466 -0.119158 0.000000 1.000000 0.000000
-0.200278 -0.651860 -0.100478 0.600000 0.000000 0.300000
0.168390 -0.651860 -0.240004 0.600000 0.000000 0.300000
-0.223191 -0.004331 -0.125586 0.300000 0.000000 0.600000
-0.229456 -0.072067 -0.161230 0.300000 0.000000 0.600000
-0.051015 0.454012 -0.331638 0.000000 1.000000 0.000000
-0.097662 0.179703 0.924869 0.000000 0.500000 0.500000
0.109536 0.473376 -0.261141 0.000000 1.000000 0.000000
0.198905 0.115021 -0.081690 0.300000 0.000000 0.600000
-0.080458 -0.315839 -0.397187 0.300000 0.000000 0.600000
0.084678 0.183264 -0.393308 0.300000 0.000000 0.600000
0.087116 0.152462 0.982197 0.000000 0.500000 0.500000
-0.211592 0.570636 -0.275939 0.000000 1.000000 0.000000
0.103889 0.141496 0.806828 0.000000 0.500000 0.500000
-0.152052 -0.676494 -0.057579 0.300000 0.000000 0.600000
-0.027918 0.478226 0.469690 0.000000 1.000000 0.000000
0.097450 0.165601 0.213448 0.000000 0.500000 0.500000
-0.114578 0.110718 -0.381385 0.300000 0.000000 0.600000
-0.213118 -0.187347 -0.094073 0.300000 0.000000 0.600000
-0.186214 0.369936 -0.048328 0.000000 1.000000 0.000000
0.228815 -0.651860 -0.220301 0.600000 0.000000 0.300000
-0.047107 0.070468 0.982197 0.000000 0.500000 0.500000
-0.227825 -0.143300 -0.222302 0.300000 0.000000 0.600000
-0.229593 -0.034564 -0.204354 0.300000 0.000000 0.600000
0.088756 0.182156 0.308457 0.000000 0.500000 0.500000
0.056154 -0.676494 -0.120698 0.300000 0.000000 0.600000
0.119938 -0.651860 -0.176088 0.600000 0.000000 0.300000
0.000696 0.233346 0.691833 0.000000 0.500000 0.500000
-0.004685 -0.676494 -0.377192 0.300000 0.000000 0.600000
0.087147 0.185166 0.514861 0.000000 0.500000 0.500000
0.215050 0.039970 -0.243184 0.300000 0.000000 0.600000
0.220113 0.075479 -0.223487 0.300000 0.000000 0.600000
0.156964 -0.676494 -0.107536 0.300000 0.000000 0.600000
-0.048274 -0.004361 0.926408 0.300000 0.600000 0.000000
0.000566 0.468401 0.305537 0.000000 1.000000 0.000000
-0.068814 0.497273 -0.402185 0.000000 1.000000 0.000000
0.049068 -0.676494 0.005620 0.300000 0.000000 0.600000
-0.087508 -0.338506 -0.395049 0.300000 0.000000 0.600000
-0.002051 0.321029 -0.402563 0.300000 0.000000 0.600000
0.095208 -0.241289 -0.387680 0.300000 0.000000 0.600000
-0.200439 0.122265 -0.296619 0.300000 0.000000 0.600000
-0.158806 -0.055277 -0.017360 0.300000 0.000000 0.600000
-0.188669 0.377115 -0.261436 0.000000 1.000000 0.000000
0.221333 0.030764 -0.155863 0.300000 0.000000 0.600000
0.001601 -0.034342 0.778886 0.300000 0.600000 0.000000
0.172182 -0.066036 -0.040483 0.300000 0.000000 0.600000
-0.105913 -0.481377 0.019046 0.300000 0.000000 0.600000
-0.129963 -0.651860 -0.115063 0.600000 0.000000 0.300000
0.148808 -0.297817 -0.015387 0.300000 0.000000 0.600000
0.014563 0.178925 -0.015326 0.000000 0.500000 0.500000
-0.102395 -0.651860 -0.147816 0.600000 0.000000 0.300000
-0.074839 0.206920 0.977248 0.000000 0.500000 0.500000
0.217384 0.018106 -0.235491 0.300000 0.000000 0.600000
-0.102438 0.170768 0.301513 0.000000 0.500000 0.500000
-0.061381 0.217055 0.119661 0.000000 0.500000 0.500000
0.172460 0.423079 -0.159099 0.000000 1.000000 0.000000
-0.061310 0.103896 0.929130 0.300000 0.600000 0.000000
0.018764 -0.211447 -0.409114 0.300000 0.000000 0.600000
-0.028478 0.573583 0.041934 0.000000 1.000000 0.000000
-0.114001 0.582611 -0.242880 0.000000 1.000000 0.000000
-0.011999 0.232980 0.135888 0.000000 0.500000 0.500000
-0.000694 0.015357 0.465683 0.000000 0.500000 0.500000
-0.163315 -0.710399 -0.370356 0.600000 0.000000 0.300000
-0.039726 -0.247643 0.040826 0.300000 0.000000 0.600000
0.166126 0.064695 -0.033104 0.300000 0.000000 0.600000
-0.037308 0.227994 0.447194 0.000000 0.500000 0.500000
-0.118630 -0.624230 -0.379219 0.300000 0.000000 0.600000
0.007179 0.471770 -0.072426 0.000000 1.000000 0.000000
-0.012368 0.336905 0.021540 0.000000 1.000000 0.000000
0.044394 -0.651860 -0.244528 0.600000 0.000000 0.300000
-0.137876 0.028115 -0.366788 0.300000 0.000000 0.600000
0.220945 -0.422719 -0.215041 0.300000 0.000000 0.600000
-0.203186 0.166501 -0.291480 0.300000 0.000000 0.600000
0.218980 0.582611 -0.184924 0.000000 1.000000 0.000000
0.093438 0.582611 0.001326 0.000000 1.000000 0.000000
0.123704 -0.651860 -0.056470 0.600000 0.000000 0.300000
-0.045638 0.582611 -0.107874 0.000000 1.000000 0.000000
-0.144967 0.444654 -0.101006 0.000000 1.000000 0.000000
-0.229265 0.153567 -0.207682 0.300000 0.000000 0.600000
0.207418 0.491862 -0.271343 0.000000 1.000000 0.000000
-0.113201 -0.723624 -0.100260 0.600000 0.000000 0.300000
-0.028613 0.397581 -0.372766 0.000000 1.000000 0.000000
-0.040298 0.437545 -0.409093 0.000000 1.000000 0.000000
0.085440 0.187252 0.232283 0.000000 0.500000 0.500000
0.062848 -0.073091 -0.400226 0.300000 0.000000 0.600000
-0.023259 0.016968 0.183795 0.000000 0.500000 0.500000
-0.016386 0.079832 0.043125 0.300000 0.000000 0.600000
0.133521 0.072291 -0.002841 0.300000 0.000000 0.600000
0.070471 0.475078 -0.296561 0.000000 1.000000 0.000000
0.171300 -0.653236 -0.039407 0.300000 0.000000 0.600000
-0.075207 -0.723624 -0.389146 0.600000 0.000000 0.300000
-0.059761 0.217921 0.349354 0.000000 0.500000 0.500000
0.101361 0.152708 0.168696 0.000000 0.500000 0.500000
-0.090669 0.416935 -0.024543 0.000000 1.000000 0.000000
-0.032141 -0.547917 -0.408545 0.300000 0.000000 0.600000
0.055249 -0.265499 0.035560 0.300000 0.000000 0.600000
-0.089135 0.192005 0.791436 0.000000 0.500000 0.500000
0.105226 0.120917 0.225146 0.000000 0.500000 0.500000
-0.094144 0.474266 -0.081712 0.000000 1.000000 0.000000
-0.103903 -0.549792 0.020120 0.300000 0.000000 0.600000
-0.059300 -0.213797 -0.403606 0.300000 0.000000 0.600000
-0.088797 -0.354366 0.027687 0.300000 0.000000 0.600000
0.084851 -0.723624 -0.106614 0.600000 0.000000 0.300000
-0.204366 0.359232 -0.154580 0.000000 1.000000 0.000000
0.102325 0.099308 0.662028 0.000000 0.500000 0.500000
0.103903 0.141362 0.656938 0.000000 0.500000 0.500000
-0.229677 -0.510098 -0.203502 0.300000 0.000000 0.600000
0.197129 0.024240 -0.078366 0.300000 0.000000 0.600000
-0.134988 0.321029 -0.062058 0.300000 0.000000 0.600000
0.093159 -0.456134 0.021803 0.300000 0.000000 0.600000
0.212575 -0.499549 -0.115629 0.300000 0.000000 0.600000
-0.191451 -0.149126 -0.054709 0.300000 0.000000 0.600000
0.136292 0.346217 -0.092416 0.000000 1.000000 0.000000
-0.207063 0.311744 -0.284227 0.300000 0.000000 0.600000
0.039760 0.037175 -0.407046 0.300000 0.000000 0.600000
-0.123848 -0.723624 -0.136339 0.600000 0.000000 0.300000
0.066364 -0.676494 0.010364 0.300000 0.000000 0.600000
0.178436 0.407412 -0.320643 0.000000 1.000000 0.000000
-0.188113 0.013440 -0.316330 0.300000 0.000000 0.600000
0.088265 0.065765 0.425546 0.000000 0.500000 0.500000
-0.104999 0.006818 0.019534 0.300000 0.000000 0.600000
-0.230968 0.579014 -0.176577 0.000000 1.000000 0.000000
-0.121545 -0.651860 -0.274959 0.600000 0.000000 0.300000
0.097551 0.083572 0.277921 0.000000 0.500000 0.500000
-0.104995 0.165760 0.155563 0.000000 0.500000 0.500000
-0.019825 0.212415 -0.409757 0.300000 0.000000 0.600000
0.089410 0.180933 0.903845 0.000000 0.500000 0.500000
-0.229228 0.104612 -0.158916 0.300000 0.000000 0.600000
-0.245824 -0.651921 -0.220278 0.600000 0.000000 0.300000
-0.227846 -0.479999 -0.144878 0.300000 0.000000 0.600000
-0.159179 0.451316 -0.348366 0.000000 1.000000 0.000000
-0.099986 -0.227249 -0.389185 0.300000 0.000000 0.600000
0.073104 0.514309 0.030143 0.000000 1.000000 0.000000
-0.231338 -0.583823 -0.186631 0.300000 0.000000 0.600000
0.061343 0.211763 0.855345 0.000000 0.500000 0.500000
-0.087142 0.194432 0.670962 0.000000 0.500000 0.500000
-0.031693 0.007505 0.783356 0.300000 0.600000 0.000000
-0.022285 0.370816 0.042544 0.000000 1.000000 0.000000
0.081398 -0.723624 -0.305151 0.600000 0.000000 0.300000
-0.224329 0.321029 -0.231994 0.300000 0.000000 0.600000
0.131253 0.582611 -0.354817 0.000000 1.000000 0.000000
0.024541 0.321029 -0.311048 0.300000 0.000000 0.600000
0.178741 0.164211 -0.318496 0.300000 0.000000 0.600000
-0.034884 -0.022518 0.934194 0.300000 0.600000 0.000000
-0.182699 -0.344905 -0.044044 0.300000 0.000000 0.600000
