-0.191984 0.209274 0.260343 0.600000 0.000000 0.300000
-0.358431 -0.511347 0.212583 0.300000 0.000000 0.600000
0.336002 0.009142 0.223004 0.300000 0.000000 0.600000
0.220352 0.162733 0.255014 0.000000 1.000000 0.000000
-0.003220 -0.018573 -0.246228 0.600000 0.000000 0.300000
-0.220377 0.129148 0.158347 0.300000 0.000000 0.600000
-0.260915 -0.067211 0.224939 0.000000 1.000000 0.000000
-0.335662 -0.055978 -0.236596 0.300000 0.600000 0.000000
-0.355712 0.138120 -0.008358 0.300000 0.600000 0.000000
-0.355712 0.036503 0.093275 0.300000 0.600000 0.000000
-0.008699 0.179199 -0.066543 0.600000 0.000000 0.300000
0.325977 0.080423 -0.091483 0.000000 0.500000 0.500000
0.194653 0.179199 -0.141739 0.600000 0.000000 0.300000
0.361064 -0.147645 -0.247110 0.600000 0.000000 0.300000
0.056911 0.179199 0.041011 0.600000 0.000000 0.300000
-0.129719 0.179199 -0.052434 0.600000 0.000000 0.300000
0.409296 0.209274 0.185842 0.600000 0.000000 0.300000
-0.369077 0.209274 0.321630 0.600000 0.000000 0.300000
0.229877 0.138827 -0.246228 0.600000 0.300000 0.000000
-0.325638 0.007653 -0.103775 0.300000 0.600000 0.000000
0.322483 -0.706301 0.249335 0.300000 0.000000 0.600000
-0.257970 0.039674 -0.085205 0.500000 0.000000 0.500000
0.305543 0.159149 -0.258305 0.600000 0.000000 0.300000
0.110432 0.003515 0.255014 0.000000 1.000000 0.000000
0.325977 0.019507 0.177865 0.000000 0.500000 0.500000
0.325977 0.117392 -0.062053 0.000000 0.500000 0.500000
0.304558 0.179199 0.147160 0.600000 0.000000 0.300000
-0.458636 0.209274 -0.027412 0.600000 0.000000 0.300000
-0.260476 -0.056459 0.090195 0.800000 0.200000 0.500000
-0.282915 -0.101497 0.166009 0.800000 0.200000 0.500000
-0.030833 0.041448 0.224939 0.000000 1.000000 0.000000
-0.237920 -0.002175 -0.007505 0.500000 0.000000 0.500000
-0.218151 0.209274 -0.163634 0.600000 0.000000 0.300000
0.461313 0.206253 -0.120824 0.600000 0.000000 0.300000
0.343220 0.196792 -0.371735 0.600000 0.000000 0.300000
0.267313 0.062146 -0.276303 0.600000 0.000000 0.300000
-0.262144 -0.101497 0.125373 0.800000 0.200000 0.500000
0.219524 0.025463 -0.246228 0.600000 0.000000 0.300000
-0.019180 0.021799 -0.276303 0.600000 0.000000 0.300000
0.261708 0.179199 0.114209 0.600000 0.000000 0.300000
-0.355712 0.067172 -0.087711 0.300000 0.600000 0.000000
0.258310 -0.066345 0.150857 0.500000 0.500000 0.000000
0.188393 0.209274 0.185609 0.600000 0.000000 0.300000
-0.225014 -0.038841 0.215233 0.300000 0.600000 0.000000
0.356052 0.051638 -0.211915 0.000000 0.500000 0.500000
0.325977 -0.040387 0.042097 0.000000 0.500000 0.500000
-0.325638 -0.113881 -0.109449 0.300000 0.600000 0.000000
0.356052 -0.051029 0.069885 0.000000 0.500000 0.500000
0.356052 -0.033402 -0.043173 0.000000 0.500000 0.500000
-0.257629 0.129075 0.142162 0.300000 0.000000 0.600000
-0.198137 0.179199 0.114939 0.600000 0.000000 0.300000
0.248283 -0.108569 0.224939 0.000000 1.000000 0.000000
-0.143720 -0.038841 -0.153391 0.300000 0.600000 0.000000
-0.109719 -0.089301 -0.276303 0.600000 0.000000 0.300000
-0.108026 0.086680 -0.196104 0.000000 0.500000 0.500000
-0.209442 -0.038841 -0.023466 0.300000 0.600000 0.000000
-0.325638 0.080203 0.138893 0.300000 0.600000 0.000000
0.356052 -0.072026 -0.010105 0.000000 0.500000 0.500000
0.238260 0.086553 0.183152 0.500000 0.500000 0.000000
-0.217017 -0.014416 0.255014 0.000000 1.000000 0.000000
0.290890 0.137846 -0.210331 0.600000 0.300000 0.000000
-0.005782 -0.114495 -0.276303 0.600000 0.000000 0.300000
-0.241890 0.209274 -0.012688 0.600000 0.000000 0.300000
-0.308577 -0.407851 0.211452 0.300000 0.000000 0.600000
0.074625 -0.016087 0.255014 0.000000 1.000000 0.000000
-0.087704 -0.007639 0.255014 0.000000 1.000000 0.000000
0.174712 -0.020696 -0.196104 0.000000 0.500000 0.500000
0.361064 -0.038344 0.251919 0.300000 0.000000 0.600000
0.274102 -0.070692 0.224939 0.600000 0.000000 0.300000
-0.222262 0.129075 -0.157937 0.300000 0.000000 0.600000
0.361064 -0.236242 -0.270347 0.600000 0.000000 0.300000
0.156824 0.209274 -0.234516 0.600000 0.000000 0.300000
-0.030072 0.036791 -0.216154 0.000000 0.500000 0.500000
-0.066775 0.179199 0.000319 0.600000 0.000000 0.300000
0.007108 -0.072726 0.224939 0.000000 1.000000 0.000000
0.305909 -0.341680 -0.273564 0.600000 0.000000 0.300000
-0.325638 0.043960 -0.169956 0.300000 0.600000 0.000000
-0.093336 0.179199 -0.202180 0.600000 0.000000 0.300000
0.258310 0.059061 -0.080352 0.500000 0.500000 0.000000
-0.024414 -0.038841 0.075566 0.300000 0.600000 0.000000
0.099744 0.126569 -0.210036 0.000000 0.500000 0.500000
-0.177712 0.209274 0.319383 0.600000 0.000000 0.300000
0.006188 -0.047139 0.255014 0.000000 1.000000 0.000000
0.264247 -0.097571 -0.276303 0.600000 0.000000 0.300000
0.158242 0.158700 0.199877 0.000000 1.000000 0.000000
0.206085 0.209274 0.018226 0.600000 0.000000 0.300000
-0.327042 0.179199 -0.008622 0.300000 0.600000 0.000000
0.238260 -0.038011 0.035800 0.500000 0.500000 0.000000
-0.278056 -0.112138 -0.246228 0.600000 0.000000 0.300000
-0.231259 0.030848 -0.216154 0.000000 0.500000 0.500000
-0.034538 -0.058891 -0.100133 0.300000 0.600000 0.000000
-0.323832 0.072072 0.260026 0.300000 0.000000 0.600000
0.003466 0.209274 0.046404 0.600000 0.000000 0.300000
0.325977 0.117150 -0.191375 0.000000 0.500000 0.500000
-0.355712 0.143277 -0.151064 0.300000 0.600000 0.000000
-0.285418 0.088975 -0.208081 0.300000 0.000000 0.600000
0.083197 0.087312 -0.196104 0.000000 0.500000 0.500000
-0.062315 -0.098380 -0.276303 0.600000 0.000000 0.300000
-0.355712 0.114356 0.057677 0.300000 0.600000 0.000000
-0.198673 -0.079279 -0.276303 0.600000 0.000000 0.300000
0.325977 -0.015837 -0.186437 0.000000 0.500000 0.500000
-0.355712 0.100660 -0.122637 0.300000 0.600000 0.000000
0.256340 -0.071422 -0.026852 0.600000 0.000000 0.300000
0.356052 -0.123588 -0.145465 0.000000 0.500000 0.500000
-0.318374 -0.554161 0.214529 0.300000 0.000000 0.600000
0.111655 0.179199 -0.041536 0.600000 0.000000 0.300000
0.078563 0.179199 0.091639 0.600000 0.000000 0.300000
0.258310 0.026380 0.176279 0.500000 0.500000 0.000000
0.315429 0.037354 -0.266278 0.600000 0.000000 0.300000
0.283748 0.209274 -0.097730 0.600000 0.000000 0.300000
0.150798 -0.058891 0.044834 0.300000 0.600000 0.000000
0.019983 0.129434 0.199877 0.000000 1.000000 0.000000
0.356052 0.086632 0.045635 0.000000 0.500000 0.500000
-0.257970 0.122956 -0.060881 0.500000 0.000000 0.500000
-0.290551 -0.069411 0.057413 0.800000 0.200000 0.500000
-0.264112 0.181685 -0.311309 0.600000 0.000000 0.300000
0.325977 0.093766 0.173349 0.000000 0.500000 0.500000
-0.105299 0.122075 -0.216154 0.000000 0.500000 0.500000
0.325977 0.006819 0.066633 0.000000 0.500000 0.500000
0.364346 0.209274 0.139707 0.600000 0.000000 0.300000
-0.355712 -0.097270 0.188810 0.300000 0.600000 0.000000
-0.289509 0.129075 -0.031793 0.300000 0.000000 0.600000
0.236615 -0.038841 0.131048 0.300000 0.600000 0.000000
-0.321683 -0.453726 -0.281315 0.600000 0.300000 0.000000
-0.262896 -0.101497 -0.000086 0.800000 0.200000 0.500000
0.108747 -0.051704 -0.246228 0.600000 0.000000 0.300000
-0.142612 0.153398 0.255014 0.000000 1.000000 0.000000
-0.355712 -0.007411 0.117865 0.300000 0.600000 0.000000
-0.283436 0.209274 -0.083716 0.600000 0.000000 0.300000
0.325977 0.044709 0.097137 0.000000 0.500000 0.500000
-0.404527 0.209274 0.275670 0.600000 0.000000 0.300000
-0.072316 0.209274 0.054877 0.600000 0.000000 0.300000
0.323615 -0.020668 -0.266278 0.600000 0.000000 0.300000
0.067924 -0.038841 -0.201895 0.000000 0.500000 0.500000
-0.355712 0.098009 0.198988 0.300000 0.600000 0.000000
0.210617 0.035239 0.224939 0.000000 1.000000 0.000000
0.248823 0.159149 -0.036391 0.600000 0.300000 0.000000
0.146398 0.209274 -0.026802 0.600000 0.000000 0.300000
0.108041 0.179199 -0.221453 0.600000 0.000000 0.300000
-0.237920 -0.023603 0.162636 0.500000 0.000000 0.500000
-0.155316 0.010049 -0.216154 0.000000 0.500000 0.500000
-0.208512 -0.035284 -0.246228 0.600000 0.000000 0.300000
-0.349712 -0.349184 -0.226501 0.600000 0.300000 0.000000
0.209351 0.179199 -0.225244 0.600000 0.000000 0.300000
0.325977 -0.125896 -0.117059 0.000000 0.500000 0.500000
0.182214 0.140780 0.255014 0.000000 1.000000 0.000000
-0.273304 0.088975 0.169138 0.300000 0.000000 0.600000
-0.325638 0.083977 -0.150510 0.300000 0.600000 0.000000
-0.325638 -0.031948 -0.047954 0.300000 0.600000 0.000000
-0.308607 -0.370016 -0.281315 0.600000 0.300000 0.000000
0.322381 -0.204308 0.260026 0.300000 0.000000 0.600000
0.238260 -0.015350 -0.172102 0.500000 0.500000 0.000000
0.361064 -0.752354 0.223951 0.300000 0.000000 0.600000
-0.081898 0.108584 0.224939 0.000000 1.000000 0.000000
0.238260 0.073280 0.103199 0.500000 0.500000 0.000000
-0.290551 -0.031577 0.142372 0.800000 0.200000 0.500000
-0.195161 0.096360 -0.196104 0.000000 0.500000 0.500000
-0.151546 0.209274 -0.029081 0.600000 0.000000 0.300000
-0.112716 0.209274 -0.337816 0.600000 0.000000 0.300000
0.010161 -0.038841 0.166474 0.300000 0.600000 0.000000
0.320731 -0.649435 0.260026 0.300000 0.000000 0.600000
0.290890 -0.068815 0.048501 0.600000 0.000000 0.300000
0.303120 -0.280338 -0.246610 0.600000 0.000000 0.300000
-0.148306 -0.005642 0.255014 0.000000 1.000000 0.000000
-0.274720 -0.032052 -0.276303 0.600000 0.000000 0.300000
-0.352298 -0.215677 -0.281315 0.600000 0.300000 0.000000
0.304593 -0.239826 0.200241 0.300000 0.000000 0.600000
-0.311330 0.179199 0.067362 0.600000 0.000000 0.300000
0.338443 0.209274 0.259178 0.600000 0.000000 0.300000
-0.044509 0.126569 -0.212788 0.000000 0.500000 0.500000
0.302793 0.143823 0.260026 0.300000 0.000000 0.600000
0.327681 -0.207912 0.199877 0.300000 0.000000 0.600000
-0.011714 -0.040219 -0.216154 0.300000 0.600000 0.000000
0.300915 -0.041681 0.223836 0.300000 0.000000 0.600000
0.252934 0.081916 -0.246228 0.600000 0.000000 0.300000
-0.250076 0.044622 -0.276303 0.600000 0.000000 0.300000
-0.114786 -0.151621 -0.254619 0.600000 0.000000 0.300000
0.325977 -0.031561 0.129696 0.000000 0.500000 0.500000
0.238260 0.061407 -0.122835 0.500000 0.500000 0.000000
-0.217653 -0.014115 -0.276303 0.600000 0.000000 0.300000
-0.162729 0.145401 -0.246228 0.600000 0.000000 0.300000
-0.300575 -0.081739 -0.226817 0.600000 0.300000 0.000000
0.097092 -0.083599 0.224939 0.000000 1.000000 0.000000
0.238260 0.083083 0.019600 0.500000 0.500000 0.000000
-0.179265 -0.038841 0.036243 0.300000 0.600000 0.000000
0.105168 0.209274 0.021268 0.600000 0.000000 0.300000
-0.273761 0.088975 0.036906 0.300000 0.000000 0.600000
0.325977 -0.037897 -0.099567 0.000000 0.500000 0.500000
-0.360725 -0.463087 -0.249485 0.600000 0.300000 0.000000
-0.257970 0.054514 -0.133849 0.500000 0.000000 0.500000
0.330887 -0.834031 0.227251 0.300000 0.000000 0.600000
0.269044 0.022029 0.224939 0.000000 1.000000 0.000000
-0.398489 0.183628 0.196430 0.600000 0.000000 0.300000
0.108244 -0.021326 0.224939 0.000000 1.000000 0.000000
-0.182781 0.048730 -0.276303 0.600000 0.000000 0.300000
0.290890 0.110588 0.071783 0.600000 0.300000 0.000000
0.226873 -0.023956 -0.276303 0.600000 0.000000 0.300000
-0.325638 -0.124816 0.049177 0.300000 0.600000 0.000000
0.099267 0.179199 -0.126253 0.600000 0.000000 0.300000
-0.076652 -0.038841 0.111844 0.300000 0.600000 0.000000
-0.194079 0.046189 0.224939 0.000000 1.000000 0.000000
-0.335662 -0.057009 0.228463 0.300000 0.600000 0.000000
-0.212617 0.126569 0.227878 0.000000 1.000000 0.000000
0.240910 0.012982 -0.276303 0.600000 0.000000 0.300000
-0.325638 0.031388 0.043360 0.300000 0.600000 0.000000
0.232957 0.209274 -0.024748 0.600000 0.000000 0.300000
0.045043 0.179199 0.120902 0.600000 0.000000 0.300000
-0.224064 -0.101497 0.218745 0.800000 0.200000 0.500000
0.356052 -0.142179 -0.192518 0.000000 0.500000 0.500000
-0.061417 0.209274 0.235991 0.600000 0.000000 0.300000
-0.015325 -0.038841 0.121128 0.300000 0.600000 0.000000
-0.061153 0.209274 -0.161415 0.600000 0.000000 0.300000
0.290890 -0.085203 -0.122770 0.600000 0.000000 0.300000
0.224156 -0.123831 0.255014 0.000000 1.000000 0.000000
-0.253250 -0.071422 -0.246102 0.800000 0.200000 0.500000
-0.318861 -0.509726 -0.233798 0.600000 0.300000 0.000000
-0.210887 0.171335 0.255014 0.000000 1.000000 0.000000
-0.355712 0.135421 -0.074956 0.300000 0.600000 0.000000
0.263886 -0.048324 -0.246228 0.600000 0.000000 0.300000
-0.368424 0.209274 0.140859 0.600000 0.000000 0.300000
0.158793 0.209274 -0.104984 0.600000 0.000000 0.300000
-0.288431 0.179199 -0.018614 0.600000 0.000000 0.300000
0.234702 0.180701 -0.307371 0.600000 0.000000 0.300000
-0.174140 -0.057978 0.110978 0.300000 0.600000 0.000000
-0.049481 -0.011999 -0.276303 0.600000 0.000000 0.300000
0.325977 0.003468 -0.019866 0.000000 0.500000 0.500000
0.437534 0.193304 0.135849 0.600000 0.000000 0.300000
-0.113830 0.157661 -0.246228 0.600000 0.000000 0.300000
0.221648 0.179199 -0.000252 0.600000 0.000000 0.300000
0.071086 0.209274 0.213657 0.600000 0.000000 0.300000
-0.106468 -0.017712 -0.276303 0.600000 0.000000 0.300000
0.206728 -0.038841 0.171489 0.300000 0.600000 0.000000
0.325977 -0.119600 0.116050 0.000000 0.500000 0.500000
-0.244603 0.179199 0.273095 0.600000 0.000000 0.300000
-0.165501 -0.052556 -0.246228 0.600000 0.000000 0.300000
-0.290551 -0.077512 -0.023141 0.800000 0.200000 0.500000
-0.325638 0.041861 -0.000746 0.300000 0.600000 0.000000
-0.325638 -0.102212 -0.183968 0.300000 0.600000 0.000000
-0.237920 0.072788 -0.034313 0.500000 0.000000 0.500000
-0.105737 -0.038841 0.227846 0.000000 1.000000 0.000000
0.075162 0.179199 -0.006894 0.600000 0.000000 0.300000
0.361064 -0.409882 -0.250488 0.600000 0.000000 0.300000
-0.300575 -0.117889 0.218623 0.300000 0.000000 0.600000
-0.018707 0.209274 0.227788 0.600000 0.000000 0.300000
0.336002 0.091068 -0.245791 0.600000 0.000000 0.300000
-0.255051 -0.101497 -0.116639 0.800000 0.200000 0.500000
0.104081 0.179199 0.275196 0.600000 0.000000 0.300000
0.077051 0.131149 -0.246228 0.600000 0.000000 0.300000
0.226637 0.209274 -0.114384 0.600000 0.000000 0.300000
0.105467 0.105479 0.224939 0.000000 1.000000 0.000000
-0.082794 0.019688 0.224939 0.000000 1.000000 0.000000
-0.219257 0.179199 0.188372 0.600000 0.000000 0.300000
0.241322 0.209274 0.279577 0.600000 0.000000 0.300000
-0.257970 0.045718 0.223259 0.500000 0.000000 0.500000
-0.220377 -0.072618 -0.187695 0.800000 0.200000 0.500000
-0.100934 -0.047750 -0.216154 0.300000 0.600000 0.000000
-0.325638 -0.140477 0.142270 0.300000 0.600000 0.000000
-0.457311 0.198334 -0.337772 0.600000 0.000000 0.300000
-0.119038 -0.058891 -0.041425 0.300000 0.600000 0.000000
0.238260 -0.012803 0.063010 0.500000 0.500000 0.000000
0.334889 -0.808480 0.260026 0.300000 0.000000 0.600000
0.313573 0.209274 -0.188629 0.600000 0.000000 0.300000
-0.142181 0.179199 -0.257938 0.600000 0.000000 0.300000
0.329018 -0.214348 -0.221166 0.600000 0.000000 0.300000
0.035913 0.179199 -0.214298 0.600000 0.000000 0.300000
-0.355712 0.115893 -0.188936 0.300000 0.600000 0.000000
0.356052 0.094780 -0.126491 0.000000 0.500000 0.500000
0.232108 0.209274 0.317394 0.600000 0.000000 0.300000
0.260744 0.209274 0.197994 0.600000 0.000000 0.300000
-0.185976 -0.109499 0.224939 0.000000 1.000000 0.000000
-0.300575 -0.170948 -0.261688 0.600000 0.300000 0.000000
-0.181007 0.209274 0.070918 0.600000 0.000000 0.300000
-0.011762 0.186085 -0.328910 0.600000 0.000000 0.300000
0.260816 -0.099928 0.120105 0.600000 0.000000 0.300000
0.048790 0.033037 -0.276303 0.600000 0.000000 0.300000
0.193140 0.179199 0.220395 0.600000 0.000000 0.300000
0.258310 0.123377 0.010951 0.500000 0.500000 0.000000
-0.081017 -0.058891 -0.136650 0.300000 0.600000 0.000000
0.006486 -0.058891 -0.161358 0.300000 0.600000 0.000000
-0.328845 -0.128446 -0.256253 0.600000 0.300000 0.000000
0.200073 0.179199 0.085885 0.600000 0.000000 0.300000
0.120227 0.209274 0.056010 0.600000 0.000000 0.300000
0.311040 -0.454565 -0.244769 0.600000 0.000000 0.300000
0.022302 0.024327 -0.196104 0.000000 0.500000 0.500000
0.325977 -0.105232 -0.038988 0.000000 0.500000 0.500000
-0.359232 -0.718594 0.222003 0.300000 0.000000 0.600000
0.021000 0.209274 0.206426 0.600000 0.000000 0.300000
0.290890 0.112751 0.118496 0.600000 0.300000 0.000000
-0.220692 0.209274 -0.086585 0.600000 0.000000 0.300000
0.217332 0.179199 -0.077563 0.600000 0.000000 0.300000
-0.289894 0.088975 -0.016927 0.300000 0.000000 0.600000
0.317442 0.209274 -0.043257 0.600000 0.000000 0.300000
0.325977 0.147163 0.117505 0.000000 0.500000 0.500000
0.325977 -0.068965 -0.062288 0.000000 0.500000 0.500000
0.252486 0.126569 0.117558 0.500000 0.500000 0.000000
-0.251292 0.159149 -0.042402 0.300000 0.000000 0.600000
-0.033455 -0.058891 0.198450 0.300000 0.600000 0.000000
0.327725 -0.075799 -0.221166 0.000000 0.500000 0.500000
0.026067 0.126551 -0.196104 0.000000 0.500000 0.500000
0.158618 0.121890 -0.246228 0.600000 0.000000 0.300000
0.461313 0.200984 -0.179459 0.600000 0.000000 0.300000
0.375008 0.209274 0.257155 0.600000 0.000000 0.300000
0.090004 -0.038841 -0.045070 0.300000 0.600000 0.000000
0.362437 0.179199 -0.130982 0.600000 0.000000 0.300000
0.260816 -0.080826 -0.216182 0.600000 0.000000 0.300000
-0.336481 0.179199 -0.191190 0.300000 0.600000 0.000000
0.095189 0.179199 0.201949 0.000000 1.000000 0.000000
0.243746 0.179199 0.033984 0.600000 0.000000 0.300000
-0.234194 -0.145853 0.255014 0.000000 1.000000 0.000000
-0.242075 0.179199 0.034108 0.600000 0.000000 0.300000
-0.048192 0.183932 0.299006 0.600000 0.000000 0.300000
0.279266 0.088975 0.145849 0.600000 0.300000 0.000000
-0.251481 0.179199 -0.149964 0.600000 0.000000 0.300000
0.230370 0.129075 -0.103422 0.600000 0.300000 0.000000
0.356052 0.102473 0.003360 0.000000 0.500000 0.500000
0.356052 -0.140384 0.119277 0.000000 0.500000 0.500000
-0.109095 0.179199 0.148004 0.600000 0.000000 0.300000
0.040161 -0.116820 -0.246228 0.600000 0.000000 0.300000
0.125011 -0.085050 0.255014 0.000000 1.000000 0.000000
0.356052 -0.046877 -0.130720 0.000000 0.500000 0.500000
-0.325638 0.133146 -0.133135 0.300000 0.600000 0.000000
0.175339 0.209274 -0.304454 0.600000 0.000000 0.300000
0.361064 0.039362 0.243858 0.300000 0.000000 0.600000
-0.133432 -0.084519 -0.246228 0.600000 0.000000 0.300000
-0.394877 0.183773 -0.319662 0.600000 0.000000 0.300000
-0.360725 -0.667443 -0.274334 0.600000 0.300000 0.000000
0.238260 0.073236 0.063575 0.500000 0.500000 0.000000
0.117992 0.024368 -0.216154 0.000000 0.500000 0.500000
0.249982 0.159149 -0.162363 0.600000 0.300000 0.000000
0.356052 0.170437 -0.018230 0.000000 0.500000 0.500000
-0.355712 -0.044406 -0.078109 0.300000 0.600000 0.000000
0.028339 -0.058891 -0.131626 0.300000 0.600000 0.000000
-0.253625 -0.068916 -0.140687 0.500000 0.000000 0.500000
-0.341651 0.179199 0.153217 0.600000 0.000000 0.300000
-0.344495 0.209274 -0.311843 0.600000 0.000000 0.300000
-0.325638 0.161319 -0.107226 0.300000 0.600000 0.000000
0.349285 -0.464608 0.210458 0.300000 0.000000 0.600000
-0.022581 0.119565 0.224939 0.000000 1.000000 0.000000
0.238260 0.030690 -0.184234 0.500000 0.500000 0.000000
0.287655 0.179199 0.217406 0.000000 1.000000 0.000000
0.321407 -0.085936 -0.281315 0.600000 0.000000 0.300000
0.039911 0.130110 -0.246228 0.600000 0.000000 0.300000
0.144962 0.014498 0.255014 0.000000 1.000000 0.000000
0.290890 -0.069237 0.130703 0.600000 0.000000 0.300000
0.229261 0.209274 -0.351050 0.600000 0.000000 0.300000
-0.239722 0.025708 0.255014 0.000000 1.000000 0.000000
0.139808 -0.028478 0.255014 0.000000 1.000000 0.000000
0.046693 0.057648 -0.196104 0.000000 0.500000 0.500000
-0.360725 -0.279142 0.232437 0.300000 0.000000 0.600000
-0.179487 0.070700 -0.216154 0.000000 0.500000 0.500000
0.225995 0.129075 0.214017 0.000000 1.000000 0.000000
0.197222 -0.122741 -0.276303 0.600000 0.000000 0.300000
-0.033109 0.139343 -0.246228 0.600000 0.000000 0.300000
-0.325638 0.056039 0.106465 0.300000 0.600000 0.000000
-0.260476 0.127579 0.103376 0.300000 0.000000 0.600000
0.258310 0.126363 0.080509 0.500000 0.500000 0.000000
-0.323184 -0.692415 0.260026 0.300000 0.000000 0.600000
-0.272973 0.129075 -0.129326 0.300000 0.000000 0.600000
-0.305296 -0.064875 -0.281315 0.600000 0.300000 0.000000
0.157135 0.179199 -0.175438 0.600000 0.000000 0.300000
-0.116697 -0.038841 0.114115 0.300000 0.600000 0.000000
-0.054856 -0.038841 -0.003741 0.300000 0.600000 0.000000
0.351884 0.209274 0.021068 0.600000 0.000000 0.300000
-0.338847 0.179199 0.262256 0.600000 0.000000 0.300000
-0.053178 0.209274 -0.031812 0.600000 0.000000 0.300000
-0.260476 -0.039268 -0.072090 0.800000 0.200000 0.500000
0.075548 0.209274 -0.222121 0.600000 0.000000 0.300000
0.325977 -0.059764 0.011756 0.000000 0.500000 0.500000
0.336002 0.124899 0.229606 0.300000 0.000000 0.600000
0.295002 0.209274 0.179240 0.600000 0.000000 0.300000
0.325977 0.071322 -0.211379 0.000000 0.500000 0.500000
0.122859 -0.002122 -0.276303 0.600000 0.000000 0.300000
-0.078977 0.073473 -0.276303 0.600000 0.000000 0.300000
-0.123279 -0.094674 0.224939 0.000000 1.000000 0.000000
-0.044259 -0.058891 -0.041035 0.300000 0.600000 0.000000
0.356052 0.057942 -0.099409 0.000000 0.500000 0.500000
-0.144578 0.041732 -0.196104 0.000000 0.500000 0.500000
-0.175246 -0.116892 -0.276303 0.600000 0.000000 0.300000
0.049940 0.184192 -0.321336 0.600000 0.000000 0.300000
0.113039 -0.105744 -0.276303 0.600000 0.000000 0.300000
0.203948 -0.053768 0.129619 0.300000 0.600000 0.000000
-0.158304 0.179199 0.049759 0.600000 0.000000 0.300000
-0.355712 -0.082643 0.092782 0.300000 0.600000 0.000000
0.026985 0.066564 0.224939 0.000000 1.000000 0.000000
0.163475 0.021187 0.224939 0.000000 1.000000 0.000000
-0.006511 0.179199 0.063859 0.600000 0.000000 0.300000
-0.355712 0.038331 0.197448 0.300000 0.600000 0.000000
0.290890 -0.061149 -0.167739 0.600000 0.000000 0.300000
0.142693 0.179199 0.053421 0.600000 0.000000 0.300000
0.356052 0.139846 0.145097 0.000000 0.500000 0.500000
-0.455701 0.197931 0.009894 0.600000 0.000000 0.300000
-0.226636 0.129075 -0.009133 0.300000 0.000000 0.600000
0.325977 0.128566 -0.018660 0.000000 0.500000 0.500000
0.357205 0.182085 0.291619 0.600000 0.000000 0.300000
-0.109951 0.209274 -0.212204 0.600000 0.000000 0.300000
0.410329 0.186503 -0.330471 0.600000 0.000000 0.300000
-0.026699 0.179199 0.162904 0.600000 0.000000 0.300000
-0.319630 0.152273 -0.221166 0.600000 0.300000 0.000000
-0.455566 0.202726 0.360275 0.600000 0.000000 0.300000
-0.047111 0.179199 -0.133598 0.600000 0.000000 0.300000
-0.313166 -0.332491 0.260026 0.300000 0.000000 0.600000
-0.360725 -0.799563 -0.248089 0.600000 0.300000 0.000000
-0.232720 0.147243 0.199877 0.300000 0.000000 0.600000
0.179978 0.183257 0.296307 0.600000 0.000000 0.300000
-0.257970 0.039226 0.164043 0.500000 0.000000 0.500000
0.262335 -0.055440 0.255014 0.000000 1.000000 0.000000
-0.325638 0.091145 0.180999 0.300000 0.600000 0.000000
-0.325638 -0.010563 0.080867 0.300000 0.600000 0.000000
0.336002 -0.104518 0.207787 0.300000 0.000000 0.600000
0.258310 0.001526 -0.088883 0.500000 0.500000 0.000000
-0.217880 -0.080227 -0.246228 0.600000 0.000000 0.300000
-0.177707 -0.071422 0.254977 0.000000 1.000000 0.000000
-0.161593 -0.058891 -0.178650 0.300000 0.600000 0.000000
-0.309673 -0.431976 -0.252014 0.600000 0.300000 0.000000
0.105501 -0.038841 0.068203 0.300000 0.600000 0.000000
0.356052 -0.017432 0.099856 0.000000 0.500000 0.500000
-0.374019 0.179199 0.046813 0.600000 0.000000 0.300000
0.336002 -0.047400 0.221705 0.300000 0.000000 0.600000
-0.328783 -0.852376 -0.271486 0.600000 0.300000 0.000000
0.361064 -0.252379 0.234918 0.300000 0.000000 0.600000
-0.336056 -0.019925 0.234964 0.300000 0.600000 0.000000
0.217819 -0.040821 0.234964 0.300000 0.600000 0.000000
0.254829 0.148874 -0.276303 0.600000 0.000000 0.300000
0.433110 0.209274 -0.044765 0.600000 0.000000 0.300000
0.245246 0.209274 0.123630 0.600000 0.000000 0.300000
-0.378598 0.179199 0.156851 0.600000 0.000000 0.300000
-0.325638 0.119169 -0.008197 0.300000 0.600000 0.000000
0.169406 0.129075 0.215984 0.000000 1.000000 0.000000
0.151035 -0.102380 -0.276303 0.600000 0.000000 0.300000
-0.269289 0.088975 0.112266 0.300000 0.000000 0.600000
-0.340726 -0.221239 -0.221166 0.600000 0.300000 0.000000
0.238260 0.111298 -0.062222 0.500000 0.500000 0.000000
-0.257359 0.209274 0.209196 0.600000 0.000000 0.300000
0.255841 -0.015120 0.259325 0.000000 1.000000 0.000000
0.175919 0.179199 -0.091938 0.600000 0.000000 0.300000
0.361696 0.191889 0.330835 0.600000 0.000000 0.300000
0.168266 -0.038841 -0.077305 0.300000 0.600000 0.000000
-0.341196 0.149834 -0.281315 0.600000 0.300000 0.000000
-0.137479 0.179199 -0.016652 0.600000 0.000000 0.300000
0.187107 -0.038841 -0.024602 0.300000 0.600000 0.000000
0.214533 0.128104 -0.276303 0.600000 0.000000 0.300000
-0.333844 -0.825215 0.260026 0.300000 0.000000 0.600000
0.221760 -0.038841 -0.053235 0.300000 0.600000 0.000000
0.137490 -0.038841 0.185517 0.300000 0.600000 0.000000
-0.325638 -0.083099 -0.144909 0.300000 0.600000 0.000000
0.097230 0.209274 0.091296 0.600000 0.000000 0.300000
0.160992 0.037250 -0.246228 0.600000 0.000000 0.300000
-0.005737 -0.151621 -0.274836 0.600000 0.000000 0.300000
-0.220377 0.138835 -0.198881 0.300000 0.000000 0.600000
-0.325638 -0.046449 -0.015055 0.300000 0.600000 0.000000
0.298040 0.115091 0.224939 0.000000 1.000000 0.000000
0.119393 0.038891 0.255014 0.000000 1.000000 0.000000
-0.177024 0.075591 0.255014 0.000000 1.000000 0.000000
-0.433685 0.209274 0.295594 0.600000 0.000000 0.300000
0.216823 -0.031623 -0.196104 0.000000 0.500000 0.500000
0.315725 0.209274 0.107129 0.600000 0.000000 0.300000
-0.335662 -0.128775 0.237687 0.300000 0.000000 0.600000
0.356052 -0.073103 -0.196295 0.000000 0.500000 0.500000
0.336002 -0.123002 -0.244161 0.000000 0.500000 0.500000
-0.227705 0.209274 0.248049 0.600000 0.000000 0.300000
0.325977 0.047751 0.013995 0.000000 0.500000 0.500000
0.356052 -0.116232 0.062060 0.000000 0.500000 0.500000
0.364101 0.179199 0.070745 0.600000 0.000000 0.300000
0.191817 -0.000845 0.224939 0.000000 1.000000 0.000000
0.336002 0.136039 -0.262852 0.600000 0.000000 0.300000
-0.355712 0.007755 0.171859 0.300000 0.600000 0.000000
0.124244 0.179199 -0.264254 0.600000 0.000000 0.300000
-0.355712 -0.119043 -0.019937 0.300000 0.600000 0.000000
0.356052 0.175053 -0.056504 0.000000 0.500000 0.500000
0.035358 0.209274 -0.039670 0.600000 0.000000 0.300000
0.004135 0.209274 0.140078 0.600000 0.000000 0.300000
0.325977 -0.017127 -0.141832 0.000000 0.500000 0.500000
-0.328391 -0.748643 0.223369 0.300000 0.000000 0.600000
-0.325638 0.108802 0.032077 0.300000 0.600000 0.000000
-0.177993 -0.131092 0.255014 0.000000 1.000000 0.000000
0.031852 0.179199 0.003809 0.600000 0.000000 0.300000
0.162731 -0.008165 -0.276303 0.600000 0.000000 0.300000
-0.204737 0.209274 -0.244562 0.600000 0.000000 0.300000
-0.222015 -0.051138 0.047047 0.300000 0.600000 0.000000
0.243298 0.209274 0.055184 0.600000 0.000000 0.300000
-0.404933 0.185239 -0.243636 0.600000 0.000000 0.300000
-0.447926 0.195987 0.077825 0.600000 0.000000 0.300000
0.325977 0.007729 -0.105634 0.000000 0.500000 0.500000
0.165380 -0.052708 -0.246228 0.600000 0.000000 0.300000
-0.186686 0.179199 0.167760 0.600000 0.000000 0.300000
-0.371306 0.183243 0.296253 0.600000 0.000000 0.300000
0.021769 0.027411 0.274357 1.000000 0.000000 0.000000
-0.422012 0.209274 0.193243 0.600000 0.000000 0.300000
-0.095377 -0.019676 -0.196104 0.000000 0.500000 0.500000
0.392399 0.209274 -0.243246 0.600000 0.000000 0.300000
-0.058881 -0.038841 0.172997 0.300000 0.600000 0.000000
0.341661 0.203731 0.360275 0.600000 0.000000 0.300000
0.016125 0.179199 -0.042020 0.600000 0.000000 0.300000
0.426984 0.190667 0.211626 0.600000 0.000000 0.300000
0.024576 -0.038841 0.226563 0.000000 1.000000 0.000000
0.070962 -0.151621 -0.247623 0.600000 0.000000 0.300000
0.238260 0.011563 0.119767 0.500000 0.500000 0.000000
0.336002 0.062173 0.225703 0.300000 0.000000 0.600000
-0.358779 -0.081388 0.260026 0.300000 0.000000 0.600000
0.300915 -0.105303 0.234286 0.300000 0.000000 0.600000
0.206051 0.209274 -0.054197 0.600000 0.000000 0.300000
0.006332 0.179199 0.097552 0.600000 0.000000 0.300000
0.290890 0.111135 -0.095090 0.600000 0.300000 0.000000
-0.257970 0.055549 0.033643 0.500000 0.000000 0.500000
-0.356973 -0.087926 -0.281315 0.600000 0.300000 0.000000
-0.371702 0.209274 -0.151841 0.600000 0.000000 0.300000
0.359162 0.209274 -0.090897 0.600000 0.000000 0.300000
0.273076 -0.121657 -0.246228 0.600000 0.000000 0.300000
-0.120589 0.116544 0.231400 0.000000 1.000000 0.000000
0.356052 0.032513 -0.162476 0.000000 0.500000 0.500000
0.153396 0.052706 0.255014 0.000000 1.000000 0.000000
-0.134307 -0.038841 0.163915 0.300000 0.600000 0.000000
0.235140 -0.076375 -0.246228 0.600000 0.000000 0.300000
0.034408 -0.058891 0.100472 0.300000 0.600000 0.000000
0.393515 0.209274 -0.076714 0.600000 0.000000 0.300000
0.290890 -0.058757 -0.054293 0.600000 0.000000 0.300000
-0.360725 -0.221147 0.231820 0.300000 0.000000 0.600000
0.343275 0.209274 -0.294646 0.600000 0.000000 0.300000
0.388750 0.209274 -0.194559 0.600000 0.000000 0.300000
0.079987 0.209274 -0.267466 0.600000 0.000000 0.300000
-0.082403 0.209274 0.016219 0.600000 0.000000 0.300000
0.167820 -0.058891 0.200026 0.300000 0.600000 0.000000
0.404165 0.184962 0.061835 0.600000 0.000000 0.300000
0.048580 -0.038841 0.151322 0.300000 0.600000 0.000000
-0.217269 -0.061085 0.259115 0.000000 1.000000 0.000000
-0.296261 0.179199 -0.103490 0.600000 0.000000 0.300000
-0.290551 -0.042985 0.100662 0.800000 0.200000 0.500000
-0.074568 0.115759 -0.246228 0.600000 0.000000 0.300000
-0.297308 0.209274 -0.139502 0.600000 0.000000 0.300000
-0.243659 -0.108734 -0.246228 0.600000 0.000000 0.300000
-0.098197 0.179199 -0.026975 0.600000 0.000000 0.300000
0.223730 -0.071422 -0.196005 0.600000 0.000000 0.300000
-0.050413 0.209274 -0.290500 0.600000 0.000000 0.300000
0.181031 0.179199 -0.246868 0.600000 0.000000 0.300000
-0.290551 -0.095660 -0.172914 0.800000 0.200000 0.500000
0.282347 0.088975 -0.015355 0.600000 0.300000 0.000000
-0.007678 0.179199 -0.155970 0.600000 0.000000 0.300000
-0.311788 0.209274 0.136677 0.600000 0.000000 0.300000
0.220716 0.154082 0.169352 0.600000 0.300000 0.000000
-0.217713 0.179199 0.004015 0.600000 0.000000 0.300000
-0.355712 -0.146496 0.008634 0.300000 0.600000 0.000000
0.183945 0.065810 -0.276303 0.600000 0.000000 0.300000
-0.222445 0.174918 -0.276303 0.600000 0.000000 0.300000
-0.360725 -0.642964 0.259109 0.300000 0.000000 0.600000
-0.165811 0.019563 0.224939 0.000000 1.000000 0.000000
0.087773 0.073740 -0.276303 0.600000 0.000000 0.300000
0.107774 -0.151080 -0.246228 0.600000 0.000000 0.300000
-0.325638 0.085032 -0.190381 0.300000 0.600000 0.000000
-0.325638 0.117189 -0.055038 0.300000 0.600000 0.000000
0.019135 -0.009904 -0.196104 0.000000 0.500000 0.500000
0.214280 0.057891 -0.196104 0.000000 0.500000 0.500000
0.290890 -0.039705 0.191063 0.600000 0.000000 0.300000
0.315472 -0.552060 -0.275720 0.600000 0.000000 0.300000
-0.121105 0.057736 0.255014 0.000000 1.000000 0.000000
-0.209985 -0.112236 0.255014 0.000000 1.000000 0.000000
-0.427379 0.209274 0.250088 0.600000 0.000000 0.300000
0.325977 0.042850 0.057213 0.000000 0.500000 0.500000
0.414495 0.209274 0.297293 0.600000 0.000000 0.300000
0.361064 -0.026625 -0.265940 0.600000 0.000000 0.300000
0.300915 -0.140026 -0.256546 0.600000 0.000000 0.300000
0.332407 -0.017502 -0.221166 0.600000 0.000000 0.300000
-0.225588 0.129075 0.063345 0.300000 0.000000 0.600000
-0.257970 -0.047435 0.192997 0.500000 0.000000 0.500000
-0.237920 0.016515 0.148037 0.500000 0.000000 0.500000
0.279595 0.097531 0.255014 0.000000 1.000000 0.000000
0.258310 0.064024 -0.177339 0.500000 0.500000 0.000000
-0.380167 0.179199 -0.219004 0.600000 0.000000 0.300000
0.290890 0.126644 -0.054659 0.600000 0.300000 0.000000
0.347307 -0.151621 0.167345 0.000000 0.500000 0.500000
0.329757 -0.807153 -0.281315 0.600000 0.000000 0.300000
0.292192 0.179199 -0.035904 0.600000 0.000000 0.300000
-0.069926 -0.038841 0.064798 0.300000 0.600000 0.000000
-0.236695 0.179199 -0.206448 0.600000 0.000000 0.300000
0.082305 0.011146 -0.216154 0.000000 0.500000 0.500000
0.241509 0.179199 -0.245888 0.600000 0.000000 0.300000
-0.204066 0.209274 -0.288840 0.600000 0.000000 0.300000
-0.171636 0.179199 -0.141651 0.600000 0.000000 0.300000
0.056143 -0.002554 -0.276303 0.600000 0.000000 0.300000
0.150313 -0.058891 -0.039902 0.300000 0.600000 0.000000
-0.021937 0.209274 -0.172160 0.600000 0.000000 0.300000
-0.410270 0.186573 0.036406 0.600000 0.000000 0.300000
-0.325638 0.048478 0.072916 0.300000 0.600000 0.000000
0.154442 0.192623 0.333770 0.600000 0.000000 0.300000
-0.244611 0.103690 -0.246228 0.600000 0.000000 0.300000
-0.005806 0.189463 0.321133 0.600000 0.000000 0.300000
-0.300575 0.080849 0.236682 0.300000 0.000000 0.600000
-0.355712 -0.032076 0.048896 0.300000 0.600000 0.000000
-0.277835 0.209274 -0.202707 0.600000 0.000000 0.300000
0.072031 0.097403 -0.246228 0.600000 0.000000 0.300000
-0.127215 0.209274 0.130312 0.600000 0.000000 0.300000
0.092144 0.179199 -0.083257 0.600000 0.000000 0.300000
-0.332299 0.209274 -0.065153 0.600000 0.000000 0.300000
-0.080054 0.179199 0.192772 0.600000 0.000000 0.300000
0.047290 0.055481 0.255014 0.000000 1.000000 0.000000
-0.237920 0.065732 -0.169300 0.500000 0.000000 0.500000
-0.136688 0.126569 -0.203779 0.000000 0.500000 0.500000
0.330903 -0.320679 0.260026 0.300000 0.000000 0.600000
0.385923 0.180401 0.131913 0.600000 0.000000 0.300000
-0.007086 0.090215 0.255014 0.000000 1.000000 0.000000
-0.086344 0.209274 0.150327 0.600000 0.000000 0.300000
0.349824 -0.610549 -0.238381 0.600000 0.000000 0.300000
-0.311107 0.209274 0.295699 0.600000 0.000000 0.300000
0.325977 -0.070276 -0.158034 0.000000 0.500000 0.500000
0.226241 0.083359 0.224939 0.000000 1.000000 0.000000
0.067033 0.209274 -0.022775 0.600000 0.000000 0.300000
-0.049284 0.179199 -0.255471 0.600000 0.000000 0.300000
0.300915 -0.078084 0.259403 0.300000 0.000000 0.600000
0.146726 -0.040314 -0.216154 0.300000 0.600000 0.000000
-0.215108 -0.038841 -0.195838 0.300000 0.600000 0.000000
0.328667 -0.233889 -0.281315 0.600000 0.000000 0.300000
-0.323549 -0.294168 0.202711 0.300000 0.000000 0.600000
-0.108285 -0.090395 0.255014 0.000000 1.000000 0.000000
-0.336948 0.179199 -0.041002 0.600000 0.000000 0.300000
-0.328018 -0.189035 0.199877 0.300000 0.000000 0.600000
0.427707 0.209274 -0.242207 0.600000 0.000000 0.300000
-0.360725 -0.158242 0.226765 0.300000 0.000000 0.600000
0.172680 0.017654 -0.216154 0.000000 0.500000 0.500000
0.223511 -0.071422 -0.004230 0.600000 0.000000 0.300000
-0.067414 0.179199 -0.223910 0.600000 0.000000 0.300000
0.325977 -0.120756 0.082246 0.000000 0.500000 0.500000
-0.062871 0.145093 -0.276303 0.600000 0.000000 0.300000
0.232732 0.017281 -0.216154 0.000000 0.500000 0.500000
-0.080089 -0.114154 -0.246228 0.600000 0.000000 0.300000
0.025003 -0.038841 0.046927 0.300000 0.600000 0.000000
0.230326 -0.071422 0.098829 0.600000 0.000000 0.300000
-0.274228 0.179199 0.165575 0.600000 0.000000 0.300000
-0.006292 0.179199 -0.289027 0.600000 0.000000 0.300000
-0.355712 -0.003932 -0.163112 0.300000 0.600000 0.000000
0.403661 0.209274 -0.145404 0.600000 0.000000 0.300000
0.059048 0.209274 0.095636 0.600000 0.000000 0.300000
0.356052 0.018853 -0.121612 0.000000 0.500000 0.500000
-0.116274 0.209274 -0.298468 0.600000 0.000000 0.300000
0.026962 0.179199 0.226150 0.600000 0.000000 0.300000
0.325977 0.098914 0.139709 0.000000 0.500000 0.500000
0.147819 -0.058891 0.112152 0.300000 0.600000 0.000000
0.197489 0.209274 -0.234593 0.600000 0.000000 0.300000
0.296411 0.069522 -0.246228 0.600000 0.000000 0.300000
-0.063739 0.048475 0.224939 0.000000 1.000000 0.000000
-0.201428 -0.054079 -0.079798 0.300000 0.600000 0.000000
0.429585 0.209274 0.265767 0.600000 0.000000 0.300000
-0.144874 -0.058891 -0.088108 0.300000 0.600000 0.000000
-0.149148 -0.050993 -0.216154 0.300000 0.600000 0.000000
0.152158 0.179199 0.237686 0.600000 0.000000 0.300000
0.260816 -0.076135 -0.173590 0.600000 0.000000 0.300000
-0.222403 0.129075 -0.077855 0.300000 0.000000 0.600000
0.356052 0.007733 -0.062008 0.000000 0.500000 0.500000
0.161962 -0.037100 0.224939 0.000000 1.000000 0.000000
-0.025943 -0.087662 -0.276303 0.600000 0.000000 0.300000
0.008766 0.209274 -0.232247 0.600000 0.000000 0.300000
0.041210 0.118200 0.258702 0.000000 1.000000 0.000000
0.361064 -0.869707 -0.273978 0.600000 0.000000 0.300000
-0.200877 0.209274 -0.192385 0.600000 0.000000 0.300000
-0.198588 -0.038841 -0.123506 0.300000 0.600000 0.000000
-0.073228 0.209274 -0.350472 0.600000 0.000000 0.300000
0.299951 0.179199 -0.210533 0.600000 0.000000 0.300000
0.221330 0.159149 0.107956 0.600000 0.300000 0.000000
0.258310 0.021958 0.050095 0.500000 0.500000 0.000000
-0.325638 0.057659 0.180192 0.300000 0.600000 0.000000
-0.360725 -0.753098 -0.267466 0.600000 0.300000 0.000000
-0.018161 -0.038841 -0.034816 0.300000 0.600000 0.000000
-0.100879 -0.058891 -0.099634 0.300000 0.600000 0.000000
-0.300575 0.021974 -0.247839 0.600000 0.300000 0.000000
0.141903 0.179199 -0.225787 0.600000 0.000000 0.300000
0.008322 -0.106493 -0.246228 0.600000 0.000000 0.300000
-0.201590 0.179199 0.081654 0.600000 0.000000 0.300000
-0.230279 0.179199 0.135929 0.600000 0.000000 0.300000
-0.360508 -0.890106 0.260026 0.300000 0.000000 0.600000
0.356052 -0.072128 0.095847 0.000000 0.500000 0.500000
-0.327070 0.179392 -0.302135 0.600000 0.000000 0.300000
-0.253074 0.209274 -0.247345 0.600000 0.000000 0.300000
-0.200857 -0.150800 -0.276303 0.600000 0.000000 0.300000
-0.119723 0.179199 0.224605 0.000000 1.000000 0.000000
-0.341385 -0.665871 0.219607 0.300000 0.000000 0.600000
-0.407037 0.209274 -0.182421 0.600000 0.000000 0.300000
-0.096888 -0.058891 0.178260 0.300000 0.600000 0.000000
0.029497 0.209274 0.278593 0.600000 0.000000 0.300000
-0.454751 0.197694 0.150806 0.600000 0.000000 0.300000
0.008280 0.125799 -0.276303 0.600000 0.000000 0.300000
0.281337 0.159149 0.072109 0.600000 0.300000 0.000000
-0.325638 -0.075928 0.114881 0.300000 0.600000 0.000000
0.155020 0.209274 0.179344 0.600000 0.000000 0.300000
0.220180 0.081146 -0.276303 0.600000 0.000000 0.300000
-0.000062 0.090964 -0.216154 0.000000 0.500000 0.500000
-0.355712 -0.051307 -0.197481 0.300000 0.600000 0.000000
-0.059523 -0.092294 0.255014 0.000000 1.000000 0.000000
-0.300575 0.022450 0.245731 0.000000 1.000000 0.000000
0.336002 -0.054852 -0.245774 0.600000 0.000000 0.300000
-0.293602 0.209274 0.173781 0.600000 0.000000 0.300000
0.228211 -0.101497 0.147642 0.600000 0.000000 0.300000
0.095890 0.209274 -0.191329 0.600000 0.000000 0.300000
-0.164440 0.124081 -0.276303 0.600000 0.000000 0.300000
0.238260 -0.034012 -0.128362 0.500000 0.500000 0.000000
0.325977 -0.100423 -0.074178 0.000000 0.500000 0.500000
-0.278218 0.209274 -0.299030 0.600000 0.000000 0.300000
-0.360725 -0.767558 0.258578 0.300000 0.000000 0.600000
0.069620 -0.095417 -0.276303 0.600000 0.000000 0.300000
-0.222932 -0.038841 0.100659 0.300000 0.600000 0.000000
0.094254 0.060853 0.224939 0.000000 1.000000 0.000000
0.028268 0.198528 -0.378679 0.600000 0.000000 0.300000
-0.257970 0.002147 0.031276 0.500000 0.000000 0.500000
0.220716 -0.100737 -0.217779 0.600000 0.000000 0.300000
-0.237920 -0.056581 0.005608 0.500000 0.000000 0.500000
-0.237920 0.064797 0.119706 0.500000 0.000000 0.500000
0.273416 0.209274 -0.248559 0.600000 0.000000 0.300000
-0.055030 0.209274 0.094542 0.600000 0.000000 0.300000
0.359466 -0.859856 0.228425 0.300000 0.000000 0.600000
0.058511 -0.077898 0.224939 0.000000 1.000000 0.000000
0.156798 0.126569 -0.206929 0.000000 0.500000 0.500000
-0.342418 -0.284124 -0.223544 0.600000 0.300000 0.000000
0.265306 0.080072 0.224939 0.000000 1.000000 0.000000
-0.111610 -0.038841 -0.011796 0.300000 0.600000 0.000000
0.217779 0.013710 0.255014 0.000000 1.000000 0.000000
-0.360725 -0.157662 -0.259659 0.600000 0.300000 0.000000
-0.397655 0.209274 -0.029796 0.600000 0.000000 0.300000
-0.356557 -0.638084 -0.239633 0.600000 0.300000 0.000000
-0.174479 0.116544 0.232321 0.000000 1.000000 0.000000
0.361064 -0.283190 -0.249210 0.600000 0.000000 0.300000
-0.163056 0.179199 -0.106236 0.600000 0.000000 0.300000
0.356052 0.128034 -0.200229 0.000000 0.500000 0.500000
0.162058 -0.120070 0.224939 0.000000 1.000000 0.000000
-0.325638 -0.028620 -0.091264 0.300000 0.600000 0.000000
-0.290551 0.136175 0.058813 0.300000 0.000000 0.600000
-0.081410 -0.058891 0.004800 0.300000 0.600000 0.000000
0.107752 0.209274 0.288670 0.600000 0.000000 0.300000
-0.301083 0.179199 0.262271 0.600000 0.000000 0.300000
0.166836 0.209274 -0.195340 0.600000 0.000000 0.300000
0.251664 -0.101497 -0.052047 0.600000 0.000000 0.300000
-0.092249 0.209274 -0.181749 0.600000 0.000000 0.300000
-0.303831 0.179199 -0.232275 0.600000 0.000000 0.300000
0.361064 -0.208651 -0.252002 0.600000 0.000000 0.300000
-0.197654 0.017221 -0.246228 0.600000 0.000000 0.300000
-0.337093 -0.813242 -0.281315 0.600000 0.300000 0.000000
-0.360725 -0.430592 0.233731 0.300000 0.000000 0.600000
-0.179433 0.179199 0.004892 0.600000 0.000000 0.300000
-0.290551 -0.073171 -0.074390 0.800000 0.200000 0.500000
0.285878 0.179199 0.033726 0.600000 0.000000 0.300000
0.048468 -0.038841 0.078195 0.300000 0.600000 0.000000
-0.027727 0.179199 0.098196 0.600000 0.000000 0.300000
0.239053 0.209274 -0.080293 0.600000 0.000000 0.300000
-0.232473 0.179199 -0.120489 0.600000 0.000000 0.300000
0.334270 -0.675772 -0.281315 0.600000 0.000000 0.300000
-0.255633 -0.101497 0.044345 0.800000 0.200000 0.500000
-0.151839 0.209274 0.267217 0.600000 0.000000 0.300000
-0.101635 0.149728 -0.276303 0.600000 0.000000 0.300000
-0.269494 -0.004683 0.255014 0.000000 1.000000 0.000000
-0.218047 0.209274 -0.123175 0.600000 0.000000 0.300000
0.127235 0.209274 -0.331220 0.600000 0.000000 0.300000
-0.237920 0.049731 -0.059320 0.500000 0.000000 0.500000
0.356052 -0.027811 -0.075731 0.000000 0.500000 0.500000
-0.355712 0.013650 -0.120236 0.300000 0.600000 0.000000
-0.331535 0.209274 0.325269 0.600000 0.000000 0.300000
-0.355712 0.174364 0.119863 0.300000 0.600000 0.000000
-0.355712 -0.124799 0.150394 0.300000 0.600000 0.000000
-0.374678 0.209274 -0.005405 0.600000 0.000000 0.300000
0.330089 -0.140729 0.234964 0.300000 0.000000 0.600000
0.307570 0.004176 -0.221166 0.600000 0.000000 0.300000
0.379360 0.209274 -0.317663 0.600000 0.000000 0.300000
-0.325638 0.041587 -0.112536 0.300000 0.600000 0.000000
0.308966 -0.119542 -0.221166 0.600000 0.000000 0.300000
-0.355712 -0.129414 -0.119315 0.300000 0.600000 0.000000
-0.117149 0.043306 -0.246228 0.600000 0.000000 0.300000
-0.169617 0.010250 -0.276303 0.600000 0.000000 0.300000
-0.129501 0.209274 -0.138997 0.600000 0.000000 0.300000
0.082112 -0.123897 0.255014 0.000000 1.000000 0.000000
-0.272470 0.209274 -0.048867 0.600000 0.000000 0.300000
0.290890 -0.042710 0.078231 0.600000 0.000000 0.300000
-0.251451 0.129075 -0.223087 0.300000 0.000000 0.600000
0.314685 -0.502306 0.212172 0.300000 0.000000 0.600000
-0.221590 0.159149 -0.064611 0.300000 0.000000 0.600000
0.258310 0.032080 0.014887 0.500000 0.500000 0.000000
-0.104170 0.179199 -0.115626 0.600000 0.000000 0.300000
0.123050 0.179199 0.079765 0.600000 0.000000 0.300000
-0.459039 0.209274 -0.095818 0.600000 0.000000 0.300000
0.325977 0.032560 0.139575 0.000000 0.500000 0.500000
-0.348528 0.107666 -0.281315 0.600000 0.300000 0.000000
0.395830 0.182878 -0.127571 0.600000 0.000000 0.300000
0.336002 0.052302 -0.237863 0.000000 0.500000 0.500000
-0.183617 -0.007256 -0.196104 0.000000 0.500000 0.500000
0.258310 -0.007487 -0.056504 0.500000 0.500000 0.000000
0.356052 0.087395 -0.175298 0.000000 0.500000 0.500000
-0.309417 0.209274 0.010232 0.600000 0.000000 0.300000
0.247091 0.093509 0.255014 0.000000 1.000000 0.000000
0.239184 0.047748 0.235800 0.500000 0.500000 0.000000
0.005805 0.101664 0.224939 0.000000 1.000000 0.000000
-0.272660 -0.061774 0.255014 0.000000 1.000000 0.000000
0.328947 0.209274 -0.130796 0.600000 0.000000 0.300000
-0.278656 0.004927 -0.276303 0.600000 0.000000 0.300000
0.356052 -0.138513 -0.063329 0.000000 0.500000 0.500000
0.325977 -0.068023 0.164325 0.000000 0.500000 0.500000
0.047802 0.066998 -0.276303 0.600000 0.000000 0.300000
0.252094 -0.101497 -0.136564 0.600000 0.000000 0.300000
0.183198 0.209274 0.317816 0.600000 0.000000 0.300000
-0.430238 0.191565 -0.142290 0.600000 0.000000 0.300000
-0.023742 -0.151621 -0.247584 0.600000 0.000000 0.300000
-0.226788 -0.071422 -0.063651 0.800000 0.200000 0.500000
0.134136 0.181316 0.288543 0.600000 0.000000 0.300000
-0.105239 0.179199 0.061407 0.600000 0.000000 0.300000
0.058271 -0.052451 -0.276303 0.600000 0.000000 0.300000
0.356052 0.104553 0.166765 0.000000 0.500000 0.500000
-0.180295 0.189227 -0.341476 0.600000 0.000000 0.300000
-0.262406 0.179199 -0.103612 0.600000 0.000000 0.300000
-0.155329 0.209274 -0.247663 0.600000 0.000000 0.300000
0.203731 -0.099332 -0.246228 0.600000 0.000000 0.300000
-0.335263 -0.189100 -0.221166 0.600000 0.300000 0.000000
-0.072352 0.079810 -0.216154 0.000000 0.500000 0.500000
-0.036167 0.209274 -0.208787 0.600000 0.000000 0.300000
-0.112218 0.190734 0.326215 0.600000 0.000000 0.300000
0.106857 0.157924 -0.246228 0.600000 0.000000 0.300000
-0.311653 -0.475529 0.238345 0.300000 0.000000 0.600000
-0.204948 0.033181 0.255014 0.000000 1.000000 0.000000
-0.128349 -0.131165 -0.276303 0.600000 0.000000 0.300000
-0.131909 -0.038841 -0.110209 0.300000 0.600000 0.000000
0.251062 0.209274 0.086748 0.600000 0.000000 0.300000
-0.131738 0.209274 0.034768 0.600000 0.000000 0.300000
-0.141016 -0.026529 0.224939 0.000000 1.000000 0.000000
-0.351039 0.093159 -0.221166 0.300000 0.600000 0.000000
-0.242770 -0.010337 0.232200 0.000000 1.000000 0.000000
0.222624 -0.084585 -0.276303 0.600000 0.000000 0.300000
-0.228544 0.090348 -0.276303 0.600000 0.000000 0.300000
0.328577 -0.840365 -0.249112 0.600000 0.000000 0.300000
-0.178605 0.179199 0.200002 0.600000 0.000000 0.300000
0.323166 0.122502 0.199877 0.300000 0.000000 0.600000
-0.020641 -0.118027 0.224939 0.000000 1.000000 0.000000
-0.212769 -0.118653 -0.246228 0.600000 0.000000 0.300000
-0.082870 -0.058891 0.042843 0.300000 0.600000 0.000000
0.356052 0.136985 0.099993 0.000000 0.500000 0.500000
-0.347170 -0.289404 0.260026 0.300000 0.000000 0.600000
-0.257970 -0.012770 0.088059 0.500000 0.000000 0.500000
0.017213 -0.047977 -0.246228 0.600000 0.000000 0.300000
-0.013486 0.209274 -0.306349 0.600000 0.000000 0.300000
0.341047 -0.709441 0.221587 0.300000 0.000000 0.600000
0.397277 0.209274 0.009104 0.600000 0.000000 0.300000
0.073057 0.081770 0.255014 0.000000 1.000000 0.000000
-0.119178 0.209274 0.202410 0.600000 0.000000 0.300000
0.115271 -0.058891 -0.047702 0.300000 0.600000 0.000000
0.325977 0.087298 0.098940 0.000000 0.500000 0.500000
0.259957 0.147229 0.255014 0.000000 1.000000 0.000000
-0.186263 0.000521 0.255014 0.000000 1.000000 0.000000
0.325977 0.054890 -0.152594 0.000000 0.500000 0.500000
0.111575 0.179199 0.159486 0.600000 0.000000 0.300000
-0.280393 0.179199 0.228073 0.000000 1.000000 0.000000
-0.290551 0.112509 -0.097689 0.300000 0.000000 0.600000
0.299739 0.179199 -0.085621 0.600000 0.000000 0.300000
-0.241559 0.179199 -0.250159 0.600000 0.000000 0.300000
-0.252715 -0.140329 -0.276303 0.600000 0.000000 0.300000
-0.100943 -0.038841 -0.152310 0.300000 0.600000 0.000000
-0.157756 0.179199 -0.070356 0.600000 0.000000 0.300000
0.335580 -0.015700 0.260026 0.300000 0.000000 0.600000
0.361064 -0.595391 -0.267168 0.600000 0.000000 0.300000
-0.329404 -0.023948 -0.221166 0.300000 0.600000 0.000000
0.327880 -0.151621 0.050066 0.000000 0.500000 0.500000
-0.265215 0.179199 -0.188296 0.600000 0.000000 0.300000
0.256047 0.145573 0.199877 0.000000 1.000000 0.000000
0.132011 -0.071457 -0.276303 0.600000 0.000000 0.300000
-0.027268 0.064080 -0.196104 0.000000 0.500000 0.500000
0.318855 -0.626497 0.230735 0.300000 0.000000 0.600000
-0.257970 -0.015409 -0.033418 0.500000 0.000000 0.500000
0.220716 0.147786 -0.215583 0.600000 0.300000 0.000000
-0.300575 0.004106 0.205603 0.300000 0.000000 0.600000
0.021112 0.179199 0.042039 0.600000 0.000000 0.300000
-0.220377 -0.072791 -0.137483 0.800000 0.200000 0.500000
0.266611 -0.101497 0.007833 0.600000 0.000000 0.300000
0.016165 -0.102548 0.255014 0.000000 1.000000 0.000000
-0.124387 -0.058891 0.009913 0.300000 0.600000 0.000000
-0.237920 -0.003291 -0.179119 0.500000 0.000000 0.500000
