-0.327561 0.451681 -0.416598 0.600000 0.000000 0.300000
-0.311366 -0.214380 0.391274 0.600000 0.000000 0.300000
0.066245 -0.217207 0.038896 0.600000 0.000000 0.300000
-0.427194 -0.216935 0.643996 0.600000 0.000000 0.300000
-0.062902 0.302532 -0.401484 0.800000 0.200000 0.500000
0.648078 0.340888 -0.390549 0.800000 0.200000 0.500000
-0.003552 0.407130 -0.434665 0.800000 0.200000 0.500000
0.302948 -0.208056 0.700693 0.600000 0.000000 0.300000
0.085576 -0.151609 0.211920 0.000000 0.500000 0.500000
-0.067847 0.109990 -0.308246 0.600000 0.000000 0.300000
-0.080798 0.627358 -0.504528 0.800000 0.200000 0.500000
-0.073014 -0.148647 0.220434 0.000000 0.500000 0.500000
0.321760 -0.019597 -0.267142 0.600000 0.000000 0.300000
0.098489 -0.214380 0.588217 0.600000 0.000000 0.300000
-0.426541 -0.217207 0.261910 0.600000 0.000000 0.300000
-0.201869 -0.210119 0.664018 0.600000 0.000000 0.300000
-0.591328 -0.208064 0.698738 0.600000 0.000000 0.300000
0.310973 -0.147918 0.308991 0.000000 0.500000 0.500000
-0.229565 -0.146657 0.696860 0.600000 0.000000 0.300000
-0.378134 -0.158204 0.172451 0.000000 0.500000 0.500000
0.312944 0.045683 -0.287796 0.600000 0.000000 0.300000
-0.077753 0.186752 -0.333305 0.600000 0.000000 0.300000
0.414513 0.570249 -0.486408 0.800000 0.200000 0.500000
-0.353652 -0.149831 0.581928 0.600000 0.000000 0.300000
-0.635863 -0.150650 0.569737 0.600000 0.000000 0.300000
-0.108729 -0.217207 0.315174 0.600000 0.000000 0.300000
0.085434 -0.147918 0.084950 0.000000 0.500000 0.500000
-0.154419 0.207735 -0.371442 0.800000 0.200000 0.500000
0.590464 -0.149830 0.444176 0.600000 0.000000 0.300000
-0.255322 -0.208060 -0.103729 0.600000 0.000000 0.300000
0.195555 -0.151238 0.408075 0.600000 0.000000 0.300000
-0.315249 0.341947 -0.381815 0.600000 0.000000 0.300000
0.648795 0.287202 -0.384658 0.800000 0.200000 0.500000
-0.249701 0.200055 -0.337872 0.600000 0.000000 0.300000
0.270943 -0.200776 -0.200347 0.500000 0.000000 0.500000
0.102429 0.327413 -0.377216 0.600000 0.000000 0.300000
0.052499 0.134428 -0.348159 0.800000 0.200000 0.500000
-0.591745 0.120956 -0.311949 0.800000 0.200000 0.500000
-0.440925 -0.217207 -0.008027 0.600000 0.000000 0.300000
0.436819 -0.208440 -0.129181 0.600000 0.000000 0.300000
-0.587055 -0.214612 0.385162 0.600000 0.000000 0.300000
-0.345409 -0.202289 -0.240316 0.800000 0.200000 0.500000
-0.593354 0.050462 -0.289454 0.800000 0.200000 0.500000
0.644408 -0.182287 0.573786 0.600000 0.000000 0.300000
0.256351 -0.147918 -0.032006 0.000000 0.500000 0.500000
-0.187129 -0.149830 0.549073 0.600000 0.000000 0.300000
-0.277324 -0.217207 0.566610 0.600000 0.000000 0.300000
-0.344864 0.396168 -0.431191 0.800000 0.200000 0.500000
0.093693 -0.193764 -0.180897 0.500000 0.000000 0.500000
0.116111 0.516365 -0.469358 0.800000 0.200000 0.500000
0.549370 -0.161298 0.708035 0.600000 0.000000 0.300000
0.076433 0.559256 -0.450773 0.600000 0.000000 0.300000
-0.002744 -0.145718 -0.210665 0.500000 0.000000 0.500000
-0.149011 0.137621 -0.317457 0.600000 0.000000 0.300000
0.264627 -0.105149 -0.240003 0.800000 0.200000 0.500000
-0.629923 -0.147331 0.398406 0.600000 0.000000 0.300000
0.167477 -0.217207 0.050743 0.600000 0.000000 0.300000
0.240654 0.300304 -0.369650 0.600000 0.000000 0.300000
-0.060354 0.013458 -0.277631 0.600000 0.000000 0.300000
0.280430 -0.147918 0.089687 0.000000 0.500000 0.500000
0.365016 0.386518 -0.397001 0.600000 0.000000 0.300000
0.240378 -0.148061 0.388872 0.600000 0.000000 0.300000
-0.204919 -0.146890 -0.205287 0.500000 0.000000 0.500000
0.580498 -0.200647 -0.189784 0.600000 0.000000 0.300000
0.019463 -0.094877 -0.275429 0.800000 0.200000 0.500000
-0.059033 -0.114270 -0.269306 0.800000 0.200000 0.500000
-0.145973 -0.153239 0.031003 0.000000 0.500000 0.500000
0.042569 -0.213396 0.666816 0.600000 0.000000 0.300000
-0.446712 -0.149831 0.577843 0.600000 0.000000 0.300000
-0.129155 0.370832 -0.390944 0.600000 0.000000 0.300000
-0.348065 -0.195649 -0.164011 0.600000 0.000000 0.300000
-0.190271 -0.213814 0.375727 0.600000 0.000000 0.300000
-0.183127 -0.149830 0.483736 0.600000 0.000000 0.300000
-0.438506 0.072268 -0.328502 0.800000 0.200000 0.500000
-0.584086 -0.203912 -0.193280 0.600000 0.000000 0.300000
-0.507455 -0.149348 -0.078180 0.600000 0.000000 0.300000
0.476127 -0.214380 0.119642 0.600000 0.000000 0.300000
0.510459 -0.146103 -0.155918 0.600000 0.000000 0.300000
0.430546 0.015576 -0.278303 0.600000 0.000000 0.300000
-0.463459 -0.034793 -0.263313 0.600000 0.000000 0.300000
-0.514098 -0.109943 -0.270703 0.800000 0.200000 0.500000
-0.550769 0.519641 -0.438197 0.800000 0.200000 0.500000
-0.244617 -0.217207 0.109420 0.600000 0.000000 0.300000
0.166094 -0.149414 0.253932 0.000000 0.500000 0.500000
0.043424 -0.213379 -0.051153 0.600000 0.000000 0.300000
0.458580 -0.149831 0.494452 0.600000 0.000000 0.300000
0.269614 -0.181708 -0.247872 0.800000 0.200000 0.500000
-0.183357 0.469627 -0.422338 0.600000 0.000000 0.300000
-0.416523 -0.160161 0.337995 0.000000 0.500000 0.500000
-0.211886 0.225405 -0.377018 0.800000 0.200000 0.500000
-0.388818 -0.070278 -0.251069 0.800000 0.200000 0.500000
0.115903 -0.147544 0.440919 0.600000 0.000000 0.300000
0.356648 0.202024 -0.337450 0.600000 0.000000 0.300000
-0.292420 0.271849 -0.391764 0.800000 0.200000 0.500000
0.592524 -0.215481 0.387279 0.600000 0.000000 0.300000
-0.345880 -0.145794 -0.210566 0.500000 0.000000 0.500000
0.332943 0.273237 -0.392204 0.800000 0.200000 0.500000
-0.370128 0.490623 -0.461154 0.800000 0.200000 0.500000
0.548274 -0.147918 0.120816 0.000000 0.500000 0.500000
0.182689 0.235187 -0.380132 0.800000 0.200000 0.500000
0.636141 -0.210223 0.308869 0.600000 0.000000 0.300000
-0.189959 -0.035644 -0.262043 0.600000 0.000000 0.300000
0.190265 -0.147918 0.205961 0.000000 0.500000 0.500000
0.190244 0.123226 -0.312448 0.600000 0.000000 0.300000
-0.545467 -0.149744 -0.258062 0.800000 0.200000 0.500000
-0.109474 -0.019678 -0.299309 0.800000 0.200000 0.500000
0.004903 -0.190221 0.707827 0.600000 0.000000 0.300000
-0.346957 -0.147918 0.083584 0.000000 0.500000 0.500000
0.105506 0.613695 -0.468320 0.800000 0.200000 0.500000
0.184381 -0.146984 -0.093595 0.600000 0.000000 0.300000
0.007618 0.026681 -0.281829 0.600000 0.000000 0.300000
0.295225 -0.155467 0.028907 0.000000 0.500000 0.500000
0.649506 -0.191123 0.627906 0.600000 0.000000 0.300000
0.045516 0.391622 -0.429772 0.800000 0.200000 0.500000
0.284376 -0.217207 0.440621 0.600000 0.000000 0.300000
-0.448148 0.271905 -0.391780 0.800000 0.200000 0.500000
0.362648 -0.205370 -0.141452 0.600000 0.000000 0.300000
0.411846 0.080893 -0.298967 0.600000 0.000000 0.300000
-0.023689 0.500804 -0.432212 0.600000 0.000000 0.300000
0.029264 -0.193178 -0.244224 0.800000 0.200000 0.500000
0.451052 -0.217207 0.606629 0.600000 0.000000 0.300000
-0.262419 0.447102 -0.415142 0.600000 0.000000 0.300000
-0.337448 -0.213450 0.635653 0.600000 0.000000 0.300000
0.285603 0.334293 -0.411596 0.800000 0.200000 0.500000
-0.358732 0.610868 -0.499298 0.800000 0.200000 0.500000
0.607569 0.386040 -0.396472 0.800000 0.200000 0.500000
0.219056 -0.213379 0.044669 0.600000 0.000000 0.300000
-0.459061 -0.214380 0.172207 0.600000 0.000000 0.300000
0.421802 0.616082 -0.468752 0.800000 0.200000 0.500000
-0.275200 -0.217207 -0.009778 0.600000 0.000000 0.300000
0.562763 0.217993 -0.342681 0.800000 0.200000 0.500000
0.558512 -0.214008 0.311731 0.600000 0.000000 0.300000
-0.020438 -0.217207 0.384032 0.600000 0.000000 0.300000
0.378755 -0.212305 0.655106 0.600000 0.000000 0.300000
0.485177 -0.195589 -0.185173 0.500000 0.000000 0.500000
0.387361 -0.214380 0.285496 0.600000 0.000000 0.300000
-0.344434 -0.217207 0.587943 0.600000 0.000000 0.300000
0.417745 0.416029 -0.437487 0.800000 0.200000 0.500000
0.502018 -0.214380 0.376812 0.600000 0.000000 0.300000
-0.045868 -0.209667 0.666167 0.600000 0.000000 0.300000
0.241041 -0.146148 -0.156873 0.600000 0.000000 0.300000
-0.578250 -0.147918 0.037337 0.000000 0.500000 0.500000
0.044459 0.197701 -0.368275 0.800000 0.200000 0.500000
-0.369531 0.309893 -0.371614 0.600000 0.000000 0.300000
-0.109641 -0.152281 0.476016 0.600000 0.000000 0.300000
0.493825 0.631980 -0.474161 0.800000 0.200000 0.500000
0.207819 0.356353 -0.418558 0.800000 0.200000 0.500000
-0.313480 -0.075077 -0.281723 0.800000 0.200000 0.500000
0.177786 -0.213401 -0.054374 0.600000 0.000000 0.300000
0.548656 0.143621 -0.351074 0.800000 0.200000 0.500000
0.523218 0.565725 -0.452822 0.800000 0.200000 0.500000
0.345666 -0.217207 0.248034 0.600000 0.000000 0.300000
-0.456554 0.332310 -0.410976 0.800000 0.200000 0.500000
-0.525536 0.427050 -0.441047 0.800000 0.200000 0.500000
0.490153 -0.025784 -0.297393 0.800000 0.200000 0.500000
0.518241 -0.060957 -0.254028 0.600000 0.000000 0.300000
0.267964 -0.146004 0.667376 0.600000 0.000000 0.300000
0.633082 -0.146834 0.150722 0.600000 0.000000 0.300000
-0.107329 0.595067 -0.462121 0.800000 0.200000 0.500000
-0.103796 -0.146820 -0.095279 0.600000 0.000000 0.300000
-0.391249 -0.217207 0.377931 0.600000 0.000000 0.300000
-0.239187 -0.149831 0.626071 0.600000 0.000000 0.300000
-0.550158 -0.151088 0.410714 0.600000 0.000000 0.300000
-0.551601 -0.217207 0.185418 0.600000 0.000000 0.300000
0.527775 -0.147004 0.488066 0.600000 0.000000 0.300000
0.229848 -0.214380 0.483715 0.600000 0.000000 0.300000
0.450422 -0.147918 0.100984 0.000000 0.500000 0.500000
-0.116863 -0.142157 -0.260430 0.800000 0.200000 0.500000
-0.504398 0.018695 -0.280342 0.800000 0.200000 0.500000
0.029953 -0.214290 0.620241 0.600000 0.000000 0.300000
-0.261961 -0.147918 -0.052093 0.000000 0.500000 0.500000
-0.168800 -0.146295 0.624194 0.600000 0.000000 0.300000
-0.379939 -0.170922 -0.251295 0.800000 0.200000 0.500000
-0.045395 -0.147918 0.333687 0.000000 0.500000 0.500000
0.514701 0.280839 -0.394639 0.800000 0.200000 0.500000
0.226416 -0.147918 0.161790 0.000000 0.500000 0.500000
0.446978 0.282587 -0.364045 0.600000 0.000000 0.300000
-0.472859 -0.125471 -0.233892 0.800000 0.200000 0.500000
-0.095722 -0.214463 -0.062274 0.600000 0.000000 0.300000
-0.063973 -0.178623 -0.248852 0.800000 0.200000 0.500000
0.377959 0.135900 -0.316424 0.600000 0.000000 0.300000
-0.509232 0.053715 -0.322578 0.800000 0.200000 0.500000
-0.497191 0.249759 -0.352584 0.600000 0.000000 0.300000
-0.385483 0.082877 -0.331865 0.800000 0.200000 0.500000
-0.329715 -0.149959 0.357900 0.000000 0.500000 0.500000
-0.093321 -0.148230 0.574142 0.300000 0.000000 0.600000
-0.532852 -0.147918 0.270498 0.000000 0.500000 0.500000
-0.361059 0.220354 -0.343998 0.600000 0.000000 0.300000
0.119378 -0.217207 0.628440 0.600000 0.000000 0.300000
0.263839 0.628850 -0.473429 0.800000 0.200000 0.500000
-0.096419 0.466097 -0.453413 0.800000 0.200000 0.500000
0.606384 -0.022604 -0.298396 0.800000 0.200000 0.500000
0.561999 -0.217207 0.071651 0.600000 0.000000 0.300000
-0.261892 -0.186974 -0.246199 0.800000 0.200000 0.500000
0.609345 0.407728 -0.434855 0.800000 0.200000 0.500000
0.290987 0.517423 -0.469688 0.800000 0.200000 0.500000
-0.541515 -0.147918 0.150741 0.000000 0.500000 0.500000
0.516610 0.212982 -0.373079 0.800000 0.200000 0.500000
-0.170291 -0.117895 -0.235956 0.800000 0.200000 0.500000
-0.286433 0.404127 -0.401501 0.600000 0.000000 0.300000
0.303394 0.118177 -0.310844 0.600000 0.000000 0.300000
-0.526778 -0.198199 -0.197223 0.600000 0.000000 0.300000
-0.420971 -0.214380 0.466182 0.600000 0.000000 0.300000
-0.170978 0.253118 -0.353651 0.600000 0.000000 0.300000
-0.415949 0.308330 -0.371114 0.600000 0.000000 0.300000
0.104563 0.016540 -0.278609 0.600000 0.000000 0.300000
-0.478206 -0.214100 0.534152 0.600000 0.000000 0.300000
-0.459971 0.402000 -0.400826 0.600000 0.000000 0.300000
-0.503802 -0.214380 0.231743 0.600000 0.000000 0.300000
-0.348362 -0.214380 0.310954 0.600000 0.000000 0.300000
-0.186447 -0.151029 0.410495 0.600000 0.000000 0.300000
-0.419451 -0.155174 -0.061594 0.600000 0.000000 0.300000
-0.037799 -0.146004 -0.135369 0.600000 0.000000 0.300000
-0.350885 0.258282 -0.387458 0.800000 0.200000 0.500000
-0.033186 -0.217207 0.011418 0.600000 0.000000 0.300000
-0.504597 0.135098 -0.317220 0.600000 0.000000 0.300000
-0.318493 0.210261 -0.372230 0.800000 0.200000 0.500000
-0.056606 -0.212811 -0.091836 0.600000 0.000000 0.300000
-0.449295 0.155737 -0.323807 0.600000 0.000000 0.300000
-0.387279 -0.211427 -0.109440 0.600000 0.000000 0.300000
-0.585404 -0.214920 0.270814 0.600000 0.000000 0.300000
0.546875 0.345210 -0.415022 0.800000 0.200000 0.500000
0.515997 0.484185 -0.459111 0.800000 0.200000 0.500000
0.448711 0.460599 -0.451634 0.800000 0.200000 0.500000
0.459086 -0.147936 0.279773 0.000000 0.500000 0.500000
0.266031 0.179043 -0.362312 0.800000 0.200000 0.500000
0.296033 0.396097 -0.431169 0.800000 0.200000 0.500000
-0.602717 -0.093781 -0.243583 0.800000 0.200000 0.500000
-0.241960 -0.008473 -0.270644 0.600000 0.000000 0.300000
-0.064919 -0.076101 -0.249222 0.800000 0.200000 0.500000
0.448861 -0.073560 -0.250028 0.800000 0.200000 0.500000
0.137640 -0.147918 0.352491 0.000000 0.500000 0.500000
-0.235475 0.253548 -0.353787 0.600000 0.000000 0.300000
0.300981 0.278522 -0.362756 0.600000 0.000000 0.300000
-0.127874 -0.213379 0.483059 0.600000 0.000000 0.300000
-0.546953 0.111981 -0.341101 0.800000 0.200000 0.500000
0.184043 -0.152957 -0.257058 0.800000 0.200000 0.500000
-0.524107 -0.217207 0.427266 0.600000 0.000000 0.300000
-0.537077 -0.062752 -0.254507 0.800000 0.200000 0.500000
-0.229147 -0.160161 -0.009230 0.000000 0.500000 0.500000
0.122334 0.125908 -0.313298 0.600000 0.000000 0.300000
-0.143384 -0.044748 -0.259110 0.600000 0.000000 0.300000
0.052837 0.086753 -0.300825 0.600000 0.000000 0.300000
-0.178146 -0.153342 -0.079527 0.600000 0.000000 0.300000
0.152333 -0.160161 0.060860 0.000000 0.500000 0.500000
-0.121717 -0.213379 0.527377 0.600000 0.000000 0.300000
-0.635358 0.596346 -0.490568 0.800000 0.200000 0.500000
-0.040335 -0.146005 0.671298 0.600000 0.000000 0.300000
-0.391704 -0.217207 0.235077 0.600000 0.000000 0.300000
0.434428 0.656864 -0.483479 0.800000 0.200000 0.500000
0.144305 -0.151364 0.138324 0.000000 0.500000 0.500000
0.087778 -0.104636 -0.272365 0.800000 0.200000 0.500000
-0.187031 -0.147918 0.114509 0.000000 0.500000 0.500000
0.611235 -0.150728 0.510690 0.600000 0.000000 0.300000
0.120077 0.257551 -0.387224 0.800000 0.200000 0.500000
-0.229026 -0.214380 -0.042486 0.600000 0.000000 0.300000
0.316992 -0.214380 0.491876 0.600000 0.000000 0.300000
-0.244802 -0.147271 -0.091757 0.600000 0.000000 0.300000
0.503475 -0.214380 0.226123 0.600000 0.000000 0.300000
-0.513274 0.594885 -0.494273 0.800000 0.200000 0.500000
0.634557 0.602190 -0.465005 0.800000 0.200000 0.500000
0.644372 -0.208832 0.213731 0.600000 0.000000 0.300000
-0.025143 0.233358 -0.347731 0.600000 0.000000 0.300000
-0.411670 0.571805 -0.454720 0.600000 0.000000 0.300000
-0.638841 -0.182879 -0.194511 0.600000 0.000000 0.300000
-0.599781 0.523745 -0.439841 0.800000 0.200000 0.500000
0.518655 -0.217207 0.420197 0.600000 0.000000 0.300000
-0.518836 -0.207619 -0.135594 0.600000 0.000000 0.300000
0.354609 0.636049 -0.475424 0.800000 0.200000 0.500000
0.125363 -0.206400 -0.139072 0.600000 0.000000 0.300000
0.469601 -0.150541 0.419593 0.600000 0.000000 0.300000
-0.172180 -0.147918 0.310637 0.000000 0.500000 0.500000
0.292190 0.160248 -0.324188 0.600000 0.000000 0.300000
-0.455893 -0.154946 0.139840 0.000000 0.500000 0.500000
0.472236 -0.149749 0.672095 0.600000 0.000000 0.300000
0.380070 -0.217207 0.456911 0.600000 0.000000 0.300000
0.599532 -0.211444 -0.102116 0.600000 0.000000 0.300000
0.630474 -0.089073 -0.245089 0.800000 0.200000 0.500000
0.307482 -0.214356 0.158255 0.600000 0.000000 0.300000
0.188183 -0.146601 0.493027 0.600000 0.000000 0.300000
0.317694 -0.146004 0.507738 0.600000 0.000000 0.300000
0.048985 -0.009660 -0.270273 0.600000 0.000000 0.300000
-0.596905 -0.186865 0.352122 0.600000 0.000000 0.300000
0.015078 -0.217207 0.117079 0.600000 0.000000 0.300000
0.541832 -0.207966 -0.113994 0.600000 0.000000 0.300000
0.530770 0.079376 -0.298485 0.800000 0.200000 0.500000
-0.427461 -0.217207 0.087610 0.600000 0.000000 0.300000
0.383442 0.043556 -0.287121 0.600000 0.000000 0.300000
-0.408028 -0.146004 0.550327 0.600000 0.000000 0.300000
-0.279702 0.559658 -0.450900 0.600000 0.000000 0.300000
0.287018 -0.200049 -0.158695 0.600000 0.000000 0.300000
-0.167731 0.536901 -0.443631 0.600000 0.000000 0.300000
-0.194722 -0.217207 0.474861 0.600000 0.000000 0.300000
0.199191 -0.147918 0.035669 0.000000 0.500000 0.500000
0.211735 0.046261 -0.320191 0.800000 0.200000 0.500000
0.256568 0.370789 -0.423197 0.800000 0.200000 0.500000
-0.599310 0.320720 -0.407267 0.800000 0.200000 0.500000
0.575808 -0.213387 -0.030856 0.600000 0.000000 0.300000
0.458834 -0.147004 0.559825 0.600000 0.000000 0.300000
0.192349 0.619830 -0.502150 0.800000 0.200000 0.500000
-0.251760 0.030452 -0.315176 0.800000 0.200000 0.500000
-0.051552 0.521729 -0.471032 0.800000 0.200000 0.500000
-0.144599 0.300577 -0.368689 0.600000 0.000000 0.300000
0.393169 -0.160144 0.263887 0.000000 0.500000 0.500000
0.018531 -0.205515 -0.140900 0.600000 0.000000 0.300000
-0.542200 0.242333 -0.382443 0.800000 0.200000 0.500000
0.165319 -0.214380 0.279656 0.600000 0.000000 0.300000
-0.493702 -0.149831 0.652260 0.600000 0.000000 0.300000
0.579432 -0.147918 0.087288 0.000000 0.500000 0.500000
-0.062376 -0.217207 0.080234 0.600000 0.000000 0.300000
0.583943 0.101121 -0.337653 0.800000 0.200000 0.500000
-0.268083 -0.147918 0.050253 0.000000 0.500000 0.500000
0.381251 -0.214380 0.327529 0.600000 0.000000 0.300000
-0.467818 -0.147918 0.183181 0.000000 0.500000 0.500000
0.091978 0.386143 -0.395803 0.600000 0.000000 0.300000
0.545366 0.625883 -0.504060 0.800000 0.200000 0.500000
0.338739 -0.177747 -0.249130 0.800000 0.200000 0.500000
-0.266453 -0.149831 0.525666 0.600000 0.000000 0.300000
0.561025 0.463410 -0.452543 0.800000 0.200000 0.500000
0.428197 -0.217207 0.194274 0.600000 0.000000 0.300000
-0.220205 0.443497 -0.414014 0.600000 0.000000 0.300000
-0.293395 0.312236 -0.404562 0.800000 0.200000 0.500000
-0.161528 0.428235 -0.409199 0.600000 0.000000 0.300000
-0.142453 -0.151846 0.394591 0.600000 0.000000 0.300000
0.524165 -0.191529 0.669888 0.600000 0.000000 0.300000
-0.391453 -0.217207 0.328288 0.600000 0.000000 0.300000
-0.593979 -0.206764 0.184587 0.600000 0.000000 0.300000
-0.301415 -0.217207 0.242939 0.600000 0.000000 0.300000
0.247923 0.514979 -0.468926 0.800000 0.200000 0.500000
0.271552 0.240754 -0.381933 0.800000 0.200000 0.500000
0.208444 0.230236 -0.346960 0.600000 0.000000 0.300000
0.017872 0.329552 -0.410115 0.800000 0.200000 0.500000
-0.057502 0.048711 -0.320968 0.800000 0.200000 0.500000
-0.345327 -0.214380 0.170464 0.600000 0.000000 0.300000
-0.029055 -0.181457 -0.171800 0.600000 0.000000 0.300000
0.566442 0.018012 -0.311292 0.800000 0.200000 0.500000
-0.106805 0.138177 -0.317136 0.600000 0.000000 0.300000
-0.097899 -0.201800 -0.155487 0.600000 0.000000 0.300000
-0.389450 -0.146995 0.655514 0.600000 0.000000 0.300000
0.605531 -0.160002 -0.010139 0.600000 0.000000 0.300000
-0.042803 -0.128660 -0.232529 0.800000 0.200000 0.500000
0.462757 -0.211644 0.677670 0.600000 0.000000 0.300000
-0.228081 -0.213379 0.578523 0.600000 0.000000 0.300000
-0.481449 -0.149831 0.548760 0.600000 0.000000 0.300000
0.480141 -0.217207 0.494132 0.600000 0.000000 0.300000
-0.061922 -0.147918 -0.015492 0.000000 0.500000 0.500000
0.229274 -0.170354 -0.251476 0.800000 0.200000 0.500000
-0.611755 -0.187003 0.442437 0.600000 0.000000 0.300000
-0.348710 -0.217207 0.252821 0.600000 0.000000 0.300000
0.120532 -0.213379 0.027330 0.600000 0.000000 0.300000
-0.097769 0.314800 -0.373195 0.600000 0.000000 0.300000
-0.302132 -0.149831 0.623595 0.600000 0.000000 0.300000
0.192921 0.388956 -0.396692 0.600000 0.000000 0.300000
-0.264056 0.354681 -0.385817 0.600000 0.000000 0.300000
0.462714 0.135207 -0.316207 0.600000 0.000000 0.300000
-0.413591 0.529491 -0.473480 0.800000 0.200000 0.500000
0.395309 0.153157 -0.354130 0.800000 0.200000 0.500000
-0.150468 0.579347 -0.457095 0.800000 0.200000 0.500000
-0.312189 -0.147645 -0.089073 0.600000 0.000000 0.300000
0.425816 -0.159730 0.188785 0.000000 0.500000 0.500000
-0.377841 -0.217207 0.040557 0.600000 0.000000 0.300000
0.082120 -0.217207 0.281388 0.600000 0.000000 0.300000
-0.318105 0.141744 -0.350479 0.800000 0.200000 0.500000
-0.481687 0.635502 -0.507135 0.800000 0.200000 0.500000
0.039710 -0.217207 0.267132 0.600000 0.000000 0.300000
0.648322 -0.154381 0.071063 0.600000 0.000000 0.300000
-0.297643 -0.149830 0.437338 0.600000 0.000000 0.300000
0.040711 0.260201 -0.388068 0.800000 0.200000 0.500000
0.364621 0.347692 -0.415810 0.800000 0.200000 0.500000
0.102958 0.236977 -0.349352 0.600000 0.000000 0.300000
-0.197809 0.145388 -0.320509 0.600000 0.000000 0.300000
0.492059 -0.214380 0.599252 0.600000 0.000000 0.300000
0.215973 0.157098 -0.355405 0.800000 0.200000 0.500000
0.017388 -0.050823 -0.257210 0.600000 0.000000 0.300000
0.096777 0.197063 -0.368068 0.800000 0.200000 0.500000
0.256108 -0.212026 -0.094453 0.600000 0.000000 0.300000
-0.438923 -0.146481 0.402753 0.600000 0.000000 0.300000
-0.065530 -0.214380 0.248248 0.600000 0.000000 0.300000
-0.609674 -0.179574 0.104558 0.600000 0.000000 0.300000
-0.271678 -0.079080 -0.280439 0.800000 0.200000 0.500000
0.622340 0.040224 -0.318276 0.800000 0.200000 0.500000
-0.001669 0.389670 -0.396919 0.600000 0.000000 0.300000
0.448078 -0.155492 0.364293 0.000000 0.500000 0.500000
-0.091908 0.205515 -0.370749 0.800000 0.200000 0.500000
0.028721 0.448857 -0.447901 0.800000 0.200000 0.500000
0.109402 -0.180733 0.703326 0.600000 0.000000 0.300000
-0.124926 -0.204662 -0.212712 0.800000 0.200000 0.500000
-0.349709 -0.151050 0.409686 0.600000 0.000000 0.300000
-0.601881 0.410889 -0.403872 0.800000 0.200000 0.500000
0.603898 -0.146004 0.597771 0.600000 0.000000 0.300000
-0.100840 0.344643 -0.414842 0.800000 0.200000 0.500000
-0.524948 -0.157413 0.217378 0.000000 0.500000 0.500000
0.047067 0.176589 -0.329338 0.600000 0.000000 0.300000
-0.151456 -0.217207 0.242168 0.600000 0.000000 0.300000
0.593136 -0.156368 0.170483 0.000000 0.500000 0.500000
0.415052 -0.149831 0.638394 0.600000 0.000000 0.300000
-0.210151 -0.217207 0.141598 0.600000 0.000000 0.300000
0.470415 -0.150491 -0.070628 0.600000 0.000000 0.300000
-0.061879 -0.214380 0.145954 0.600000 0.000000 0.300000
-0.418191 -0.213379 0.595873 0.600000 0.000000 0.300000
-0.586042 0.629000 -0.472840 0.800000 0.200000 0.500000
-0.348722 -0.147918 -0.041452 0.000000 0.500000 0.500000
-0.513788 -0.217207 -0.048480 0.600000 0.000000 0.300000
0.004125 0.289861 -0.397510 0.800000 0.200000 0.500000
-0.392888 0.471121 -0.422812 0.600000 0.000000 0.300000
0.192253 0.439003 -0.444777 0.800000 0.200000 0.500000
-0.479261 -0.210538 0.685805 0.600000 0.000000 0.300000
0.472006 0.586861 -0.491681 0.800000 0.200000 0.500000
-0.171765 -0.214380 0.075834 0.600000 0.000000 0.300000
-0.516664 0.333743 -0.379225 0.600000 0.000000 0.300000
0.100525 -0.118721 -0.235693 0.800000 0.200000 0.500000
-0.525671 -0.149771 0.678401 0.600000 0.000000 0.300000
0.441566 -0.214380 0.524175 0.600000 0.000000 0.300000
0.397083 0.232552 -0.347786 0.600000 0.000000 0.300000
-0.234729 0.304019 -0.401955 0.800000 0.200000 0.500000
-0.598588 -0.163066 0.202011 0.600000 0.000000 0.300000
0.108799 -0.147918 0.304139 0.000000 0.500000 0.500000
0.359663 -0.217207 0.591623 0.600000 0.000000 0.300000
-0.136514 0.651410 -0.509373 0.800000 0.200000 0.500000
-0.058768 -0.148453 0.490396 0.300000 0.000000 0.600000
0.062596 0.337546 -0.380433 0.600000 0.000000 0.300000
0.465443 0.221286 -0.375711 0.800000 0.200000 0.500000
0.190318 -0.089719 -0.277067 0.800000 0.200000 0.500000
0.040962 -0.214380 0.420606 0.600000 0.000000 0.300000
-0.468630 -0.167610 -0.160639 0.500000 0.000000 0.500000
-0.205886 -0.109878 -0.270723 0.800000 0.200000 0.500000
-0.414331 0.370295 -0.423038 0.800000 0.200000 0.500000
-0.289925 -0.147918 0.259421 0.000000 0.500000 0.500000
-0.311108 -0.146762 0.665396 0.600000 0.000000 0.300000
-0.033639 0.567977 -0.485687 0.800000 0.200000 0.500000
0.048008 -0.214380 0.535761 0.600000 0.000000 0.300000
0.278901 -0.156512 0.144996 0.000000 0.500000 0.500000
0.379106 -0.154040 0.334085 0.000000 0.500000 0.500000
-0.451055 -0.214380 0.301292 0.600000 0.000000 0.300000
-0.040494 0.102140 -0.337977 0.800000 0.200000 0.500000
0.261847 -0.147918 0.234842 0.000000 0.500000 0.500000
0.045833 -0.173324 0.708687 0.600000 0.000000 0.300000
0.031273 -0.147918 0.314862 0.000000 0.500000 0.500000
-0.044570 -0.160161 0.141580 0.000000 0.500000 0.500000
0.595141 -0.215097 0.231050 0.600000 0.000000 0.300000
0.313263 -0.147918 0.114361 0.000000 0.500000 0.500000
-0.214572 0.053601 -0.290309 0.600000 0.000000 0.300000
-0.100226 -0.213379 0.387293 0.600000 0.000000 0.300000
0.544753 -0.160161 0.290135 0.000000 0.500000 0.500000
-0.308549 -0.127373 -0.265111 0.800000 0.200000 0.500000
0.258252 0.018911 -0.279361 0.600000 0.000000 0.300000
0.298977 0.572241 -0.455070 0.600000 0.000000 0.300000
0.547572 -0.149831 0.630872 0.600000 0.000000 0.300000
0.296031 -0.154909 0.364868 0.600000 0.000000 0.300000
-0.461634 -0.178116 -0.249013 0.800000 0.200000 0.500000
0.000712 -0.114585 -0.237007 0.800000 0.200000 0.500000
0.577873 -0.091662 -0.276450 0.800000 0.200000 0.500000
-0.605999 -0.151085 0.492954 0.600000 0.000000 0.300000
0.648353 -0.150026 -0.245787 0.800000 0.200000 0.500000
-0.316307 0.638511 -0.508102 0.800000 0.200000 0.500000
0.513434 -0.154036 0.213294 0.000000 0.500000 0.500000
0.573582 -0.217109 0.577547 0.600000 0.000000 0.300000
-0.403891 -0.146892 -0.202941 0.500000 0.000000 0.500000
0.029349 -0.149759 0.636717 0.600000 0.000000 0.300000
-0.387415 0.261928 -0.356410 0.600000 0.000000 0.300000
-0.198608 -0.193213 -0.244213 0.800000 0.200000 0.500000
-0.197057 -0.169569 -0.170262 0.600000 0.000000 0.300000
-0.498003 -0.047131 -0.290565 0.800000 0.200000 0.500000
0.356252 0.600974 -0.496204 0.800000 0.200000 0.500000
0.648344 -0.154413 0.530571 0.600000 0.000000 0.300000
0.376400 -0.147207 -0.205207 0.500000 0.000000 0.500000
-0.550078 -0.147918 0.349116 0.000000 0.500000 0.500000
0.283283 -0.146004 0.583727 0.600000 0.000000 0.300000
0.048240 0.590040 -0.460878 0.800000 0.200000 0.500000
-0.241941 -0.152995 0.144513 0.000000 0.500000 0.500000
-0.123301 -0.214985 0.658621 0.600000 0.000000 0.300000
-0.449392 0.632044 -0.472739 0.800000 0.200000 0.500000
-0.394159 -0.194647 -0.165400 0.600000 0.000000 0.300000
0.438905 0.184117 -0.363922 0.800000 0.200000 0.500000
-0.336155 -0.147918 0.315865 0.000000 0.500000 0.500000
0.135507 0.350033 -0.384345 0.600000 0.000000 0.300000
-0.376479 -0.147918 0.262351 0.000000 0.500000 0.500000
-0.537089 -0.149831 0.499582 0.600000 0.000000 0.300000
0.503104 0.031240 -0.315427 0.800000 0.200000 0.500000
0.400644 -0.217207 0.148174 0.600000 0.000000 0.300000
0.128191 0.424443 -0.407996 0.600000 0.000000 0.300000
-0.312191 0.005863 -0.307377 0.800000 0.200000 0.500000
0.650141 -0.179104 0.283000 0.600000 0.000000 0.300000
0.043664 0.614068 -0.500315 0.800000 0.200000 0.500000
0.629204 -0.026212 -0.265043 0.800000 0.200000 0.500000
0.397215 0.301110 -0.369902 0.600000 0.000000 0.300000
0.412004 -0.217207 0.053769 0.600000 0.000000 0.300000
-0.559430 0.192806 -0.335574 0.800000 0.200000 0.500000
-0.126220 -0.105274 -0.239963 0.800000 0.200000 0.500000
0.053293 -0.147826 0.440768 0.600000 0.000000 0.300000
-0.277068 0.187887 -0.365119 0.800000 0.200000 0.500000
-0.385309 -0.146004 0.459533 0.600000 0.000000 0.300000
0.534388 -0.155018 0.368242 0.600000 0.000000 0.300000
-0.037153 0.193559 -0.334956 0.600000 0.000000 0.300000
-0.549807 -0.217207 0.464231 0.600000 0.000000 0.300000
0.523691 -0.194170 -0.243908 0.800000 0.200000 0.500000
-0.122280 0.052815 -0.322287 0.800000 0.200000 0.500000
-0.563434 0.393719 -0.398199 0.800000 0.200000 0.500000
-0.284191 -0.147918 0.177572 0.000000 0.500000 0.500000
-0.461317 -0.073359 -0.282279 0.800000 0.200000 0.500000
-0.194491 -0.157713 0.266594 0.000000 0.500000 0.500000
-0.142775 -0.213379 0.413944 0.600000 0.000000 0.300000
-0.627776 -0.092897 -0.275212 0.800000 0.200000 0.500000
0.140670 0.136647 -0.348864 0.800000 0.200000 0.500000
-0.605994 -0.140682 -0.260890 0.800000 0.200000 0.500000
-0.278569 0.149401 -0.352915 0.800000 0.200000 0.500000
-0.352404 0.163706 -0.326338 0.600000 0.000000 0.300000
0.618617 -0.148521 0.097745 0.600000 0.000000 0.300000
0.552646 0.293815 -0.398744 0.800000 0.200000 0.500000
-0.536303 -0.214380 0.377834 0.600000 0.000000 0.300000
-0.011499 -0.147918 0.355460 0.000000 0.500000 0.500000
-0.176578 0.344151 -0.414686 0.800000 0.200000 0.500000
0.000206 0.630128 -0.473195 0.800000 0.200000 0.500000
0.394881 -0.027959 -0.264486 0.600000 0.000000 0.300000
0.404829 -0.214380 0.496479 0.600000 0.000000 0.300000
-0.588883 -0.149881 0.648337 0.600000 0.000000 0.300000
0.237202 -0.147918 0.079381 0.000000 0.500000 0.500000
0.514360 -0.112512 -0.269875 0.800000 0.200000 0.500000
-0.121114 -0.213379 0.612690 0.600000 0.000000 0.300000
0.467021 0.406958 -0.434610 0.800000 0.200000 0.500000
-0.362360 -0.160161 0.038566 0.000000 0.500000 0.500000
0.245111 0.454087 -0.417375 0.600000 0.000000 0.300000
0.243030 0.094550 -0.303299 0.600000 0.000000 0.300000
-0.027922 0.621760 -0.502758 0.800000 0.200000 0.500000
0.649249 0.427349 -0.422025 0.800000 0.200000 0.500000
0.647743 0.211667 -0.364453 0.800000 0.200000 0.500000
0.457108 0.001453 -0.305978 0.800000 0.200000 0.500000
0.098023 0.454550 -0.417524 0.600000 0.000000 0.300000
0.063004 -0.071958 -0.282730 0.800000 0.200000 0.500000
-0.169452 0.027289 -0.314188 0.800000 0.200000 0.500000
0.273594 -0.214380 0.220745 0.600000 0.000000 0.300000
-0.203192 -0.214380 0.035467 0.600000 0.000000 0.300000
-0.589181 -0.149901 0.419752 0.600000 0.000000 0.300000
-0.076401 -0.160161 -0.057588 0.000000 0.500000 0.500000
-0.359741 -0.213379 0.524394 0.600000 0.000000 0.300000
0.117963 -0.044816 -0.291300 0.800000 0.200000 0.500000
0.029629 0.004821 -0.307047 0.800000 0.200000 0.500000
-0.450401 -0.147918 0.320708 0.000000 0.500000 0.500000
0.575768 -0.013227 -0.269157 0.800000 0.200000 0.500000
0.448264 -0.116442 -0.236417 0.800000 0.200000 0.500000
-0.384538 0.138950 -0.318435 0.600000 0.000000 0.300000
0.399971 -0.159262 -0.255017 0.800000 0.200000 0.500000
0.649381 -0.159690 -0.161248 0.600000 0.000000 0.300000
0.649044 -0.156254 -0.060331 0.600000 0.000000 0.300000
0.500324 -0.147604 0.700329 0.600000 0.000000 0.300000
0.473160 -0.147918 0.002516 0.000000 0.500000 0.500000
-0.488341 -0.217207 0.139820 0.600000 0.000000 0.300000
-0.298828 -0.212781 0.648909 0.600000 0.000000 0.300000
0.072341 -0.217207 0.174861 0.600000 0.000000 0.300000
-0.285613 -0.217207 0.126484 0.600000 0.000000 0.300000
0.338157 -0.147272 0.395498 0.600000 0.000000 0.300000
0.460954 -0.214380 0.297628 0.600000 0.000000 0.300000
0.332845 -0.217207 0.403241 0.600000 0.000000 0.300000
-0.274095 -0.170024 -0.170352 0.600000 0.000000 0.300000
0.530440 -0.214380 0.499717 0.600000 0.000000 0.300000
-0.013739 -0.207897 -0.105753 0.600000 0.000000 0.300000
-0.461769 0.566012 -0.452912 0.600000 0.000000 0.300000
0.464377 0.047707 -0.320650 0.800000 0.200000 0.500000
-0.199280 -0.213379 0.534567 0.600000 0.000000 0.300000
-0.636696 -0.152690 0.359650 0.600000 0.000000 0.300000
0.508653 -0.146689 0.413633 0.600000 0.000000 0.300000
-0.276703 -0.200513 -0.199518 0.500000 0.000000 0.500000
0.511450 0.005989 -0.275253 0.600000 0.000000 0.300000
-0.236279 -0.189017 -0.172334 0.600000 0.000000 0.300000
0.317658 0.159643 -0.356214 0.800000 0.200000 0.500000
0.083960 0.139745 -0.317641 0.600000 0.000000 0.300000
0.185039 -0.159841 0.121589 0.000000 0.500000 0.500000
-0.379539 -0.111914 -0.270068 0.800000 0.200000 0.500000
0.578021 0.338181 -0.381516 0.800000 0.200000 0.500000
-0.542689 -0.217207 -0.015597 0.600000 0.000000 0.300000
-0.610511 0.208904 -0.339636 0.800000 0.200000 0.500000
-0.209776 0.377320 -0.425273 0.800000 0.200000 0.500000
0.165679 0.528930 -0.441115 0.600000 0.000000 0.300000
0.132695 0.507868 -0.434460 0.600000 0.000000 0.300000
0.172727 -0.146169 0.654090 0.600000 0.000000 0.300000
0.447557 0.107152 -0.339568 0.800000 0.200000 0.500000
0.196178 -0.217207 0.192521 0.600000 0.000000 0.300000
-0.039808 -0.081357 -0.279719 0.800000 0.200000 0.500000
0.607460 0.643980 -0.477696 0.800000 0.200000 0.500000
-0.254053 0.372878 -0.423864 0.800000 0.200000 0.500000
-0.028368 -0.213379 0.623910 0.600000 0.000000 0.300000
-0.476843 0.486708 -0.427725 0.600000 0.000000 0.300000
-0.214469 0.631642 -0.505888 0.800000 0.200000 0.500000
0.531087 -0.217207 0.283568 0.600000 0.000000 0.300000
-0.513514 -0.146004 0.429050 0.600000 0.000000 0.300000
0.413684 0.456940 -0.419084 0.600000 0.000000 0.300000
0.120553 -0.217207 -0.055771 0.600000 0.000000 0.300000
0.224055 0.503496 -0.433073 0.600000 0.000000 0.300000
-0.176221 0.554660 -0.481525 0.800000 0.200000 0.500000
0.401766 0.403267 -0.402277 0.600000 0.000000 0.300000
-0.040007 0.380451 -0.393998 0.600000 0.000000 0.300000
0.314078 -0.149831 0.557544 0.600000 0.000000 0.300000
0.354813 0.568714 -0.453871 0.600000 0.000000 0.300000
-0.401165 0.626473 -0.504247 0.800000 0.200000 0.500000
-0.477368 -0.214380 0.102173 0.600000 0.000000 0.300000
0.256956 -0.196382 0.694331 0.600000 0.000000 0.300000
-0.466141 -0.217207 0.370338 0.600000 0.000000 0.300000
0.225080 0.196475 -0.335688 0.600000 0.000000 0.300000
-0.464656 0.601752 -0.496445 0.800000 0.200000 0.500000
-0.001113 -0.149028 0.545146 0.300000 0.000000 0.600000
-0.529023 0.156579 -0.355237 0.800000 0.200000 0.500000
-0.639145 -0.185287 0.264170 0.600000 0.000000 0.300000
0.339498 -0.147918 -0.046688 0.000000 0.500000 0.500000
0.406917 0.626501 -0.504256 0.800000 0.200000 0.500000
-0.368376 -0.195439 0.707354 0.600000 0.000000 0.300000
0.518259 0.135398 -0.316267 0.800000 0.200000 0.500000
0.443022 0.347051 -0.415607 0.800000 0.200000 0.500000
-0.132488 -0.146043 -0.152441 0.600000 0.000000 0.300000
-0.062084 0.248520 -0.384393 0.800000 0.200000 0.500000
-0.323842 -0.160161 0.142136 0.000000 0.500000 0.500000
-0.439756 -0.153321 0.051708 0.000000 0.500000 0.500000
-0.032291 0.149606 -0.320812 0.600000 0.000000 0.300000
0.269096 0.085287 -0.332629 0.800000 0.200000 0.500000
-0.576202 0.138903 -0.349578 0.800000 0.200000 0.500000
-0.540548 -0.214381 0.309267 0.600000 0.000000 0.300000
-0.538003 -0.005363 -0.303813 0.800000 0.200000 0.500000
-0.097892 0.163729 -0.357489 0.800000 0.200000 0.500000
0.485986 -0.173720 -0.250408 0.800000 0.200000 0.500000
0.249070 0.321209 -0.407425 0.800000 0.200000 0.500000
0.296395 -0.214380 0.567178 0.600000 0.000000 0.300000
-0.159972 0.452243 -0.448974 0.800000 0.200000 0.500000
0.041491 -0.147054 -0.203428 0.500000 0.000000 0.500000
-0.130166 0.097685 -0.304303 0.600000 0.000000 0.300000
0.082100 -0.214380 0.352944 0.600000 0.000000 0.300000
-0.525495 -0.147664 -0.224765 0.800000 0.200000 0.500000
0.553207 -0.063026 -0.285564 0.800000 0.200000 0.500000
0.173410 -0.207044 -0.221272 0.800000 0.200000 0.500000
-0.557111 0.207624 -0.371407 0.800000 0.200000 0.500000
-0.301500 -0.038799 -0.293209 0.800000 0.200000 0.500000
0.598839 0.244612 -0.351593 0.800000 0.200000 0.500000
0.410993 -0.147918 -0.043153 0.000000 0.500000 0.500000
-0.540153 -0.149511 -0.008886 0.000000 0.500000 0.500000
-0.320433 -0.149831 0.504001 0.600000 0.000000 0.300000
-0.465492 -0.208831 -0.096456 0.600000 0.000000 0.300000
0.635595 0.142644 -0.350133 0.800000 0.200000 0.500000
-0.336042 0.288715 -0.364943 0.600000 0.000000 0.300000
-0.296224 -0.205828 0.703325 0.600000 0.000000 0.300000
0.360385 -0.090319 -0.276875 0.800000 0.200000 0.500000
-0.013711 0.471182 -0.455039 0.800000 0.200000 0.500000
0.519684 0.101906 -0.337903 0.800000 0.200000 0.500000
0.271113 0.435202 -0.443590 0.800000 0.200000 0.500000
0.077713 -0.147918 0.132523 0.000000 0.500000 0.500000
0.112701 0.472926 -0.455584 0.800000 0.200000 0.500000
-0.177437 -0.149734 -0.143486 0.600000 0.000000 0.300000
0.066259 0.215725 -0.341910 0.600000 0.000000 0.300000
-0.077620 -0.213379 0.464930 0.600000 0.000000 0.300000
-0.314398 -0.217207 0.338654 0.600000 0.000000 0.300000
0.164798 0.052583 -0.322212 0.800000 0.200000 0.500000
0.640948 -0.147298 0.017741 0.600000 0.000000 0.300000
-0.312559 -0.212099 -0.081569 0.600000 0.000000 0.300000
-0.594313 -0.211132 -0.137023 0.600000 0.000000 0.300000
0.284575 -0.102612 -0.272997 0.800000 0.200000 0.500000
0.395214 0.508426 -0.466840 0.800000 0.200000 0.500000
0.299967 -0.147918 0.197364 0.000000 0.500000 0.500000
0.368646 -0.147918 0.079770 0.000000 0.500000 0.500000
-0.559678 -0.180299 -0.211655 0.600000 0.000000 0.300000
0.333842 -0.147918 0.034616 0.000000 0.500000 0.500000
-0.202253 0.006827 -0.275524 0.600000 0.000000 0.300000
0.159590 0.329668 -0.410151 0.800000 0.200000 0.500000
-0.013729 -0.017428 -0.267831 0.600000 0.000000 0.300000
0.367987 -0.146005 0.673255 0.600000 0.000000 0.300000
-0.004290 0.199659 -0.368908 0.800000 0.200000 0.500000
0.282228 -0.049762 -0.289731 0.800000 0.200000 0.500000
0.251567 -0.214380 0.395882 0.600000 0.000000 0.300000
0.621957 -0.146008 0.642275 0.600000 0.000000 0.300000
0.409916 -0.069192 -0.283622 0.800000 0.200000 0.500000
0.226353 -0.153025 -0.110985 0.600000 0.000000 0.300000
-0.163185 0.305464 -0.402414 0.800000 0.200000 0.500000
0.411624 -0.199289 -0.159992 0.600000 0.000000 0.300000
0.254360 -0.069777 -0.251228 0.800000 0.200000 0.500000
0.114301 -0.148468 0.484181 0.300000 0.000000 0.600000
-0.516675 -0.147918 0.180982 0.000000 0.500000 0.500000
0.368992 0.286090 -0.396332 0.800000 0.200000 0.500000
0.157750 0.472022 -0.455301 0.800000 0.200000 0.500000
-0.558536 0.311620 -0.404367 0.800000 0.200000 0.500000
0.487232 0.167898 -0.326617 0.600000 0.000000 0.300000
0.005706 -0.217207 0.536155 0.600000 0.000000 0.300000
-0.617270 -0.147341 0.271503 0.600000 0.000000 0.300000
-0.041313 -0.146005 0.614880 0.300000 0.000000 0.600000
0.609485 -0.150378 0.303722 0.600000 0.000000 0.300000
0.046949 0.484980 -0.459364 0.800000 0.200000 0.500000
-0.604157 -0.211300 0.051079 0.600000 0.000000 0.300000
-0.589709 0.237244 -0.380797 0.800000 0.200000 0.500000
0.526593 -0.217207 0.195603 0.600000 0.000000 0.300000
-0.473871 0.410132 -0.435617 0.800000 0.200000 0.500000
0.345023 -0.011396 -0.301900 0.800000 0.200000 0.500000
0.441679 -0.208217 -0.227962 0.800000 0.200000 0.500000
-0.245072 -0.055870 -0.255634 0.600000 0.000000 0.300000
0.530630 0.618484 -0.469504 0.800000 0.200000 0.500000
0.476922 0.463490 -0.421439 0.600000 0.000000 0.300000
-0.341082 -0.214380 0.095132 0.600000 0.000000 0.300000
0.151087 -0.214380 0.390434 0.600000 0.000000 0.300000
0.100230 -0.211890 0.675865 0.600000 0.000000 0.300000
-0.356392 0.482492 -0.426409 0.600000 0.000000 0.300000
0.157313 -0.147349 0.535811 0.600000 0.000000 0.300000
-0.157445 -0.214380 0.159772 0.600000 0.000000 0.300000
-0.174089 0.622175 -0.471369 0.800000 0.200000 0.500000
0.040320 -0.147918 0.259443 0.000000 0.500000 0.500000
0.123079 -0.152622 -0.084224 0.600000 0.000000 0.300000
-0.114245 -0.217207 0.044955 0.600000 0.000000 0.300000
-0.412222 -0.007996 -0.302980 0.800000 0.200000 0.500000
-0.357008 -0.146521 0.675628 0.600000 0.000000 0.300000
-0.501111 0.450188 -0.416115 0.600000 0.000000 0.300000
-0.067669 -0.016224 -0.300387 0.800000 0.200000 0.500000
-0.506212 -0.149831 0.582399 0.600000 0.000000 0.300000
0.190290 -0.217207 0.417998 0.600000 0.000000 0.300000
-0.407915 0.070908 -0.296898 0.600000 0.000000 0.300000
0.406027 -0.192825 0.707684 0.600000 0.000000 0.300000
-0.313337 0.378457 -0.393365 0.600000 0.000000 0.300000
-0.202141 -0.070383 -0.283238 0.800000 0.200000 0.500000
-0.149328 -0.085285 -0.278473 0.800000 0.200000 0.500000
-0.526003 0.389787 -0.429200 0.800000 0.200000 0.500000
0.155446 -0.213481 0.198426 0.600000 0.000000 0.300000
-0.451738 -0.213379 0.615176 0.600000 0.000000 0.300000
0.500533 -0.217207 -0.005399 0.600000 0.000000 0.300000
0.403410 -0.150508 0.123563 0.000000 0.500000 0.500000
-0.434344 -0.146163 0.613587 0.600000 0.000000 0.300000
-0.211660 -0.149831 0.458655 0.600000 0.000000 0.300000
-0.077823 -0.153421 0.070815 0.000000 0.500000 0.500000
0.441464 -0.213782 0.030057 0.600000 0.000000 0.300000
-0.419008 -0.217207 0.549434 0.600000 0.000000 0.300000
0.640579 0.030644 -0.284520 0.800000 0.200000 0.500000
-0.075315 0.490864 -0.429022 0.600000 0.000000 0.300000
0.546019 -0.147918 -0.024859 0.000000 0.500000 0.500000
-0.059285 0.426587 -0.408676 0.600000 0.000000 0.300000
-0.226213 0.189115 -0.365509 0.800000 0.200000 0.500000
0.334842 0.196757 -0.367970 0.800000 0.200000 0.500000
-0.120036 0.269175 -0.358705 0.600000 0.000000 0.300000
0.361196 -0.214380 0.198519 0.600000 0.000000 0.300000
-0.470430 -0.160161 -0.056438 0.000000 0.500000 0.500000
-0.306043 -0.214380 -0.031519 0.600000 0.000000 0.300000
0.582462 -0.161262 -0.254370 0.800000 0.200000 0.500000
0.130512 0.569006 -0.486014 0.800000 0.200000 0.500000
0.177132 0.204980 -0.338388 0.600000 0.000000 0.300000
-0.635199 0.361291 -0.391644 0.800000 0.200000 0.500000
0.492065 0.248656 -0.353286 0.600000 0.000000 0.300000
-0.577836 -0.149830 0.567545 0.600000 0.000000 0.300000
0.374973 -0.154012 -0.069235 0.600000 0.000000 0.300000
-0.274063 -0.214380 0.385332 0.600000 0.000000 0.300000
-0.143108 0.499256 -0.463892 0.800000 0.200000 0.500000
0.298791 -0.214446 0.636347 0.600000 0.000000 0.300000
-0.001974 -0.160161 0.215701 0.000000 0.500000 0.500000
0.204997 -0.202967 -0.151564 0.600000 0.000000 0.300000
0.042362 0.548366 -0.479490 0.800000 0.200000 0.500000
0.441205 -0.147004 0.461177 0.600000 0.000000 0.300000
0.261448 -0.213379 -0.035208 0.600000 0.000000 0.300000
-0.195009 0.408778 -0.402986 0.600000 0.000000 0.300000
-0.122175 -0.058169 -0.287080 0.800000 0.200000 0.500000
0.178890 -0.214380 0.600359 0.600000 0.000000 0.300000
-0.495817 -0.147918 0.109124 0.000000 0.500000 0.500000
-0.631491 -0.184378 -0.071770 0.600000 0.000000 0.300000
0.215256 -0.146365 0.615241 0.600000 0.000000 0.300000
0.253170 -0.207925 -0.131629 0.600000 0.000000 0.300000
0.293659 0.314948 -0.374292 0.600000 0.000000 0.300000
0.180166 -0.201147 0.688095 0.600000 0.000000 0.300000
0.333760 0.232910 -0.347914 0.600000 0.000000 0.300000
-0.012109 0.115686 -0.310052 0.600000 0.000000 0.300000
0.521500 0.521354 -0.439104 0.800000 0.200000 0.500000
0.390807 -0.149831 0.557946 0.600000 0.000000 0.300000
0.183826 0.094466 -0.335543 0.800000 0.200000 0.500000
-0.531202 0.232291 -0.347428 0.600000 0.000000 0.300000
-0.309941 0.089742 -0.302824 0.600000 0.000000 0.300000
-0.499404 0.100844 -0.337566 0.800000 0.200000 0.500000
-0.459440 0.536399 -0.475671 0.800000 0.200000 0.500000
0.363465 0.172620 -0.360273 0.800000 0.200000 0.500000
0.368683 -0.158230 0.005955 0.000000 0.500000 0.500000
-0.249126 -0.214380 0.193617 0.600000 0.000000 0.300000
-0.317206 -0.160161 -0.003381 0.000000 0.500000 0.500000
0.469587 0.661064 -0.495383 0.800000 0.200000 0.500000
0.152378 -0.147918 0.182024 0.000000 0.500000 0.500000
0.062945 -0.147918 0.335752 0.000000 0.500000 0.500000
0.528221 -0.153328 0.151845 0.000000 0.500000 0.500000
0.461801 -0.062207 -0.285819 0.800000 0.200000 0.500000
0.125862 0.208315 -0.339448 0.600000 0.000000 0.300000
-0.634020 -0.000472 -0.301560 0.800000 0.200000 0.500000
0.097618 0.550264 -0.480104 0.800000 0.200000 0.500000
-0.598232 -0.211391 0.661435 0.600000 0.000000 0.300000
0.166430 -0.146028 0.430739 0.600000 0.000000 0.300000
-0.078102 -0.203836 0.683938 0.600000 0.000000 0.300000
-0.375194 -0.154014 0.373218 0.600000 0.000000 0.300000
0.617858 0.302950 -0.369780 0.800000 0.200000 0.500000
-0.514698 -0.213379 0.626218 0.600000 0.000000 0.300000
0.025865 -0.147918 0.038756 0.000000 0.500000 0.500000
-0.068063 -0.214380 -0.001297 0.600000 0.000000 0.300000
0.310909 -0.214380 0.283449 0.600000 0.000000 0.300000
-0.583778 -0.160161 -0.043624 0.000000 0.500000 0.500000
0.431231 0.239695 -0.381590 0.800000 0.200000 0.500000
0.615514 -0.196218 -0.025258 0.600000 0.000000 0.300000
0.537549 -0.190838 -0.205786 0.600000 0.000000 0.300000
-0.639089 -0.190516 0.303845 0.600000 0.000000 0.300000
0.457478 -0.217207 0.338158 0.600000 0.000000 0.300000
0.557104 -0.217207 0.348764 0.600000 0.000000 0.300000
0.620849 0.258679 -0.387583 0.800000 0.200000 0.500000
-0.599692 -0.176006 -0.217995 0.800000 0.200000 0.500000
-0.404341 0.445107 -0.446711 0.800000 0.200000 0.500000
-0.220312 -0.157763 0.213297 0.000000 0.500000 0.500000
-0.232652 0.415320 -0.437263 0.800000 0.200000 0.500000
0.195841 -0.160018 -0.060127 0.000000 0.500000 0.500000
-0.508516 0.537723 -0.443897 0.600000 0.000000 0.300000
0.025328 0.224244 -0.344679 0.600000 0.000000 0.300000
-0.019129 -0.117849 -0.268149 0.800000 0.200000 0.500000
-0.551648 -0.147918 0.114294 0.000000 0.500000 0.500000
0.602909 -0.139577 -0.229200 0.800000 0.200000 0.500000
0.591943 -0.173817 -0.166480 0.600000 0.000000 0.300000
-0.384765 0.647467 -0.478036 0.800000 0.200000 0.500000
0.448842 0.148267 -0.352549 0.800000 0.200000 0.500000
0.164149 -0.180345 -0.175568 0.600000 0.000000 0.300000
0.345689 0.451022 -0.448587 0.800000 0.200000 0.500000
-0.329744 -0.119576 -0.235751 0.800000 0.200000 0.500000
-0.299922 0.518406 -0.469995 0.800000 0.200000 0.500000
-0.115077 0.560553 -0.451185 0.600000 0.000000 0.300000
0.264765 0.485663 -0.427399 0.600000 0.000000 0.300000
0.557361 -0.217207 0.004772 0.600000 0.000000 0.300000
0.073898 -0.214380 0.393650 0.600000 0.000000 0.300000
-0.541093 -0.214381 0.233170 0.600000 0.000000 0.300000
-0.557191 0.075297 -0.298273 0.800000 0.200000 0.500000
-0.357081 0.528250 -0.440902 0.600000 0.000000 0.300000
0.088010 0.302210 -0.401382 0.800000 0.200000 0.500000
0.541355 -0.124630 -0.233878 0.800000 0.200000 0.500000
0.300455 -0.217207 0.353840 0.600000 0.000000 0.300000
0.361005 -0.146386 0.451030 0.600000 0.000000 0.300000
0.460656 -0.214380 0.443996 0.600000 0.000000 0.300000
-0.560991 0.008711 -0.277175 0.800000 0.200000 0.500000
0.037015 -0.126908 -0.265259 0.800000 0.200000 0.500000
0.104607 -0.149136 0.381707 0.600000 0.000000 0.300000
0.371794 -0.213379 0.000377 0.600000 0.000000 0.300000
-0.127046 -0.214920 -0.083496 0.600000 0.000000 0.300000
-0.552872 -0.213546 0.612802 0.600000 0.000000 0.300000
-0.264872 -0.160161 0.217279 0.000000 0.500000 0.500000
0.372497 0.544389 -0.478205 0.800000 0.200000 0.500000
0.384675 0.053638 -0.322553 0.800000 0.200000 0.500000
0.266029 0.027630 -0.314294 0.800000 0.200000 0.500000
-0.354485 0.427728 -0.409038 0.600000 0.000000 0.300000
-0.417819 -0.163850 -0.253538 0.800000 0.200000 0.500000
0.594931 0.617511 -0.501406 0.800000 0.200000 0.500000
0.401663 0.004314 -0.306884 0.800000 0.200000 0.500000
-0.471740 -0.217207 0.213945 0.600000 0.000000 0.300000
-0.150866 -0.213379 0.549799 0.600000 0.000000 0.300000
-0.268873 -0.147918 0.105047 0.000000 0.500000 0.500000
0.178093 -0.208277 -0.111492 0.600000 0.000000 0.300000
0.436787 -0.217207 0.112673 0.600000 0.000000 0.300000
0.366023 -0.217207 0.555454 0.600000 0.000000 0.300000
-0.369054 -0.147918 0.298294 0.000000 0.500000 0.500000
-0.632093 -0.182923 0.041866 0.600000 0.000000 0.300000
-0.125273 -0.147005 0.429082 0.600000 0.000000 0.300000
-0.132875 0.140980 -0.350237 0.800000 0.200000 0.500000
-0.388879 0.573537 -0.487452 0.800000 0.200000 0.500000
-0.364640 -0.149831 0.546936 0.600000 0.000000 0.300000
0.363300 0.230529 -0.378643 0.800000 0.200000 0.500000
0.087844 -0.146942 0.601129 0.600000 0.300000 0.000000
-0.492401 -0.157977 0.343623 0.000000 0.500000 0.500000
-0.246012 -0.217207 0.426791 0.600000 0.000000 0.300000
-0.175659 0.390049 -0.429281 0.800000 0.200000 0.500000
0.139891 -0.214380 0.487587 0.600000 0.000000 0.300000
-0.508927 -0.214103 0.556785 0.600000 0.000000 0.300000
-0.253362 0.591873 -0.461108 0.800000 0.200000 0.500000
0.438079 -0.146171 -0.119621 0.600000 0.000000 0.300000
-0.289095 -0.214380 0.309390 0.600000 0.000000 0.300000
0.496947 0.097769 -0.304330 0.600000 0.000000 0.300000
0.175195 0.388039 -0.428654 0.800000 0.200000 0.500000
-0.303740 -0.207604 -0.116758 0.600000 0.000000 0.300000
