0.074139 0.419442 0.826954 0.300000 0.600000 0.000000
0.025101 -0.438486 -0.406656 0.300000 0.000000 0.600000
0.066806 -0.343236 -0.379300 0.600000 0.300000 0.000000
0.049559 0.208022 0.371879 0.000000 0.500000 0.500000
-0.062308 0.194997 0.275308 0.000000 0.500000 0.500000
0.026950 0.358210 0.509863 0.000000 0.500000 0.500000
-0.035752 -0.438411 -0.189941 0.300000 0.000000 0.600000
0.092788 -0.437618 -0.237233 0.300000 0.000000 0.600000
-0.094414 -0.204204 -0.349762 0.600000 0.300000 0.000000
0.103135 -0.015034 -0.331139 0.000000 1.000000 0.000000
-0.030803 0.077351 -0.358281 0.000000 1.000000 0.000000
0.010296 0.407757 0.643917 0.000000 0.500000 0.500000
-0.001844 0.092515 -0.177938 0.000000 1.000000 0.000000
-0.043900 -0.230110 -0.071839 0.000000 0.500000 0.500000
-0.075622 -0.347537 -0.219993 0.600000 0.300000 0.000000
0.010723 -0.171562 -0.018634 0.000000 0.500000 0.500000
0.081650 0.131883 -0.233894 0.000000 1.000000 0.000000
0.001981 0.289446 0.375579 0.000000 0.500000 0.500000
0.031443 -0.039550 -0.199009 0.600000 0.300000 0.000000
0.101555 -0.163431 -0.293510 0.600000 0.300000 0.000000
-0.033082 -0.038233 -0.394141 0.600000 0.300000 0.000000
0.060335 -0.285673 -0.154798 0.000000 0.500000 0.500000
-0.005958 0.044928 0.181880 0.000000 0.500000 0.500000
-0.029307 0.290186 0.532385 0.000000 0.500000 0.500000
0.001911 0.137324 0.169852 0.000000 0.500000 0.500000
-0.024752 0.326056 0.637440 0.000000 0.500000 0.500000
-0.034820 -0.064327 -0.024193 0.000000 0.500000 0.500000
-0.020831 -0.214501 -0.194408 0.600000 0.300000 0.000000
0.024349 0.341962 0.772094 0.300000 0.600000 0.000000
-0.023037 0.007103 0.039902 0.000000 0.500000 0.500000
0.001739 -0.016914 0.120368 0.000000 0.500000 0.500000
0.002786 0.144190 0.295155 0.000000 0.500000 0.500000
-0.013004 0.144725 -0.112432 0.000000 1.000000 0.000000
-0.006483 0.433286 0.750488 0.300000 0.600000 0.000000
0.033506 -0.174910 -0.396298 0.600000 0.300000 0.000000
-0.020407 0.247377 0.447489 0.000000 0.500000 0.500000
0.043227 -0.150058 -0.091253 0.000000 0.500000 0.500000
-0.063642 0.393369 0.888734 0.300000 0.600000 0.000000
0.002363 0.037478 -0.258385 0.600000 0.300000 0.000000
-0.094147 -0.074197 -0.350261 0.600000 0.300000 0.000000
0.038285 -0.089982 0.048972 0.000000 0.500000 0.500000
0.037260 0.338275 0.682853 0.000000 0.500000 0.500000
-0.076593 -0.284037 -0.372826 0.600000 0.300000 0.000000
-0.019749 0.249682 0.312756 0.000000 0.500000 0.500000
-0.103078 0.006671 -0.261669 0.000000 1.000000 0.000000
0.100443 -0.247815 -0.282219 0.600000 0.300000 0.000000
0.060067 -0.144088 -0.214418 0.600000 0.300000 0.000000
-0.081849 -0.271464 -0.224516 0.600000 0.300000 0.000000
0.041579 0.243069 0.041847 0.000000 1.000000 0.000000
-0.027835 0.151566 -0.216548 0.000000 1.000000 0.000000
-0.044256 -0.130283 0.011420 0.000000 0.500000 0.500000
0.001935 -0.280731 -0.107953 0.000000 0.500000 0.500000
-0.010582 -0.189006 -0.124856 0.000000 0.500000 0.500000
-0.106879 -0.139355 -0.315206 0.600000 0.300000 0.000000
-0.007599 0.198715 -0.005901 0.000000 1.000000 0.000000
0.006264 0.443174 0.838607 0.300000 0.600000 0.000000
-0.069563 0.377327 0.769074 0.300000 0.600000 0.000000
-0.015517 -0.335041 -0.152651 0.000000 0.500000 0.500000
0.102472 -0.005368 -0.259509 0.000000 1.000000 0.000000
-0.079833 -0.132149 -0.226068 0.600000 0.300000 0.000000
0.041257 0.354127 0.906517 0.300000 0.600000 0.000000
0.018552 0.204126 -0.087671 0.000000 1.000000 0.000000
-0.104716 -0.378705 -0.314728 0.600000 0.300000 0.000000
-0.014246 0.182911 0.222652 0.000000 0.500000 0.500000
0.041517 0.298332 0.546240 0.000000 0.500000 0.500000
-0.060528 0.104949 0.158195 0.000000 0.500000 0.500000
0.005075 0.054751 0.084836 0.000000 0.500000 0.500000
0.014817 -0.300437 -0.401824 0.600000 0.300000 0.000000
0.019702 -0.438486 -0.238289 0.300000 0.000000 0.600000
0.081423 -0.290783 -0.225386 0.600000 0.300000 0.000000
-0.029538 0.343255 0.718773 0.000000 0.500000 0.500000
0.026778 0.036300 -0.325137 0.600000 0.300000 0.000000
0.025847 -0.034608 0.001920 0.000000 0.500000 0.500000
-0.060375 -0.065218 -0.209671 0.600000 0.300000 0.000000
-0.024130 -0.438486 -0.351238 0.300000 0.000000 0.600000
0.011351 0.328344 0.446967 0.000000 0.500000 0.500000
-0.066077 0.077545 -0.195718 0.000000 1.000000 0.000000
0.009581 0.022521 -0.180855 0.000000 1.000000 0.000000
0.046280 -0.404279 -0.349536 0.300000 0.000000 0.600000
-0.055322 0.396947 0.630990 0.000000 0.500000 0.500000
-0.091049 0.085210 -0.328448 0.000000 1.000000 0.000000
-0.043801 0.036529 -0.307243 0.600000 0.300000 0.000000
0.026403 0.383271 0.571567 0.000000 0.500000 0.500000
0.045092 -0.221774 -0.148148 0.000000 0.500000 0.500000
0.035202 -0.034408 -0.353866 0.600000 0.300000 0.000000
0.103024 -0.391359 -0.289945 0.600000 0.300000 0.000000
0.061830 0.108202 -0.173456 0.000000 1.000000 0.000000
-0.043212 -0.438486 -0.257280 0.300000 0.000000 0.600000
0.026746 -0.258354 -0.351810 0.600000 0.300000 0.000000
0.093559 -0.291936 -0.347182 0.600000 0.300000 0.000000
0.059369 0.015463 0.122799 0.000000 0.500000 0.500000
-0.040683 0.354920 0.506506 0.000000 0.500000 0.500000
-0.070429 -0.034408 -0.301291 0.600000 0.300000 0.000000
0.014540 -0.080957 -0.401497 0.600000 0.300000 0.000000
-0.077611 0.366937 0.832031 0.300000 0.600000 0.000000
0.086960 -0.364921 -0.233852 0.600000 0.300000 0.000000
0.050393 0.248424 0.322353 0.000000 0.500000 0.500000
0.013606 -0.258354 -0.230673 0.600000 0.300000 0.000000
0.035583 0.099132 -0.331816 0.000000 1.000000 0.000000
0.082999 -0.162665 -0.357985 0.600000 0.300000 0.000000
-0.053083 0.023658 -0.384485 0.000000 1.000000 0.000000
0.054280 -0.438486 -0.291842 0.300000 0.000000 0.600000
0.100017 -0.081438 -0.318043 0.600000 0.300000 0.000000
0.056554 0.177219 0.316696 0.000000 0.500000 0.500000
0.048112 0.172922 0.218457 0.000000 0.500000 0.500000
-0.108330 -0.241870 -0.295454 0.600000 0.300000 0.000000
-0.003043 -0.110515 -0.063387 0.000000 0.500000 0.500000
-0.021905 0.182691 0.345705 0.000000 0.500000 0.500000
-0.060496 -0.019101 0.096078 0.000000 0.500000 0.500000
-0.049831 -0.413162 -0.402070 0.300000 0.000000 0.600000
-0.062527 0.280025 0.407164 0.000000 0.500000 0.500000
0.057564 -0.034408 -0.292896 0.600000 0.300000 0.000000
-0.071912 0.167420 -0.107592 0.000000 1.000000 0.000000
0.029328 0.158932 -0.197816 0.000000 1.000000 0.000000
0.049424 0.065432 0.194682 0.000000 0.500000 0.500000
0.019660 -0.373937 -0.401037 0.600000 0.300000 0.000000
-0.084243 -0.344160 -0.360699 0.600000 0.300000 0.000000
0.017523 0.273308 0.496956 0.000000 0.500000 0.500000
0.059106 0.271956 0.382592 0.000000 0.500000 0.500000
-0.069885 -0.438486 -0.311483 0.300000 0.000000 0.600000
-0.053048 -0.189049 -0.390179 0.600000 0.300000 0.000000
0.100161 0.068372 -0.262762 0.000000 1.000000 0.000000
-0.032492 -0.377287 -0.191723 0.600000 0.300000 0.000000
-0.017928 -0.034408 -0.237645 0.600000 0.300000 0.000000
-0.083929 0.133988 -0.225092 0.000000 1.000000 0.000000
-0.067572 0.313937 0.861256 0.600000 0.000000 0.300000
-0.059362 0.119684 -0.284412 0.000000 1.000000 0.000000
-0.060100 -0.035045 0.020344 0.000000 0.500000 0.500000
0.068783 0.378815 0.783975 0.300000 0.600000 0.000000
-0.049989 0.314884 0.583907 0.000000 0.500000 0.500000
0.063230 0.386290 0.661219 0.000000 0.500000 0.500000
-0.045987 -0.180168 -0.031225 0.000000 0.500000 0.500000
-0.019732 0.174106 -0.162487 0.000000 1.000000 0.000000
0.066109 0.170516 -0.085132 0.000000 1.000000 0.000000
0.083425 0.033108 -0.357366 0.000000 1.000000 0.000000
-0.000675 0.088829 0.229216 0.000000 0.500000 0.500000
0.029756 0.233431 0.421693 0.000000 0.500000 0.500000
-0.058810 -0.218813 -0.137519 0.000000 0.500000 0.500000
-0.054539 0.150635 0.196360 0.000000 0.500000 0.500000
0.057392 0.121723 0.173600 0.000000 0.500000 0.500000
-0.016016 0.092758 0.122844 0.000000 0.500000 0.500000
-0.079647 -0.406554 -0.213076 0.300000 0.000000 0.600000
0.050965 0.433866 0.776319 0.300000 0.600000 0.000000
-0.013672 0.421465 0.694841 0.000000 0.500000 0.500000
-0.059829 -0.258354 -0.324550 0.600000 0.300000 0.000000
0.060930 0.413321 0.884731 0.300000 0.600000 0.000000
-0.056033 0.227838 0.002454 0.000000 1.000000 0.000000
0.056011 0.025440 -0.278101 0.600000 0.300000 0.000000
0.058176 0.120097 -0.283698 0.000000 1.000000 0.000000
0.100204 -0.350978 -0.332125 0.600000 0.300000 0.000000
0.035024 -0.131753 0.012057 0.000000 0.500000 0.500000
0.010122 0.313065 0.594955 0.000000 0.500000 0.500000
0.056864 -0.183207 -0.047404 0.000000 0.500000 0.500000
-0.062450 0.352911 0.667848 0.000000 0.500000 0.500000
-0.033383 0.440903 0.876928 0.300000 0.600000 0.000000
-0.058999 0.044625 0.163029 0.000000 0.500000 0.500000
-0.021410 0.373996 0.918282 0.300000 0.600000 0.000000
-0.102467 -0.349268 -0.267942 0.600000 0.300000 0.000000
0.046146 -0.258354 -0.287942 0.600000 0.300000 0.000000
-0.047305 0.134097 0.275925 0.000000 0.500000 0.500000
0.044767 -0.092018 -0.204847 0.600000 0.300000 0.000000
-0.056320 0.277426 0.485179 0.000000 0.500000 0.500000
0.026532 -0.187195 -0.197520 0.600000 0.300000 0.000000
-0.063426 -0.181748 -0.211772 0.600000 0.300000 0.000000
-0.047252 0.273020 0.355827 0.000000 0.500000 0.500000
0.053272 -0.424303 -0.198538 0.300000 0.000000 0.600000
0.075229 0.368702 0.854361 0.300000 0.600000 0.000000
0.057486 0.328280 0.477073 0.000000 0.500000 0.500000
0.013861 -0.056306 0.083012 0.000000 0.500000 0.500000
0.059612 0.152126 0.269416 0.000000 0.500000 0.500000
-0.082930 -0.152102 -0.366091 0.600000 0.300000 0.000000
0.021195 0.065240 -0.370216 0.000000 1.000000 0.000000
-0.015538 0.175286 -0.057431 0.000000 1.000000 0.000000
0.033610 -0.230475 -0.396266 0.600000 0.300000 0.000000
-0.049455 0.024309 -0.250819 0.600000 0.300000 0.000000
0.008659 -0.215093 -0.054342 0.000000 0.500000 0.500000
0.073133 -0.011547 -0.215981 0.000000 1.000000 0.000000
0.007053 -0.256630 -0.178382 0.000000 0.500000 0.500000
-0.059172 0.427250 0.755848 0.300000 0.600000 0.000000
0.073752 -0.438486 -0.379765 0.300000 0.000000 0.600000
-0.063203 0.213794 0.324034 0.000000 0.500000 0.500000
0.088150 -0.181895 -0.246769 0.600000 0.300000 0.000000
-0.054133 -0.258354 -0.266975 0.600000 0.300000 0.000000
-0.105346 0.043434 -0.298836 0.000000 1.000000 0.000000
-0.016817 0.218406 0.268336 0.000000 0.500000 0.500000
-0.058371 -0.178454 -0.105631 0.000000 0.500000 0.500000
-0.027974 -0.034408 -0.343279 0.600000 0.300000 0.000000
0.024803 0.126489 -0.143100 0.000000 1.000000 0.000000
-0.028177 0.193404 -0.112541 0.000000 1.000000 0.000000
-0.074304 -0.034408 -0.250534 0.600000 0.300000 0.000000
0.056815 -0.404279 -0.250176 0.300000 0.000000 0.600000
-0.000282 0.210699 0.387735 0.000000 0.500000 0.500000
-0.040613 -0.262604 -0.193761 0.600000 0.300000 0.000000
-0.060655 -0.325010 -0.172555 0.000000 0.500000 0.500000
-0.005371 0.023066 -0.363458 0.600000 0.300000 0.000000
-0.019888 0.391216 0.591306 0.000000 0.500000 0.500000
-0.040320 0.005211 0.138529 0.000000 0.500000 0.500000
0.033809 -0.034408 -0.248481 0.600000 0.300000 0.000000
0.091275 -0.130736 -0.252616 0.600000 0.300000 0.000000
-0.018020 -0.404279 -0.230795 0.300000 0.000000 0.600000
-0.013485 -0.068313 -0.193685 0.600000 0.300000 0.000000
0.105889 0.026201 -0.303656 0.000000 1.000000 0.000000
-0.061909 -0.404279 -0.347333 0.300000 0.000000 0.600000
-0.062664 -0.106356 -0.027873 0.000000 0.500000 0.500000
0.073765 -0.012426 -0.375830 0.000000 1.000000 0.000000
-0.032933 -0.288867 -0.395870 0.600000 0.300000 0.000000
-0.061068 -0.083005 -0.385892 0.600000 0.300000 0.000000
-0.062970 -0.084220 0.016710 0.000000 0.500000 0.500000
-0.108354 -0.190897 -0.300235 0.600000 0.300000 0.000000
-0.091895 0.044434 -0.230886 0.000000 1.000000 0.000000
0.059604 -0.283172 -0.381641 0.600000 0.300000 0.000000
0.061594 0.344204 0.556283 0.000000 0.500000 0.500000
0.010168 -0.132148 -0.401927 0.600000 0.300000 0.000000
0.037585 -0.332016 -0.154910 0.000000 0.500000 0.500000
-0.045111 -0.268450 -0.104446 0.000000 0.500000 0.500000
-0.009527 0.372147 0.540603 0.000000 0.500000 0.500000
0.000090 0.242331 0.014285 0.000000 1.000000 0.000000
0.050721 -0.263913 -0.198480 0.600000 0.300000 0.000000
0.042639 0.308623 0.415478 0.000000 0.500000 0.500000
-0.064563 0.351629 0.616317 0.000000 0.500000 0.500000
-0.017806 -0.146915 -0.091842 0.000000 0.500000 0.500000
0.055843 0.322997 0.803729 0.600000 0.000000 0.300000
-0.021481 -0.258354 -0.355819 0.600000 0.300000 0.000000
-0.073799 -0.029408 -0.369526 0.600000 0.300000 0.000000
0.028249 0.022956 0.055426 0.000000 0.500000 0.500000
-0.116977 -0.429918 -0.306752 0.300000 0.000000 0.600000
0.062942 -0.328221 -0.201700 0.600000 0.300000 0.000000
0.034577 0.013414 -0.229361 0.600000 0.300000 0.000000
-0.101517 -0.299936 -0.257518 0.600000 0.300000 0.000000
0.089875 0.088567 -0.215529 0.000000 1.000000 0.000000
-0.020286 0.311537 0.415396 0.000000 0.500000 0.500000
0.016226 0.185983 -0.133405 0.000000 1.000000 0.000000
0.016416 -0.069073 -0.029701 0.000000 0.500000 0.500000
-0.072192 -0.236717 -0.376969 0.600000 0.300000 0.000000
0.016234 -0.438486 -0.325907 0.300000 0.000000 0.600000
0.052400 0.048132 0.088830 0.000000 0.500000 0.500000
-0.103059 -0.144020 -0.265904 0.600000 0.300000 0.000000
0.077921 0.151348 -0.185525 0.000000 1.000000 0.000000
-0.029304 0.107644 -0.319164 0.000000 1.000000 0.000000
0.030893 0.138768 -0.247059 0.000000 1.000000 0.000000
0.109187 -0.437869 -0.283756 0.300000 0.000000 0.600000
-0.033069 0.343371 0.773599 0.600000 0.000000 0.300000
0.060754 -0.136649 -0.040720 0.000000 0.500000 0.500000
-0.036291 0.124388 -0.148075 0.000000 1.000000 0.000000
0.030715 0.180138 -0.048937 0.000000 1.000000 0.000000
0.055253 0.354902 0.728263 0.000000 0.500000 0.500000
0.033460 0.419634 0.693660 0.000000 0.500000 0.500000
0.028838 0.023420 0.158537 0.000000 0.500000 0.500000
-0.069407 -0.404279 -0.275752 0.300000 0.000000 0.600000
0.003474 -0.010864 -0.404052 0.000000 1.000000 0.000000
-0.033259 0.044668 -0.191293 0.000000 1.000000 0.000000
-0.022337 0.440189 0.793819 0.300000 0.600000 0.000000
0.060653 -0.060112 0.021294 0.000000 0.500000 0.500000
0.053016 0.392466 0.616328 0.000000 0.500000 0.500000
0.091771 -0.392758 -0.350287 0.600000 0.300000 0.000000
-0.063244 0.320934 0.539395 0.000000 0.500000 0.500000
0.004985 -0.404279 -0.188232 0.300000 0.000000 0.600000
0.059038 -0.190770 -0.106625 0.000000 0.500000 0.500000
0.057999 -0.259638 -0.115926 0.000000 0.500000 0.500000
0.084864 -0.052375 -0.355311 0.600000 0.300000 0.000000
0.013445 0.223074 -0.039124 0.000000 1.000000 0.000000
0.039271 0.062900 -0.191344 0.000000 1.000000 0.000000
-0.011192 -0.022444 -0.190437 0.000000 1.000000 0.000000
-0.046955 0.162965 0.312562 0.000000 0.500000 0.500000
-0.006493 -0.404279 -0.378498 0.300000 0.000000 0.600000
-0.076005 -0.224653 -0.222094 0.600000 0.300000 0.000000
0.052232 -0.024697 0.101968 0.000000 0.500000 0.500000
0.020076 0.313636 0.903645 0.600000 0.000000 0.300000
-0.015982 -0.164330 -0.193931 0.600000 0.300000 0.000000
0.100422 -0.203944 -0.313923 0.600000 0.300000 0.000000
-0.057842 0.019826 0.066082 0.000000 0.500000 0.500000
0.023525 0.109844 0.141077 0.000000 0.500000 0.500000
-0.015355 -0.104915 0.038485 0.000000 0.500000 0.500000
0.101331 -0.044604 -0.291232 0.600000 0.300000 0.000000
-0.009880 -0.188256 -0.402604 0.600000 0.300000 0.000000
0.097154 -0.125145 -0.327792 0.600000 0.300000 0.000000
-0.062839 0.160159 0.239372 0.000000 0.500000 0.500000
0.029406 0.326278 0.636012 0.000000 0.500000 0.500000
-0.039801 0.066271 0.201177 0.000000 0.500000 0.500000
0.067651 -0.258354 -0.328570 0.600000 0.300000 0.000000
-0.074398 0.055517 -0.362622 0.000000 1.000000 0.000000
0.071668 -0.057322 -0.224141 0.600000 0.300000 0.000000
-0.014074 0.016967 -0.223346 0.600000 0.300000 0.000000
-0.101697 -0.266973 -0.333897 0.600000 0.300000 0.000000
-0.108418 -0.013277 -0.305037 0.000000 1.000000 0.000000
-0.012361 0.335302 0.678182 0.000000 0.500000 0.500000
-0.107002 -0.095889 -0.313955 0.600000 0.300000 0.000000
-0.001209 -0.223405 -0.151744 0.000000 0.500000 0.500000
0.105918 -0.284118 -0.305025 0.600000 0.300000 0.000000
0.041436 0.208972 0.011428 0.000000 1.000000 0.000000
0.056804 0.289779 0.501701 0.000000 0.500000 0.500000
0.023729 0.254160 0.458706 0.000000 0.500000 0.500000
0.046596 0.440869 0.852758 0.300000 0.600000 0.000000
0.034665 0.150295 -0.105912 0.000000 1.000000 0.000000
-0.049070 0.235547 0.418109 0.000000 0.500000 0.500000
-0.098606 -0.244656 -0.254014 0.600000 0.300000 0.000000
-0.065140 0.366719 0.727031 0.000000 0.500000 0.500000
0.049033 -0.404433 -0.398057 0.300000 0.000000 0.600000
0.038818 -0.046912 -0.394266 0.600000 0.300000 0.000000
-0.070089 0.428503 0.859621 0.300000 0.600000 0.000000
0.004501 0.117613 0.262274 0.000000 0.500000 0.500000
0.071051 0.011822 -0.322987 0.600000 0.300000 0.000000
-0.023222 -0.438486 -0.307577 0.300000 0.000000 0.600000
0.061249 0.074861 -0.354803 0.000000 1.000000 0.000000
0.014034 -0.249399 -0.082557 0.000000 0.500000 0.500000
-0.063392 0.319977 0.497337 0.000000 0.500000 0.500000
0.057468 -0.054387 0.064092 0.000000 0.500000 0.500000
-0.003084 0.313383 0.786024 0.600000 0.000000 0.300000
0.068617 -0.404279 -0.311166 0.300000 0.000000 0.600000
-0.070649 0.353760 0.873565 0.300000 0.600000 0.000000
-0.094557 -0.385954 -0.247913 0.600000 0.300000 0.000000
-0.052827 0.195368 -0.023388 0.000000 1.000000 0.000000
-0.002273 0.346482 0.482687 0.000000 0.500000 0.500000
-0.021315 -0.025361 0.009839 0.000000 0.500000 0.500000
0.096413 0.103943 -0.283440 0.000000 1.000000 0.000000
0.101125 -0.110941 -0.289143 0.600000 0.300000 0.000000
0.019085 0.238683 0.297243 0.000000 0.500000 0.500000
-0.107633 -0.055101 -0.307550 0.600000 0.300000 0.000000
0.020753 0.186857 0.351344 0.000000 0.500000 0.500000
0.056508 -0.258354 -0.238910 0.600000 0.300000 0.000000
-0.032863 -0.300669 -0.127015 0.000000 0.500000 0.500000
0.036427 0.428490 0.733788 0.000000 0.500000 0.500000
0.016767 0.342592 0.718264 0.000000 0.500000 0.500000
-0.032677 0.135745 -0.254145 0.000000 1.000000 0.000000
0.006882 0.227060 0.056809 0.000000 1.000000 0.000000
0.062116 -0.438486 -0.332758 0.300000 0.000000 0.600000
0.064257 -0.200024 -0.378078 0.600000 0.300000 0.000000
-0.068115 -0.376220 -0.380227 0.600000 0.300000 0.000000
0.023619 -0.139211 -0.196636 0.600000 0.300000 0.000000
-0.085550 -0.087194 -0.233035 0.600000 0.300000 0.000000
0.029334 -0.438486 -0.366101 0.300000 0.000000 0.600000
0.005004 0.267318 0.339921 0.000000 0.500000 0.500000
-0.059985 0.077663 0.127967 0.000000 0.500000 0.500000
-0.018013 -0.438486 -0.402144 0.300000 0.000000 0.600000
-0.059528 0.262261 0.446884 0.000000 0.500000 0.500000
0.018494 0.440663 0.799454 0.300000 0.600000 0.000000
-0.037571 -0.034408 -0.272927 0.600000 0.300000 0.000000
0.055333 0.205971 -0.069174 0.000000 1.000000 0.000000
0.061248 0.326281 0.520209 0.000000 0.500000 0.500000
0.015997 -0.438486 -0.278370 0.300000 0.000000 0.600000
-0.023176 -0.044537 0.093242 0.000000 0.500000 0.500000
-0.054843 -0.104888 -0.206714 0.600000 0.300000 0.000000
-0.006799 -0.143195 0.004870 0.000000 0.500000 0.500000
-0.007770 -0.404279 -0.338148 0.300000 0.000000 0.600000
-0.027856 0.226239 -0.028873 0.000000 1.000000 0.000000
0.011811 -0.310880 -0.132777 0.000000 0.500000 0.500000
-0.075895 0.399844 0.801514 0.300000 0.600000 0.000000
0.059767 0.049134 0.152948 0.000000 0.500000 0.500000
-0.045581 0.411595 0.668263 0.000000 0.500000 0.500000
0.090437 -0.326786 -0.244403 0.600000 0.300000 0.000000
-0.063773 -0.300205 -0.203986 0.600000 0.300000 0.000000
0.047828 -0.132599 -0.389450 0.600000 0.300000 0.000000
0.097121 0.031474 -0.245961 0.000000 1.000000 0.000000
-0.025186 -0.090418 -0.400819 0.600000 0.300000 0.000000
0.034208 0.151437 0.187802 0.000000 0.500000 0.500000
-0.058765 -0.317367 -0.386833 0.600000 0.300000 0.000000
-0.049491 -0.145659 -0.203853 0.600000 0.300000 0.000000
-0.097121 -0.304588 -0.344950 0.600000 0.300000 0.000000
0.012448 -0.005422 0.028007 0.000000 0.500000 0.500000
-0.025538 0.214752 0.029900 0.000000 1.000000 0.000000
-0.089659 -0.112510 -0.357893 0.600000 0.300000 0.000000
-0.005344 0.043405 -0.302858 0.600000 0.300000 0.000000
0.020236 0.196388 0.240159 0.000000 0.500000 0.500000
-0.027555 -0.258354 -0.230488 0.600000 0.300000 0.000000
-0.062807 0.109193 -0.172623 0.000000 1.000000 0.000000
-0.052845 0.170014 -0.073189 0.000000 1.000000 0.000000
0.058953 -0.101158 0.016025 0.000000 0.500000 0.500000
-0.107739 -0.406670 -0.343768 0.300000 0.000000 0.600000
0.091182 -0.224371 -0.252442 0.600000 0.300000 0.000000
-0.062068 0.153014 -0.197903 0.000000 1.000000 0.000000
-0.057332 0.176432 -0.142575 0.000000 1.000000 0.000000
-0.083868 -0.003899 -0.225644 0.000000 1.000000 0.000000
0.049447 0.011711 -0.355882 0.600000 0.300000 0.000000
0.028282 -0.404279 -0.220537 0.300000 0.000000 0.600000
0.027259 -0.225993 -0.197740 0.600000 0.300000 0.000000
0.070321 0.136498 -0.141880 0.000000 1.000000 0.000000
-0.039453 0.027705 -0.344773 0.600000 0.300000 0.000000
0.010255 -0.262841 -0.393482 0.600000 0.300000 0.000000
0.015226 0.396719 0.606635 0.000000 0.500000 0.500000
0.036944 -0.119350 -0.068581 0.000000 0.500000 0.500000
-0.063028 -0.034644 0.060821 0.000000 0.500000 0.500000
0.098996 -0.278504 -0.257497 0.600000 0.300000 0.000000
0.073776 -0.108107 -0.226710 0.600000 0.300000 0.000000
-0.036345 0.413095 0.907565 0.300000 0.600000 0.000000
0.018813 0.080070 0.110387 0.000000 0.500000 0.500000
0.011448 -0.404279 -0.255567 0.300000 0.000000 0.600000
-0.061360 -0.196319 -0.065969 0.000000 0.500000 0.500000
0.059555 0.216608 0.302793 0.000000 0.500000 0.500000
-0.096097 -0.029526 -0.337609 0.600000 0.300000 0.000000
-0.014283 0.212376 -0.067243 0.000000 1.000000 0.000000
-0.060000 -0.438486 -0.221099 0.300000 0.000000 0.600000
-0.104956 -0.340517 -0.324803 0.600000 0.300000 0.000000
-0.093625 0.104409 -0.292099 0.000000 1.000000 0.000000
-0.081592 0.013543 -0.300570 0.600000 0.300000 0.000000
0.059904 0.257875 0.419791 0.000000 0.500000 0.500000
0.060632 0.242339 0.358681 0.000000 0.500000 0.500000
0.075418 -0.034408 -0.259272 0.600000 0.300000 0.000000
-0.001907 -0.338188 -0.403034 0.600000 0.300000 0.000000
0.060248 -0.182113 -0.214566 0.600000 0.300000 0.000000
-0.063833 0.351925 0.800019 0.300000 0.600000 0.000000
-0.032492 0.051077 0.082605 0.000000 0.500000 0.500000
-0.058246 -0.438486 -0.374060 0.300000 0.000000 0.600000
-0.104999 -0.041824 -0.272302 0.600000 0.300000 0.000000
0.039533 -0.404279 -0.285922 0.300000 0.000000 0.600000
0.065769 -0.391246 -0.215942 0.600000 0.300000 0.000000
-0.002099 -0.034408 -0.370698 0.600000 0.300000 0.000000
-0.006826 0.302161 0.563099 0.000000 0.500000 0.500000
-0.036253 -0.239614 -0.164260 0.000000 0.500000 0.500000
-0.044238 0.194979 0.242297 0.000000 0.500000 0.500000
-0.034096 -0.093036 -0.048455 0.000000 0.500000 0.500000
-0.053440 -0.404279 -0.309702 0.300000 0.000000 0.600000
0.062965 0.365253 0.693043 0.000000 0.500000 0.500000
-0.027372 -0.404279 -0.268273 0.300000 0.000000 0.600000
0.001506 -0.366154 -0.180539 0.600000 0.300000 0.000000
-0.041228 0.425005 0.719941 0.000000 0.500000 0.500000
0.059889 0.346840 0.642657 0.000000 0.500000 0.500000
0.005184 0.441345 0.882848 0.300000 0.600000 0.000000
-0.092471 0.097055 -0.224015 0.000000 1.000000 0.000000
0.090184 -0.007905 -0.294479 0.600000 0.300000 0.000000
0.051728 0.189260 -0.113795 0.000000 1.000000 0.000000
-0.004419 -0.438486 -0.209870 0.300000 0.000000 0.600000
0.060226 0.138604 0.211156 0.000000 0.500000 0.500000
-0.060062 -0.147984 -0.019259 0.000000 0.500000 0.500000
0.023758 -0.178047 -0.116133 0.000000 0.500000 0.500000
-0.020519 0.267949 0.486249 0.000000 0.500000 0.500000
0.021154 0.165114 0.321364 0.000000 0.500000 0.500000
0.060445 0.368331 0.584189 0.000000 0.500000 0.500000
0.101126 -0.405294 -0.252887 0.300000 0.000000 0.600000
-0.054597 -0.404279 -0.242002 0.300000 0.000000 0.600000
-0.030795 0.442647 0.832724 0.300000 0.600000 0.000000
0.003291 0.344046 0.915881 0.300000 0.600000 0.000000
-0.043081 0.231404 0.291026 0.000000 0.500000 0.500000
-0.022772 0.049385 -0.382260 0.000000 1.000000 0.000000
0.060628 0.010295 0.086576 0.000000 0.500000 0.500000
0.052758 0.317810 0.887722 0.600000 0.000000 0.300000
0.040394 -0.001433 -0.196427 0.000000 1.000000 0.000000
-0.011393 0.019236 0.155859 0.000000 0.500000 0.500000
0.033559 -0.335356 -0.394947 0.600000 0.300000 0.000000
-0.017860 0.159108 0.195245 0.000000 0.500000 0.500000
0.046362 0.312879 0.579323 0.000000 0.500000 0.500000
-0.026053 -0.000783 -0.383559 0.600000 0.300000 0.000000
-0.032675 0.128832 0.162073 0.000000 0.500000 0.500000
0.045198 -0.160268 -0.015465 0.000000 0.500000 0.500000
-0.063191 0.110968 0.194599 0.000000 0.500000 0.500000
0.058020 0.184587 0.251388 0.000000 0.500000 0.500000
-0.107541 -0.401794 -0.286031 0.600000 0.300000 0.000000
0.028888 0.386945 0.914928 0.300000 0.600000 0.000000
-0.005978 0.345414 0.749958 0.000000 0.500000 0.500000
0.013472 0.065771 0.203842 0.000000 0.500000 0.500000
0.100037 -0.200823 -0.278100 0.600000 0.300000 0.000000
0.026945 -0.034408 -0.318954 0.600000 0.300000 0.000000
0.049156 -0.057984 -0.012574 0.000000 0.500000 0.500000
0.069010 0.101705 -0.319192 0.000000 1.000000 0.000000
0.009951 0.289215 0.531990 0.000000 0.500000 0.500000
-0.101839 -0.172916 -0.334050 0.600000 0.300000 0.000000
0.099734 -0.363316 -0.267114 0.600000 0.300000 0.000000
-0.089076 0.119160 -0.260017 0.000000 1.000000 0.000000
-0.062870 -0.223017 -0.102488 0.000000 0.500000 0.500000
-0.047317 0.351420 0.903151 0.300000 0.600000 0.000000
0.099418 -0.244934 -0.320330 0.600000 0.300000 0.000000
0.073235 -0.034408 -0.324669 0.600000 0.300000 0.000000
0.052299 0.048511 -0.376680 0.000000 1.000000 0.000000
-0.060853 -0.030048 -0.213614 0.600000 0.300000 0.000000
0.018393 0.172351 -0.167042 0.000000 1.000000 0.000000
0.037041 0.273676 0.353324 0.000000 0.500000 0.500000
-0.108395 -0.276453 -0.288369 0.600000 0.300000 0.000000
0.010549 0.161742 -0.082835 0.000000 1.000000 0.000000
0.006157 0.110501 -0.316186 0.000000 1.000000 0.000000
0.101455 -0.318416 -0.318816 0.600000 0.300000 0.000000
0.069090 0.005261 -0.252408 0.600000 0.300000 0.000000
0.074747 0.378417 0.820611 0.300000 0.600000 0.000000
-0.036334 0.340985 0.474574 0.000000 0.500000 0.500000
-0.087049 -0.168325 -0.234861 0.600000 0.300000 0.000000
-0.018800 0.402068 0.625189 0.000000 0.500000 0.500000
-0.003538 -0.079650 0.061668 0.000000 0.500000 0.500000
0.024989 -0.258354 -0.315857 0.600000 0.300000 0.000000
-0.008951 0.031571 0.062650 0.000000 0.500000 0.500000
0.014505 -0.258354 -0.265863 0.600000 0.300000 0.000000
-0.030105 0.112308 0.254653 0.000000 0.500000 0.500000
-0.103240 -0.231222 -0.329433 0.600000 0.300000 0.000000
0.002053 -0.409616 -0.411953 0.300000 0.000000 0.600000
0.067594 0.408184 0.756118 0.000000 0.500000 0.500000
-0.001245 -0.049316 -0.403051 0.600000 0.300000 0.000000
0.003540 0.086955 -0.349432 0.000000 1.000000 0.000000
0.063950 -0.244298 -0.378330 0.600000 0.300000 0.000000
-0.096940 0.051486 -0.334964 0.000000 1.000000 0.000000
0.060433 -0.296295 -0.188023 0.600000 0.300000 0.000000
0.060551 0.088950 0.162279 0.000000 0.500000 0.500000
-0.055186 0.247616 0.323270 0.000000 0.500000 0.500000
-0.078274 0.005040 -0.368397 0.000000 1.000000 0.000000
-0.075444 -0.438486 -0.270208 0.300000 0.000000 0.600000
-0.102124 0.041678 -0.264316 0.000000 1.000000 0.000000
0.011768 -0.093015 -0.194164 0.600000 0.300000 0.000000
0.087432 -0.325568 -0.352689 0.600000 0.300000 0.000000
0.043232 0.368308 0.539649 0.000000 0.500000 0.500000
-0.070033 0.329283 0.830390 0.600000 0.000000 0.300000
-0.053663 0.195507 0.351717 0.000000 0.500000 0.500000
0.026243 0.039409 -0.288570 0.600000 0.300000 0.000000
-0.045847 -0.258354 -0.381880 0.600000 0.300000 0.000000
-0.028587 -0.385339 -0.399597 0.600000 0.300000 0.000000
-0.045417 -0.404621 -0.208824 0.600000 0.300000 0.000000
0.060548 -0.438486 -0.249459 0.300000 0.000000 0.600000
-0.031073 -0.161423 -0.399033 0.600000 0.300000 0.000000
0.005552 0.058729 -0.186277 0.000000 1.000000 0.000000
0.043045 -0.289832 -0.122483 0.000000 0.500000 0.500000
-0.004110 0.163354 -0.191530 0.000000 1.000000 0.000000
-0.030123 0.038843 -0.275897 0.600000 0.300000 0.000000
-0.033358 0.079861 -0.185878 0.000000 1.000000 0.000000
-0.093815 -0.433699 -0.228464 0.300000 0.000000 0.600000
0.051466 -0.249283 -0.167428 0.000000 0.500000 0.500000
-0.032382 -0.020308 0.115513 0.000000 0.500000 0.500000
-0.053461 0.387723 0.598140 0.000000 0.500000 0.500000
0.023776 -0.437956 -0.188024 0.300000 0.000000 0.600000
0.024159 -0.404279 -0.317906 0.300000 0.000000 0.600000
0.034371 -0.014198 -0.385585 0.600000 0.300000 0.000000
-0.067111 0.037838 -0.208413 0.000000 1.000000 0.000000
0.033086 0.087276 0.224883 0.000000 0.500000 0.500000
-0.063193 0.253543 0.383911 0.000000 0.500000 0.500000
0.085800 0.117653 -0.195695 0.000000 1.000000 0.000000
0.095599 0.103313 -0.246005 0.000000 1.000000 0.000000
-0.107116 -0.114994 -0.283135 0.600000 0.300000 0.000000
-0.091835 -0.376626 -0.354166 0.600000 0.300000 0.000000
-0.028053 -0.204449 -0.046794 0.000000 0.500000 0.500000
-0.087079 -0.404279 -0.373513 0.300000 0.000000 0.600000
0.067551 -0.383654 -0.378697 0.600000 0.300000 0.000000
-0.068217 0.141477 -0.131875 0.000000 1.000000 0.000000
-0.059071 0.095976 -0.331629 0.000000 1.000000 0.000000
0.097106 -0.168879 -0.327953 0.600000 0.300000 0.000000
-0.074851 -0.258354 -0.293550 0.600000 0.300000 0.000000
-0.031812 0.295587 0.388055 0.000000 0.500000 0.500000
0.082635 -0.126451 -0.358429 0.600000 0.300000 0.000000
0.055545 0.146351 -0.218380 0.000000 1.000000 0.000000
0.015983 0.170696 0.208776 0.000000 0.500000 0.500000
0.007955 0.211726 0.025729 0.000000 1.000000 0.000000
0.055895 0.229976 0.396498 0.000000 0.500000 0.500000
0.046253 -0.083015 -0.390292 0.600000 0.300000 0.000000
-0.062971 -0.250746 -0.128043 0.000000 0.500000 0.500000
-0.003236 0.144269 -0.238171 0.000000 1.000000 0.000000
-0.009713 0.228056 0.414762 0.000000 0.500000 0.500000
0.009181 0.039813 -0.388491 0.000000 1.000000 0.000000
0.040666 0.124793 0.266136 0.000000 0.500000 0.500000
0.060264 0.380527 0.891087 0.300000 0.600000 0.000000
-0.093306 -0.327682 -0.240152 0.600000 0.300000 0.000000
0.025700 -0.034408 -0.282173 0.600000 0.300000 0.000000
-0.052725 0.308850 0.422240 0.000000 0.500000 0.500000
-0.063225 -0.034408 -0.336538 0.600000 0.300000 0.000000
-0.005528 -0.046827 -0.009956 0.000000 0.500000 0.500000
0.055600 0.316112 0.445099 0.000000 0.500000 0.500000
0.037140 0.435253 0.891982 0.300000 0.600000 0.000000
0.085902 -0.261299 -0.357108 0.600000 0.300000 0.000000
0.034272 0.194898 -0.017608 0.000000 1.000000 0.000000
-0.056815 -0.010807 -0.390835 0.000000 1.000000 0.000000
0.100342 -0.405072 -0.320172 0.600000 0.300000 0.000000
0.060397 0.098895 0.197212 0.000000 0.500000 0.500000
0.035031 0.231893 -0.011346 0.000000 1.000000 0.000000
-0.008238 -0.438486 -0.256139 0.300000 0.000000 0.600000
-0.059640 -0.353145 -0.191829 0.000000 0.500000 0.500000
-0.059743 0.358206 0.538357 0.000000 0.500000 0.500000
-0.021527 -0.258354 -0.322322 0.600000 0.300000 0.000000
0.103629 0.059210 -0.294076 0.000000 1.000000 0.000000
0.029995 0.100028 -0.175414 0.000000 1.000000 0.000000
0.016128 -0.112891 0.031102 0.000000 0.500000 0.500000
0.064859 0.348168 0.877716 0.300000 0.600000 0.000000
-0.067946 0.019082 -0.330200 0.600000 0.300000 0.000000
-0.062328 -0.064038 0.044083 0.000000 0.500000 0.500000
-0.021148 -0.254246 -0.087342 0.000000 0.500000 0.500000
0.071296 0.410601 0.791154 0.300000 0.600000 0.000000
-0.019288 0.009203 -0.189922 0.000000 1.000000 0.000000
-0.086742 0.116044 -0.198062 0.000000 1.000000 0.000000
-0.022575 0.315482 0.601456 0.000000 0.500000 0.500000
0.010936 -0.135020 -0.082556 0.000000 0.500000 0.500000
0.061639 0.404030 0.690029 0.000000 0.500000 0.500000
0.044768 0.152839 0.298932 0.000000 0.500000 0.500000
0.010987 0.000594 -0.209551 0.600000 0.300000 0.000000
-0.054282 -0.007259 0.035659 0.000000 0.500000 0.500000
-0.062135 0.162233 0.281215 0.000000 0.500000 0.500000
-0.031107 -0.123405 -0.072792 0.000000 0.500000 0.500000
0.034097 -0.002217 0.132156 0.000000 0.500000 0.500000
-0.078423 0.409088 0.832256 0.300000 0.600000 0.000000
-0.094683 -0.059503 -0.246675 0.600000 0.300000 0.000000
0.006145 0.427437 0.721511 0.000000 0.500000 0.500000
0.059828 0.203325 0.335159 0.000000 0.500000 0.500000
0.043918 0.268397 0.479373 0.000000 0.500000 0.500000
-0.082830 -0.404279 -0.323068 0.300000 0.000000 0.600000
-0.032284 -0.404279 -0.359457 0.300000 0.000000 0.600000
-0.040551 -0.258354 -0.296596 0.600000 0.300000 0.000000
-0.047218 -0.230609 -0.202638 0.600000 0.300000 0.000000
0.057607 0.360122 0.759735 0.000000 0.500000 0.500000
-0.062603 0.074078 0.174867 0.000000 0.500000 0.500000
0.048283 -0.021088 0.020189 0.000000 0.500000 0.500000
0.028064 -0.192485 -0.037286 0.000000 0.500000 0.500000
-0.066241 0.386887 0.670767 0.000000 0.500000 0.500000
0.037957 0.410572 0.659491 0.000000 0.500000 0.500000
-0.018584 -0.258354 -0.261038 0.600000 0.300000 0.000000
-0.036982 -0.046741 -0.198693 0.600000 0.300000 0.000000
-0.076172 -0.258354 -0.354064 0.600000 0.300000 0.000000
-0.097649 -0.109344 -0.252224 0.600000 0.300000 0.000000
0.098734 0.043892 -0.331839 0.000000 1.000000 0.000000
0.085742 -0.193899 -0.353671 0.600000 0.300000 0.000000
-0.031241 0.204835 0.376703 0.000000 0.500000 0.500000
-0.067827 0.426831 0.786280 0.300000 0.600000 0.000000
-0.105789 -0.217972 -0.274904 0.600000 0.300000 0.000000
-0.024748 0.161389 -0.084823 0.000000 1.000000 0.000000
-0.098672 -0.438486 -0.334430 0.300000 0.000000 0.600000
0.064493 0.081803 -0.193130 0.000000 1.000000 0.000000
-0.002873 0.116673 -0.154659 0.000000 1.000000 0.000000
0.059332 -0.124352 -0.006623 0.000000 0.500000 0.500000
-0.034624 -0.034408 -0.305386 0.600000 0.300000 0.000000
-0.062936 -0.166829 -0.055291 0.000000 0.500000 0.500000
0.060640 -0.175758 -0.079117 0.000000 0.500000 0.500000
0.103653 -0.359298 -0.302084 0.600000 0.300000 0.000000
0.031733 0.293374 0.384525 0.000000 0.500000 0.500000
-0.026747 -0.319963 -0.397490 0.600000 0.300000 0.000000
0.076640 -0.404279 -0.274348 0.300000 0.000000 0.600000
0.041685 0.441130 0.820307 0.300000 0.600000 0.000000
-0.064215 0.342641 0.583754 0.000000 0.500000 0.500000
0.086886 -0.083354 -0.351530 0.600000 0.300000 0.000000
-0.066875 0.192628 -0.090080 0.000000 1.000000 0.000000
-0.069930 0.393739 0.741673 0.000000 0.500000 0.500000
-0.028129 -0.211155 -0.142159 0.000000 0.500000 0.500000
-0.009707 0.162544 0.318616 0.000000 0.500000 0.500000
0.069717 0.156474 -0.112591 0.000000 1.000000 0.000000
-0.030525 0.379977 0.562092 0.000000 0.500000 0.500000
0.005051 0.187317 -0.031758 0.000000 1.000000 0.000000
0.006875 -0.034408 -0.217113 0.600000 0.300000 0.000000
-0.084969 -0.018378 -0.274861 0.000000 1.000000 0.000000
0.090612 -0.438486 -0.308479 0.300000 0.000000 0.600000
-0.045236 -0.223371 -0.394354 0.600000 0.300000 0.000000
0.017711 -0.202131 -0.401090 0.600000 0.300000 0.000000
0.011920 0.310657 0.413442 0.000000 0.500000 0.500000
-0.061466 0.027532 0.136654 0.000000 0.500000 0.500000
0.001045 -0.034408 -0.261900 0.600000 0.300000 0.000000
-0.057696 0.296425 0.521598 0.000000 0.500000 0.500000
-0.067367 -0.438486 -0.344691 0.300000 0.000000 0.600000
-0.054162 0.142288 -0.229423 0.000000 1.000000 0.000000
0.066248 -0.357271 -0.212473 0.600000 0.300000 0.000000
-0.019225 0.330151 0.451557 0.000000 0.500000 0.500000
-0.068304 -0.118782 -0.380159 0.600000 0.300000 0.000000
0.036133 0.032501 -0.193198 0.000000 1.000000 0.000000
0.100725 -0.074557 -0.285083 0.600000 0.300000 0.000000
-0.043941 0.176085 0.218300 0.000000 0.500000 0.500000
-0.010945 -0.259351 -0.202870 0.600000 0.300000 0.000000
0.027303 0.044945 0.180093 0.000000 0.500000 0.500000
0.058091 0.351790 0.793930 0.300000 0.600000 0.000000
-0.076536 0.392428 0.861126 0.300000 0.600000 0.000000
-0.034548 -0.354426 -0.171664 0.000000 0.500000 0.500000
-0.048665 -0.093940 0.042071 0.000000 0.500000 0.500000
0.076682 -0.258354 -0.298116 0.600000 0.300000 0.000000
-0.011713 0.114403 0.145348 0.000000 0.500000 0.500000
-0.058629 -0.156173 -0.387196 0.600000 0.300000 0.000000
-0.042200 0.339600 0.686238 0.000000 0.500000 0.500000
0.060513 -0.223230 -0.121971 0.000000 0.500000 0.500000
-0.029869 -0.438486 -0.229955 0.300000 0.000000 0.600000
-0.009636 0.358230 0.509689 0.000000 0.500000 0.500000
-0.071880 -0.376791 -0.212867 0.600000 0.300000 0.000000
-0.069309 0.021037 -0.273524 0.600000 0.300000 0.000000
0.066593 -0.064693 -0.376160 0.600000 0.300000 0.000000
0.001965 0.329146 0.651383 0.000000 0.500000 0.500000
-0.062810 0.358615 0.697940 0.000000 0.500000 0.500000
0.084212 -0.364370 -0.357477 0.600000 0.300000 0.000000
0.057150 -0.160822 -0.383910 0.600000 0.300000 0.000000
0.006100 -0.162652 -0.402328 0.600000 0.300000 0.000000
0.070126 -0.310993 -0.376538 0.600000 0.300000 0.000000
-0.049464 0.166911 -0.170104 0.000000 1.000000 0.000000
-0.048730 0.324004 0.613832 0.000000 0.500000 0.500000
-0.032463 -0.161405 -0.011989 0.000000 0.500000 0.500000
0.058853 0.188817 -0.042788 0.000000 1.000000 0.000000
-0.062875 0.187950 0.304528 0.000000 0.500000 0.500000
-0.038492 0.071521 0.103796 0.000000 0.500000 0.500000
-0.054267 0.335763 0.644601 0.000000 0.500000 0.500000
0.035592 0.029031 -0.254934 0.600000 0.300000 0.000000
-0.080754 -0.181876 -0.368743 0.600000 0.300000 0.000000
-0.063195 0.013206 0.094734 0.000000 0.500000 0.500000
-0.029648 0.242666 0.017262 0.000000 1.000000 0.000000
0.045693 -0.364449 -0.389845 0.600000 0.300000 0.000000
0.092498 -0.422913 -0.359950 0.300000 0.000000 0.600000
0.024589 0.435036 0.762378 0.300000 0.600000 0.000000
-0.060425 -0.062905 -0.003987 0.000000 0.500000 0.500000
0.041784 -0.198160 -0.130249 0.000000 0.500000 0.500000
-0.045435 -0.319189 -0.146703 0.000000 0.500000 0.500000
0.098463 0.013541 -0.338211 0.000000 1.000000 0.000000
0.075652 0.400865 0.850196 0.300000 0.600000 0.000000
-0.046426 0.152441 -0.103901 0.000000 1.000000 0.000000
0.039002 -0.260140 -0.382003 0.600000 0.300000 0.000000
-0.011391 0.038409 -0.331573 0.600000 0.300000 0.000000
-0.046864 0.349658 0.743177 0.000000 0.500000 0.500000
-0.014233 0.412455 0.660083 0.000000 0.500000 0.500000
0.092997 0.057265 -0.231758 0.000000 1.000000 0.000000
0.043387 -0.021486 -0.219334 0.000000 1.000000 0.000000
0.078559 -0.258354 -0.265166 0.600000 0.300000 0.000000
-0.058446 -0.052025 -0.387294 0.600000 0.300000 0.000000
-0.063202 0.229724 0.349065 0.000000 0.500000 0.500000
0.060752 0.149229 0.239963 0.000000 0.500000 0.500000
-0.024346 -0.411452 -0.185568 0.300000 0.000000 0.600000
-0.103054 0.071995 -0.291444 0.000000 1.000000 0.000000
0.034306 -0.087853 -0.043937 0.000000 0.500000 0.500000
0.060746 0.181217 0.280617 0.000000 0.500000 0.500000
0.042290 0.001528 0.038233 0.000000 0.500000 0.500000
-0.027905 0.104820 -0.171137 0.000000 1.000000 0.000000
-0.004906 0.251293 0.042434 0.000000 1.000000 0.000000
-0.086554 0.069289 -0.215226 0.000000 1.000000 0.000000
-0.062430 0.130709 0.239832 0.000000 0.500000 0.500000
-0.097926 -0.137820 -0.343192 0.600000 0.300000 0.000000
0.076383 -0.420881 -0.216396 0.300000 0.000000 0.600000
-0.029781 0.092289 0.231703 0.000000 0.500000 0.500000
-0.063250 0.290963 0.460084 0.000000 0.500000 0.500000
-0.017290 0.130202 0.277277 0.000000 0.500000 0.500000
-0.099372 -0.019485 -0.248317 0.000000 1.000000 0.000000
-0.039241 -0.192425 -0.199378 0.600000 0.300000 0.000000
-0.061791 -0.345952 -0.381965 0.600000 0.300000 0.000000
-0.056808 -0.258354 -0.231583 0.600000 0.300000 0.000000
-0.045086 -0.438486 -0.288326 0.300000 0.000000 0.600000
0.029254 0.337857 0.467876 0.000000 0.500000 0.500000
-0.107494 -0.322368 -0.279868 0.600000 0.300000 0.000000
-0.108701 -0.346579 -0.296241 0.600000 0.300000 0.000000
-0.013104 -0.184427 -0.029222 0.000000 0.500000 0.500000
0.048824 0.166082 -0.172247 0.000000 1.000000 0.000000
0.049236 0.030857 -0.307531 0.600000 0.300000 0.000000
0.052934 0.346850 0.501464 0.000000 0.500000 0.500000
0.082166 -0.438486 -0.268842 0.300000 0.000000 0.600000
0.022024 -0.031326 0.105416 0.000000 0.500000 0.500000
-0.005032 0.016107 -0.397337 0.000000 1.000000 0.000000
0.078101 -0.011228 -0.345292 0.600000 0.300000 0.000000
0.003532 -0.034408 -0.336012 0.600000 0.300000 0.000000
0.012114 0.213618 0.261835 0.000000 0.500000 0.500000
-0.001660 -0.086200 -0.044243 0.000000 0.500000 0.500000
0.070029 0.339741 0.836099 0.600000 0.000000 0.300000
0.077522 -0.159630 -0.231275 0.600000 0.300000 0.000000
-0.037418 0.301653 0.557535 0.000000 0.500000 0.500000
-0.031036 -0.091998 -0.196889 0.600000 0.300000 0.000000
0.080970 0.122711 -0.261407 0.000000 1.000000 0.000000
0.082916 0.013965 -0.224836 0.000000 1.000000 0.000000
-0.045191 -0.034408 -0.366256 0.600000 0.300000 0.000000
0.099079 -0.046488 -0.321449 0.600000 0.300000 0.000000
-0.058635 0.424276 0.885604 0.300000 0.600000 0.000000
0.014437 -0.347020 -0.162545 0.000000 0.500000 0.500000
-0.088514 -0.299126 -0.232056 0.600000 0.300000 0.000000
-0.105997 -0.170763 -0.275590 0.600000 0.300000 0.000000
0.022976 0.015988 -0.367343 0.600000 0.300000 0.000000
0.021668 -0.237539 -0.162992 0.000000 0.500000 0.500000
0.060060 -0.150153 -0.066517 0.000000 0.500000 0.500000
0.048217 0.237742 0.014608 0.000000 1.000000 0.000000
0.060762 0.043914 0.124313 0.000000 0.500000 0.500000
-0.002165 0.321163 0.620790 0.000000 0.500000 0.500000
-0.039453 0.203492 0.000410 0.000000 1.000000 0.000000
0.041385 -0.047901 0.086666 0.000000 0.500000 0.500000
0.095985 -0.054434 -0.264286 0.600000 0.300000 0.000000
-0.033357 0.039380 0.174173 0.000000 0.500000 0.500000
-0.065805 0.367590 0.639808 0.000000 0.500000 0.500000
-0.009679 0.071994 0.101955 0.000000 0.500000 0.500000
-0.025681 0.122884 -0.287428 0.000000 1.000000 0.000000
0.051949 -0.342571 -0.179837 0.600000 0.300000 0.000000
-0.043382 -0.438486 -0.329573 0.300000 0.000000 0.600000
-0.105538 -0.373581 -0.284248 0.600000 0.300000 0.000000
0.007337 0.003178 0.139724 0.000000 0.500000 0.500000
-0.059326 -0.262312 -0.172561 0.000000 0.500000 0.500000
-0.028010 0.186675 -0.034828 0.000000 1.000000 0.000000
-0.025015 0.266671 0.339699 0.000000 0.500000 0.500000
0.050857 -0.438486 -0.222778 0.300000 0.000000 0.600000
0.026968 0.213616 -0.061958 0.000000 1.000000 0.000000
0.058036 -0.314291 -0.162585 0.000000 0.500000 0.500000
0.041132 -0.307248 -0.394620 0.600000 0.300000 0.000000
0.063053 -0.034408 -0.357627 0.600000 0.300000 0.000000
0.022298 -0.260179 -0.204037 0.600000 0.300000 0.000000
0.087463 -0.263153 -0.237056 0.600000 0.300000 0.000000
0.100396 -0.138020 -0.281742 0.600000 0.300000 0.000000
0.044442 0.111584 -0.308353 0.000000 1.000000 0.000000
0.056380 -0.205034 -0.064920 0.000000 0.500000 0.500000
-0.055298 0.328995 0.888446 0.600000 0.000000 0.300000
-0.052614 0.182688 -0.048295 0.000000 1.000000 0.000000
0.062808 0.363433 0.620405 0.000000 0.500000 0.500000
0.021193 0.254920 0.320877 0.000000 0.500000 0.500000
-0.079176 -0.050673 -0.225268 0.600000 0.300000 0.000000
-0.062216 0.131177 -0.253660 0.000000 1.000000 0.000000
-0.075240 -0.209148 -0.374467 0.600000 0.300000 0.000000
-0.051963 -0.048245 0.082365 0.000000 0.500000 0.500000
-0.008560 0.199739 0.243996 0.000000 0.500000 0.500000
-0.037302 0.435859 0.770624 0.300000 0.600000 0.000000
-0.046349 -0.034408 -0.236866 0.600000 0.300000 0.000000
0.030544 0.218814 0.397767 0.000000 0.500000 0.500000
-0.106641 0.016777 -0.289140 0.000000 1.000000 0.000000
-0.015898 -0.122753 -0.402011 0.600000 0.300000 0.000000
0.035240 -0.404522 -0.191394 0.300000 0.000000 0.600000
0.004618 0.195777 -0.110095 0.000000 1.000000 0.000000
-0.050458 0.051412 -0.375909 0.000000 1.000000 0.000000
0.104806 0.020633 -0.276587 0.000000 1.000000 0.000000
-0.026656 -0.404279 -0.316568 0.300000 0.000000 0.600000
-0.082519 -0.194981 -0.229341 0.600000 0.300000 0.000000
-0.103044 -0.270993 -0.261859 0.600000 0.300000 0.000000
0.018821 -0.404279 -0.351925 0.300000 0.000000 0.600000
-0.040924 0.201628 -0.088224 0.000000 1.000000 0.000000
0.000942 -0.232502 -0.193098 0.600000 0.300000 0.000000
-0.043338 0.103044 0.136809 0.000000 0.500000 0.500000
0.020378 0.303915 0.566721 0.000000 0.500000 0.500000
0.103009 -0.377322 -0.322808 0.600000 0.300000 0.000000
0.020751 -0.067104 -0.195766 0.600000 0.300000 0.000000
0.050259 -0.119321 -0.207783 0.600000 0.300000 0.000000
0.042412 -0.162094 -0.203588 0.600000 0.300000 0.000000
-0.063080 -0.006737 0.070543 0.000000 0.500000 0.500000
-0.079317 -0.317797 -0.366493 0.600000 0.300000 0.000000
0.003394 -0.438486 -0.357224 0.300000 0.000000 0.600000
0.060585 -0.247307 -0.140265 0.000000 0.500000 0.500000
-0.052110 -0.152106 -0.090526 0.000000 0.500000 0.500000
0.060635 0.013978 -0.206488 0.000000 1.000000 0.000000
-0.086480 0.031180 -0.354595 0.000000 1.000000 0.000000
-0.029117 -0.021947 -0.211051 0.000000 1.000000 0.000000
0.031606 0.125248 -0.280126 0.000000 1.000000 0.000000
0.002182 0.438071 0.777732 0.300000 0.600000 0.000000
-0.071899 0.404496 0.769876 0.300000 0.600000 0.000000
0.024737 -0.268212 -0.099117 0.000000 0.500000 0.500000
-0.028117 0.148528 0.299227 0.000000 0.500000 0.500000
0.098675 -0.304902 -0.263937 0.600000 0.300000 0.000000
-0.063048 -0.292477 -0.177970 0.000000 0.500000 0.500000
-0.055261 -0.113489 -0.056725 0.000000 0.500000 0.500000
0.069822 0.426684 0.856212 0.300000 0.600000 0.000000
-0.011002 -0.167648 -0.108135 0.000000 0.500000 0.500000
-0.037341 0.280559 0.508362 0.000000 0.500000 0.500000
-0.013564 0.434788 0.901271 0.300000 0.600000 0.000000
0.007799 -0.236203 -0.402161 0.600000 0.300000 0.000000
-0.090875 -0.355530 -0.240902 0.600000 0.300000 0.000000
-0.010562 0.404236 0.917081 0.300000 0.600000 0.000000
-0.083560 -0.054459 -0.365324 0.600000 0.300000 0.000000
-0.062125 0.078116 -0.351623 0.000000 1.000000 0.000000
-0.032771 -0.044230 -0.006310 0.000000 0.500000 0.500000
-0.018345 -0.226395 -0.064060 0.000000 0.500000 0.500000
-0.005035 -0.192702 -0.192853 0.600000 0.300000 0.000000
-0.003821 0.196080 0.365357 0.000000 0.500000 0.500000
-0.098018 -0.438486 -0.289610 0.300000 0.000000 0.600000
0.053643 -0.258354 -0.353250 0.600000 0.300000 0.000000
-0.055334 -0.405047 -0.376983 0.600000 0.300000 0.000000
0.016192 0.368966 0.533289 0.000000 0.500000 0.500000
-0.016021 -0.267875 -0.396468 0.600000 0.300000 0.000000
0.022851 -0.151754 -0.003114 0.000000 0.500000 0.500000
0.050704 -0.436572 -0.398594 0.300000 0.000000 0.600000
0.024167 -0.404279 -0.387821 0.300000 0.000000 0.600000
0.060697 -0.036070 0.044642 0.000000 0.500000 0.500000
0.051108 -0.066133 -0.208237 0.600000 0.300000 0.000000
0.084850 0.062983 -0.350024 0.000000 1.000000 0.000000
-0.059630 0.001498 0.118621 0.000000 0.500000 0.500000
-0.035650 0.219718 0.398574 0.000000 0.500000 0.500000
0.051504 0.029276 0.069781 0.000000 0.500000 0.500000
-0.035037 -0.064724 -0.397831 0.600000 0.300000 0.000000
-0.005464 0.067620 -0.368690 0.000000 1.000000 0.000000
0.030173 -0.103280 -0.397309 0.600000 0.300000 0.000000
-0.031348 0.310962 0.787311 0.600000 0.000000 0.300000
-0.112598 -0.404279 -0.315507 0.300000 0.000000 0.600000
-0.048022 -0.258354 -0.352474 0.600000 0.300000 0.000000
0.009551 -0.438486 -0.384893 0.300000 0.000000 0.600000
0.036742 0.319161 0.785425 0.600000 0.000000 0.300000
0.003286 -0.258354 -0.332157 0.600000 0.300000 0.000000
0.002241 0.261405 0.473960 0.000000 0.500000 0.500000
-0.055245 0.221759 -0.026395 0.000000 1.000000 0.000000
0.002186 0.013630 0.045585 0.000000 0.500000 0.500000
-0.017229 0.235126 -0.006136 0.000000 1.000000 0.000000
0.000735 0.381933 0.564857 0.000000 0.500000 0.500000
0.012090 0.140165 -0.119812 0.000000 1.000000 0.000000
-0.002671 -0.435421 -0.183567 0.300000 0.000000 0.600000
0.060443 -0.078189 0.000305 0.000000 0.500000 0.500000
0.031108 0.402184 0.628569 0.000000 0.500000 0.500000
-0.009590 0.184224 -0.138835 0.000000 1.000000 0.000000
0.048564 0.254732 0.449744 0.000000 0.500000 0.500000
-0.101727 -0.113059 -0.334422 0.600000 0.300000 0.000000
